ply
format ascii 1.0
element vertex 333
property float32 x
property float32 y
property float32 z
property float32 I
end_header
16.9875 -18.8372 -1.2864 0.9034
12.5079 -12.0062 -0.8793 0.9329
12.7183 -11.3567 -0.8647 0.9340
22.5702 -18.7375 -1.4877 0.8892
13.9289 -10.7402 -0.8920 0.9320
14.0561 -10.0523 -0.8764 0.9331
26.3499 -12.4274 -1.4775 0.8899
27.1061 -10.4711 -1.4737 0.8901
28.1798 -6.4359 -1.4659 0.8907
28.7124 -3.3590 -1.4661 0.8907
28.8148 -2.3226 -1.4661 0.8907
28.8797 -1.2832 -1.4661 0.8907
28.7647 2.8774 -1.4661 0.8907
29.0663 3.9695 -1.4877 0.8891
12.8480 -15.3224 -1.4662 0.9229
13.3915 -14.8497 -1.4662 0.9229
12.6729 -12.1645 -1.2880 0.9320
15.3851 -12.7725 -1.4661 0.9229
15.2543 -9.3267 -1.3110 0.9308
17.4243 -9.8094 -1.4661 0.9229
18.0853 -8.5296 -1.4661 0.9229
18.3808 -7.8726 -1.4661 0.9229
18.6523 -7.2054 -1.4661 0.9229
18.8997 -6.5289 -1.4661 0.9229
22.0732 -0.1849 -1.6185 0.9153
10.2277 -11.3414 -1.4662 0.9405
11.2659 -10.8140 -1.4992 0.9392
12.3736 -10.2724 -1.5439 0.9374
12.9375 -9.9758 -1.5684 0.9365
13.5199 -9.6689 -1.5957 0.9354
14.0072 -9.2735 -1.6128 0.9347
14.3691 -8.7856 -1.6169 0.9346
14.9794 -7.7361 -1.6186 0.9345
15.2483 -7.1916 -1.6186 0.9345
15.9350 -5.5048 -1.6185 0.9345
16.2899 -4.3433 -1.6185 0.9345
16.5603 -3.1593 -1.6185 0.9345
16.6634 -2.5608 -1.6185 0.9345
16.7448 -1.9589 -1.6185 0.9345
16.8424 -0.7484 -1.6185 0.9345
16.8249 1.0728 -1.6185 0.9345
8.7551 -10.4413 -1.6186 0.9466
9.1255 -10.1192 -1.6186 0.9466
9.4840 -9.7839 -1.6186 0.9466
9.8303 -9.4359 -1.6186 0.9466
10.1637 -9.0757 -1.6186 0.9466
10.4840 -8.7037 -1.6186 0.9466
11.8737 -6.6846 -1.6186 0.9466
12.1068 -6.2526 -1.6186 0.9466
12.5255 -5.3647 -1.6186 0.9466
12.7105 -4.9101 -1.6186 0.9466
12.8791 -4.4491 -1.6186 0.9466
13.1660 -3.5104 -1.6186 0.9466
13.2839 -3.0339 -1.6186 0.9466
13.3846 -2.5534 -1.6186 0.9466
13.4679 -2.0697 -1.6186 0.9466
13.5819 -1.0948 -1.6186 0.9466
13.6125 -0.6049 -1.6186 0.9466
13.6255 -0.1142 -1.6186 0.9466
13.5984 0.8670 -1.6186 0.9466
13.5583 1.3563 -1.6186 0.9466
7.6505 -8.4835 -1.6186 0.9549
7.9511 -8.2024 -1.6186 0.9549
8.2413 -7.9107 -1.6186 0.9549
8.5209 -7.6087 -1.6186 0.9549
9.0465 -6.9756 -1.6186 0.9549
9.2919 -6.6452 -1.6186 0.9549
9.7462 -5.9590 -1.6186 0.9549
10.1499 -5.2419 -1.6186 0.9549
10.5009 -4.4976 -1.6186 0.9549
10.9248 -3.3386 -1.6186 0.9549
11.0379 -2.9430 -1.6186 0.9549
11.2212 -2.1407 -1.6186 0.9549
11.4231 -0.0957 -1.6186 0.9549
11.4004 0.7269 -1.6186 0.9549
11.3668 1.1370 -1.6186 0.9549
11.3185 1.5457 -1.6186 0.9549
6.3130 -7.5289 -1.6186 0.9610
7.3287 -6.5442 -1.6186 0.9610
7.5597 -6.2760 -1.6186 0.9610
8.7298 -4.5085 -1.6186 0.9610
9.0317 -3.8683 -1.6186 0.9610
9.5786 -2.1876 -1.6186 0.9610
9.7112 -1.4924 -1.6186 0.9610
9.7935 -0.7894 -1.6186 0.9610
9.8215 0.2716 -1.6186 0.9610
9.7764 0.9780 -1.6186 0.9610
5.9938 -6.1833 -1.6186 0.9656
6.4233 -5.7357 -1.6186 0.9656
7.0046 -5.0094 -1.6186 0.9656
7.1804 -4.7538 -1.6186 0.9656
7.3470 -4.4921 -1.6186 0.9656
7.5040 -4.2245 -1.6186 0.9656
7.9159 -3.3904 -1.6186 0.9656
8.1394 -2.8118 -1.6186 0.9656
8.2354 -2.5168 -1.6186 0.9656
8.3207 -2.2185 -1.6186 0.9656
8.5115 -1.3080 -1.6186 0.9656
8.5836 -0.6919 -1.6186 0.9656
8.5820 -0.0719 -1.6131 0.9657
8.6081 0.2381 -1.6186 0.9656
8.5687 0.8571 -1.6186 0.9656
5.1282 -5.6866 -1.6186 0.9692
5.5243 -5.3027 -1.6186 0.9692
6.0640 -4.6758 -1.6186 0.9692
6.2285 -4.4544 -1.6186 0.9692
6.3849 -4.2271 -1.6186 0.9692
6.5330 -3.9944 -1.6186 0.9692
6.8036 -3.5137 -1.6186 0.9692
7.1429 -2.7593 -1.6186 0.9692
7.5217 -1.4350 -1.6186 0.9692
7.5685 -1.1631 -1.6186 0.9692
7.6326 -0.6152 -1.6186 0.9692
7.6498 -0.3399 -1.6186 0.9692
7.6545 0.2117 -1.6186 0.9692
7.6194 0.7622 -1.6186 0.9692
7.5870 1.0361 -1.6186 0.9692
4.4251 -5.2774 -1.6186 0.9721
4.6123 -5.1146 -1.6186 0.9721
4.9686 -4.7692 -1.6186 0.9721
5.1371 -4.5872 -1.6186 0.9721
5.2990 -4.3992 -1.6186 0.9721
5.6020 -4.0063 -1.6186 0.9721
5.8758 -3.5926 -1.6186 0.9721
6.2291 -2.9378 -1.6186 0.9721
6.3308 -2.7115 -1.6186 0.9721
6.4244 -2.4818 -1.6186 0.9721
6.6546 -1.7743 -1.6186 0.9721
6.7651 -1.2906 -1.6186 0.9721
6.8071 -1.0461 -1.6186 0.9721
6.8529 0.6855 -1.6186 0.9721
4.0168 -4.7904 -1.6186 0.9745
4.5100 -4.3291 -1.6186 0.9745
4.6630 -4.1638 -1.6186 0.9745
4.9507 -3.8174 -1.6186 0.9745
5.3336 -3.2611 -1.6186 0.9745
5.4476 -3.0668 -1.6186 0.9745
5.7466 -2.4613 -1.6186 0.9745
5.8315 -2.2527 -1.6186 0.9745
5.9786 -1.8271 -1.6186 0.9745
6.2313 -0.5023 -1.6186 0.9745
6.2453 -0.2775 -1.6186 0.9745
6.2513 -0.0524 -1.6186 0.9745
6.2388 0.3978 -1.6186 0.9745
6.2205 0.6223 -1.6186 0.9745
3.6737 -4.3813 -1.6186 0.9765
3.9796 -4.1054 -1.6186 0.9765
4.1249 -3.9594 -1.6186 0.9765
4.3993 -3.6522 -1.6186 0.9765
5.0802 -2.6237 -1.6186 0.9765
5.1714 -2.4390 -1.6186 0.9765
5.3335 -2.0604 -1.6186 0.9765
5.4680 -1.6710 -1.6186 0.9765
5.5247 -1.4730 -1.6186 0.9765
5.6789 -0.6644 -1.6186 0.9765
5.7120 -0.2538 -1.6186 0.9765
5.7155 0.1581 -1.6186 0.9765
5.7061 0.3638 -1.6186 0.9765
5.6893 0.5691 -1.6186 0.9765
5.6651 0.7737 -1.6186 0.9765
3.6628 -3.7786 -1.6186 0.9782
3.7966 -3.6442 -1.6186 0.9782
4.1675 -3.2134 -1.6186 0.9782
4.3880 -2.9051 -1.6186 0.9782
4.4898 -2.7451 -1.6186 0.9782
4.5858 -2.5816 -1.6186 0.9782
4.6758 -2.4148 -1.6186 0.9782
4.9089 -1.8963 -1.6186 0.9782
4.9741 -1.7183 -1.6186 0.9782
5.0327 -1.5380 -1.6186 0.9782
5.0849 -1.3557 -1.6186 0.9782
5.2455 -0.4228 -1.6186 0.9782
5.2605 0.1455 -1.6186 0.9782
3.1287 -3.7313 -1.6186 0.9797
3.3892 -3.4964 -1.6186 0.9797
3.6322 -3.2433 -1.6186 0.9797
3.7466 -3.1104 -1.6186 0.9797
3.8562 -2.9734 -1.6186 0.9797
4.0603 -2.6881 -1.6186 0.9797
4.4042 -2.0772 -1.6186 0.9797
4.5423 -1.7547 -1.6186 0.9797
4.6569 -1.4231 -1.6186 0.9797
4.7051 -1.2545 -1.6186 0.9797
4.7472 -1.0842 -1.6186 0.9797
4.7832 -0.9125 -1.6186 0.9797
4.8130 -0.7396 -1.6186 0.9797
4.8365 -0.5658 -1.6186 0.9797
4.8647 -0.2162 -1.6186 0.9797
4.8693 -0.0408 -1.6186 0.9797
4.8596 0.3099 -1.6186 0.9797
4.8247 0.6589 -1.6186 0.9797
3.1504 -3.2500 -1.6186 0.9810
3.2654 -3.1344 -1.6186 0.9810
3.4826 -2.8912 -1.6186 0.9810
3.7741 -2.4987 -1.6186 0.9810
3.8617 -2.3611 -1.6186 0.9810
4.0939 -1.9308 -1.6186 0.9810
4.2222 -1.6311 -1.6186 0.9810
4.3287 -1.3228 -1.6186 0.9810
4.3735 -1.1661 -1.6186 0.9810
4.4127 -1.0078 -1.6186 0.9810
4.4461 -0.8482 -1.6186 0.9810
4.4738 -0.6875 -1.6186 0.9810
4.5219 -0.2009 -1.6186 0.9810
4.5171 0.2880 -1.6186 0.9810
4.5038 0.4505 -1.6186 0.9810
3.0472 -2.9249 -1.6186 0.9821
3.1506 -2.8133 -1.6186 0.9821
3.3449 -2.5792 -1.6186 0.9821
3.4356 -2.4570 -1.6186 0.9821
3.5219 -2.3317 -1.6186 0.9821
3.6036 -2.2033 -1.6186 0.9821
3.8202 -1.8017 -1.6186 0.9821
3.9401 -1.5220 -1.6186 0.9821
4.0394 -1.2344 -1.6186 0.9821
4.0812 -1.0881 -1.6186 0.9821
4.1490 -0.7915 -1.6186 0.9821
4.1748 -0.6416 -1.6186 0.9821
4.1952 -0.4908 -1.6186 0.9821
4.2197 -0.1875 -1.6186 0.9821
4.2237 -0.0354 -1.6186 0.9821
4.2153 0.2688 -1.6186 0.9821
4.1850 0.5715 -1.6186 0.9821
2.6486 -2.9370 -1.6187 0.9831
2.9500 -2.6342 -1.6186 0.9831
3.0430 -2.5262 -1.6186 0.9831
3.4463 -1.9402 -1.6186 0.9831
3.5140 -1.8148 -1.6186 0.9831
3.6355 -1.5571 -1.6186 0.9831
3.6892 -1.4251 -1.6186 0.9831
3.7381 -1.2913 -1.6186 0.9831
3.7822 -1.1559 -1.6186 0.9831
3.8214 -1.0189 -1.6186 0.9831
3.8556 -0.8806 -1.6186 0.9831
3.8849 -0.7411 -1.6186 0.9831
3.9090 -0.6007 -1.6186 0.9831
3.9281 -0.4595 -1.6186 0.9831
3.9510 -0.1755 -1.6186 0.9831
3.9548 -0.0331 -1.6186 0.9831
3.9534 0.1093 -1.6186 0.9831
3.9469 0.2517 -1.6186 0.9831
2.3864 -2.8460 -1.6187 0.9839
2.4873 -2.7582 -1.6187 0.9839
2.5851 -2.6668 -1.6187 0.9839
2.6794 -2.5719 -1.6187 0.9839
2.8576 -2.3724 -1.6186 0.9839
2.9412 -2.2679 -1.6186 0.9839
3.0969 -2.0503 -1.6186 0.9839
3.2364 -1.8220 -1.6186 0.9839
3.3000 -1.7043 -1.6186 0.9839
3.5519 -1.0855 -1.6186 0.9839
3.5887 -0.9568 -1.6186 0.9839
3.6483 -0.6960 -1.6186 0.9839
3.7021 -0.2984 -1.6186 0.9839
3.7126 0.1027 -1.6186 0.9839
3.7065 0.2363 -1.6186 0.9839
3.6799 0.5026 -1.6186 0.9839
2.2468 -2.6795 -1.6187 0.9847
2.3419 -2.5969 -1.6187 0.9847
2.6905 -2.2336 -1.6187 0.9847
2.8444 -2.0342 -1.6186 0.9847
2.9158 -1.9304 -1.6186 0.9847
3.0472 -1.7155 -1.6186 0.9847
3.1070 -1.6046 -1.6186 0.9847
3.1628 -1.4916 -1.6186 0.9847
3.2144 -1.3767 -1.6186 0.9847
3.3442 -1.0220 -1.6186 0.9847
3.4563 -0.5311 -1.6186 0.9847
3.4795 0.3481 -1.6186 0.9847
2.2099 -2.4505 -1.6187 0.9854
2.2968 -2.3694 -1.6187 0.9854
2.3806 -2.2851 -1.6187 0.9854
2.5389 -2.1078 -1.6187 0.9854
2.6841 -1.9195 -1.6187 0.9854
2.7515 -1.8216 -1.6187 0.9854
2.8153 -1.7213 -1.6187 0.9854
2.8755 -1.6188 -1.6187 0.9854
3.0333 -1.2992 -1.6186 0.9854
3.1190 -1.0774 -1.6186 0.9854
3.1558 -0.9644 -1.6186 0.9854
3.1884 -0.8501 -1.6186 0.9854
3.2170 -0.7347 -1.6186 0.9854
3.2997 -0.0276 -1.6186 0.9854
3.2986 0.0912 -1.6186 0.9854
3.2932 0.2100 -1.6186 0.9854
3.2835 0.3285 -1.6186 0.9854
3.2695 0.4465 -1.6186 0.9854
2.0047 -2.3908 -1.6187 0.9860
2.1717 -2.2403 -1.6187 0.9860
2.2510 -2.1606 -1.6187 0.9860
2.4007 -1.9930 -1.6187 0.9860
2.6620 -1.6276 -1.6187 0.9860
2.7189 -1.5306 -1.6187 0.9860
2.8681 -1.2284 -1.6187 0.9860
2.9491 -1.0188 -1.6187 0.9860
3.0148 -0.8038 -1.6186 0.9860
3.0990 -0.3625 -1.6186 0.9860
3.1100 -0.2507 -1.6186 0.9860
3.1170 -0.1385 -1.6186 0.9860
3.1189 0.0863 -1.6187 0.9860
1.8989 -2.2646 -1.6187 0.9866
2.1321 -2.0465 -1.6187 0.9866
2.2044 -1.9684 -1.6187 0.9866
2.2739 -1.8878 -1.6187 0.9866
2.3404 -1.8046 -1.6187 0.9866
2.4642 -1.6314 -1.6187 0.9866
2.5214 -1.5416 -1.6187 0.9866
2.5753 -1.4498 -1.6187 0.9866
2.6258 -1.3561 -1.6187 0.9866
2.6730 -1.2607 -1.6187 0.9866
2.7166 -1.1636 -1.6187 0.9866
2.7568 -1.0650 -1.6187 0.9866
2.7934 -0.9650 -1.6187 0.9866
2.8556 -0.7614 -1.6187 0.9866
2.9211 -0.4489 -1.6187 0.9866
2.9524 -0.1312 -1.6187 0.9866
2.9542 0.0817 -1.6187 0.9866
2.9493 0.1881 -1.6187 0.9866
2.9282 0.3999 -1.6187 0.9866
1.8776 -2.0820 -1.6187 0.9871
2.0226 -1.9415 -1.6187 0.9871
2.1571 -1.7908 -1.6187 0.9871
2.3919 -1.4625 -1.6187 0.9871
2.4431 -1.3754 -1.6187 0.9871
2.6812 -0.8194 -1.6187 0.9871
2.7090 -0.7223 -1.6187 0.9871
2.7332 -0.6242 -1.6187 0.9871
2.7710 -0.4258 -1.6187 0.9871
2.7945 -0.2253 -1.6187 0.9871
2.8008 -0.1244 -1.6187 0.9871
2.8035 -0.0235 -1.6187 0.9871
2.8025 0.0775 -1.6187 0.9871
2.7897 0.2791 -1.6187 0.9871
