ply
format ascii 1.0
element vertex 530
property float32 x
property float32 y
property float32 z
property float32 I
end_header
-13.0679 18.3567 3.9732 0.9125
-14.5133 13.1983 3.4590 0.9234
-14.6138 11.4971 3.2787 0.9273
-15.0148 10.9683 3.2787 0.9273
-15.2977 10.3586 3.2576 0.9277
-15.4808 9.6953 3.2208 0.9285
-15.6600 9.0461 3.1889 0.9292
-15.8770 8.4306 3.1697 0.9296
-24.2902 10.7528 4.6839 0.8977
-13.6240 16.5057 3.2787 0.9170
-13.8880 15.6525 3.2057 0.9188
-14.1197 14.8133 3.1351 0.9205
-14.6921 12.4326 2.9484 0.9251
-15.1100 11.0379 2.8666 0.9271
-15.2976 10.3585 2.8302 0.9280
-15.4808 9.6954 2.7983 0.9287
-15.6600 9.0461 2.7705 0.9294
-15.8770 8.4306 2.7539 0.9298
-24.2906 10.7530 4.0695 0.8981
-25.4052 5.2186 3.9732 0.9004
-13.0679 18.3567 2.9343 0.9131
-13.3513 17.4050 2.8565 0.9153
-13.6058 16.4836 2.7833 0.9174
-13.8880 15.6525 2.7249 0.9191
-14.5133 13.1983 2.5546 0.9239
-12.2405 10.3580 2.0881 0.9374
-12.4058 9.7600 2.0555 0.9383
-12.5789 9.1889 2.0285 0.9391
-16.0201 10.0331 2.4615 0.9266
-16.2325 9.3768 2.4411 0.9272
-14.1563 7.5170 2.0872 0.9374
-24.2910 10.7532 3.4593 0.8984
-34.7532 13.9235 4.8753 0.8598
-10.8914 15.2993 2.0166 0.9272
-13.8880 15.6525 2.2470 0.9193
-14.1620 14.8577 2.2041 0.9207
-14.8036 14.4605 2.2222 0.9201
-14.7185 12.4550 2.0704 0.9254
-15.0820 11.8654 2.0607 0.9257
-15.2975 10.3585 1.9838 0.9284
-15.9809 10.0085 2.0248 0.9269
-16.1945 9.3549 2.0083 0.9275
-17.2672 8.3931 2.0616 0.9257
-24.2909 10.7532 2.8526 0.8986
-13.6450 16.5311 1.8145 0.9176
-14.1620 14.8577 1.7376 0.9209
-14.8297 14.4860 1.7549 0.9201
-15.1076 11.8856 1.6272 0.9257
-15.2975 10.3584 1.5639 0.9285
-15.9809 10.0085 1.5963 0.9271
-21.9713 9.7263 2.0340 0.9081
-25.3884 5.2152 2.1941 0.9012
-13.0679 18.3566 1.3973 0.9137
-13.3899 17.4553 1.3642 0.9156
-13.6450 16.5311 1.3292 0.9177
-13.8880 15.6525 1.2976 0.9196
-14.1620 14.8577 1.2728 0.9210
-14.5133 13.1983 1.2165 0.9244
-15.1076 11.8856 1.1920 0.9259
-15.1098 11.0377 1.1603 0.9278
-15.2975 10.3584 1.1456 0.9286
-12.8258 7.4089 0.9185 0.9424
-13.0931 6.9524 0.9193 0.9423
-22.2567 9.8527 1.5093 0.9071
-10.7574 15.1110 0.7314 0.9284
-10.9801 14.3139 0.7113 0.9303
-11.3247 12.7635 0.6728 0.9340
-11.9448 10.8626 0.6366 0.9374
-12.2805 9.6615 0.6161 0.9394
-12.4408 9.0880 0.6075 0.9402
-12.5968 8.5297 0.5999 0.9409
-12.7492 7.9846 0.5932 0.9416
-13.0931 6.9524 0.5845 0.9424
-25.3798 5.2134 1.0216 0.9015
-10.7574 15.1110 0.3133 0.9285
-12.1154 10.2522 0.2681 0.9385
-12.4408 9.0880 0.2602 0.9402
-12.7492 7.9846 0.2541 0.9416
-16.2980 7.9220 0.3061 0.9301
-27.4762 11.0081 0.5000 0.8883
-11.3247 12.7635 -0.0961 0.9340
-11.5841 12.1532 -0.0945 0.9350
-11.7680 11.4952 -0.0926 0.9363
-12.2805 9.6615 -0.0880 0.9394
-12.4408 9.0880 -0.0867 0.9402
-12.5968 8.5297 -0.0857 0.9410
-12.8258 7.4089 -0.0834 0.9425
-11.3247 12.7635 -0.4805 0.9340
-12.2805 9.6615 -0.4400 0.9394
-12.5968 8.5297 -0.4284 0.9409
-12.8258 7.4089 -0.4171 0.9425
-16.2980 7.9220 -0.5103 0.9301
-20.5427 9.0939 -0.6326 0.9140
-39.1611 -11.9894 -1.1532 0.8488
-10.7574 15.1110 -0.9407 0.9284
-10.9801 14.3139 -0.9149 0.9303
-11.5841 12.1531 -0.8515 0.9350
-11.7680 11.4952 -0.8343 0.9362
-12.1154 10.2522 -0.8049 0.9384
-12.4408 9.0880 -0.7813 0.9402
-12.5968 8.5297 -0.7715 0.9409
-13.0931 6.9524 -0.7518 0.9424
-20.5427 9.0939 -1.1393 0.9140
-27.2099 9.7898 -1.4665 0.8906
-28.1004 6.8257 -1.4665 0.8906
-25.2377 5.1842 -1.3066 0.9020
-31.4794 5.3034 -1.6190 0.8800
-31.6486 4.1767 -1.6190 0.8800
-2.9705 0.1779 -0.1509 0.9882
-2.9422 -0.0340 -0.1492 0.9883
-2.9639 -0.1401 -0.1505 0.9882
-31.6984 -3.7782 -1.6189 0.8800
-31.5433 -4.9069 -1.6189 0.8800
-31.3482 -6.0294 -1.6189 0.8800
-31.1130 -7.1442 -1.6189 0.8800
-30.5241 -9.3451 -1.6189 0.8800
-11.1249 13.4781 -1.2814 0.9323
-11.5841 12.1531 -1.2310 0.9349
-11.7680 11.4952 -1.2062 0.9362
-12.1154 10.2522 -1.1637 0.9383
-12.4408 9.0880 -1.1296 0.9401
-12.5968 8.5297 -1.1155 0.9408
-12.7492 7.9846 -1.1030 0.9415
-12.8258 7.4089 -1.0860 0.9423
-18.2883 8.0959 -1.4665 0.9229
-18.5656 7.4381 -1.4665 0.9229
-19.2542 5.4114 -1.4665 0.9229
-2.5531 0.6202 -0.1926 0.9895
-2.4176 0.3191 -0.1788 0.9903
-2.4083 0.1442 -0.1769 0.9904
-2.4047 0.0580 -0.1764 0.9904
-2.4072 -0.1138 -0.1767 0.9904
-2.4102 -0.2873 -0.1780 0.9903
-2.4409 -0.3797 -0.1811 0.9901
-2.4836 -0.4777 -0.1854 0.9899
-2.5347 -0.5820 -0.1907 0.9896
-21.3287 -5.7059 -1.6189 0.9153
-21.1115 -6.4634 -1.6189 0.9153
-8.8582 12.4432 -1.4664 0.9405
-12.5968 8.5297 -1.4605 0.9407
-12.7492 7.9846 -1.4442 0.9413
-12.8258 7.4089 -1.4220 0.9422
-13.0931 6.9524 -1.4232 0.9422
-14.5479 4.6549 -1.4664 0.9405
-2.2539 0.6335 -0.2248 0.9906
-2.1717 0.3659 -0.2114 0.9912
-2.1528 0.0520 -0.2067 0.9914
-2.1516 -0.0249 -0.2066 0.9914
-2.1546 -0.1019 -0.2071 0.9914
-2.1564 -0.1793 -0.2077 0.9913
-2.1569 -0.2571 -0.2085 0.9913
-2.1889 -0.4210 -0.2140 0.9911
-2.2412 -0.5996 -0.2227 0.9907
-16.1232 -4.9362 -1.6188 0.9345
-7.1592 10.0567 -1.4664 0.9515
-7.8583 9.5205 -1.4664 0.9515
-8.1930 9.2340 -1.4664 0.9515
-9.4236 7.9743 -1.4664 0.9515
-9.7022 7.6330 -1.4664 0.9515
-9.9684 7.2819 -1.4664 0.9515
-10.2219 6.9216 -1.4664 0.9515
-10.6895 6.1749 -1.4664 0.9515
-10.9031 5.7895 -1.4664 0.9515
-11.2883 4.9971 -1.4664 0.9515
-11.4594 4.5911 -1.4664 0.9515
-2.0792 0.6653 -0.2593 0.9912
-2.0464 0.4971 -0.2501 0.9916
-2.0297 0.4169 -0.2461 0.9917
-2.0106 0.2653 -0.2409 0.9919
-2.0076 0.1924 -0.2396 0.9919
-1.9998 0.0483 -0.2376 0.9920
-1.9979 -0.0231 -0.2373 0.9920
-2.0064 -0.1668 -0.2392 0.9919
-2.0122 -0.3130 -0.2419 0.9918
-2.0238 -0.3892 -0.2448 0.9917
-2.0571 -0.5503 -0.2529 0.9915
-2.0734 -0.6348 -0.2576 0.9913
-6.2990 8.2115 -1.4664 0.9591
-6.5880 7.9815 -1.4664 0.9591
-6.8686 7.7413 -1.4664 0.9591
-7.1405 7.4913 -1.4664 0.9591
-7.4033 7.2317 -1.4664 0.9591
-8.1338 6.3991 -1.4664 0.9591
-8.5695 5.8027 -1.4664 0.9591
-8.9616 5.1767 -1.4664 0.9591
-9.1406 4.8536 -1.4664 0.9591
-9.7382 3.5037 -1.4664 0.9591
-1.9690 0.6300 -0.2929 0.9917
-1.9554 0.5496 -0.2878 0.9918
-1.9416 0.4716 -0.2831 0.9920
-1.9205 0.3236 -0.2759 0.9922
-1.9188 0.2532 -0.2742 0.9922
-1.9165 0.1836 -0.2728 0.9923
-1.9134 0.1146 -0.2716 0.9923
-1.9061 -0.0220 -0.2701 0.9923
-1.9120 -0.0904 -0.2712 0.9923
-1.9155 -0.1592 -0.2723 0.9923
-1.9181 -0.2286 -0.2737 0.9922
-1.9200 -0.2987 -0.2753 0.9922
-1.9256 -0.3704 -0.2778 0.9921
-1.9506 -0.5218 -0.2861 0.9919
-1.9643 -0.6014 -0.2911 0.9917
-5.4176 7.0625 -1.4664 0.9646
-6.1414 6.4431 -1.4664 0.9646
-6.5853 5.9887 -1.4664 0.9646
-7.1876 5.2506 -1.4664 0.9646
-7.5438 4.7246 -1.4664 0.9646
-7.8616 4.1745 -1.4664 0.9646
-8.1393 3.6031 -1.4664 0.9646
-8.2627 3.3104 -1.4664 0.9646
-1.8801 0.6764 -0.3292 0.9919
-1.8494 0.4492 -0.3135 0.9923
-1.8356 0.3092 -0.3067 0.9925
-1.8345 0.2421 -0.3048 0.9925
-1.8327 0.1756 -0.3033 0.9926
-1.8218 -0.0211 -0.3001 0.9926
-1.8318 -0.1523 -0.3028 0.9926
-1.8365 -0.3532 -0.3081 0.9924
-1.8654 -0.5711 -0.3214 0.9921
-4.5244 6.3554 -1.4664 0.9687
-4.7483 6.1899 -1.4664 0.9687
-5.7717 5.2488 -1.4664 0.9687
-5.9553 5.0394 -1.4664 0.9687
-6.4598 4.3742 -1.4664 0.9687
-6.6118 4.1408 -1.4664 0.9687
-6.7553 3.9023 -1.4664 0.9687
-6.8903 3.6587 -1.4664 0.9687
-7.0165 3.4105 -1.4664 0.9687
-7.2233 3.1976 -1.4848 0.9684
-1.7873 0.6430 -0.3570 0.9923
-1.7797 0.5695 -0.3512 0.9924
-1.7656 0.4289 -0.3415 0.9926
-1.7568 0.2318 -0.3331 0.9928
-1.7543 0.1681 -0.3312 0.9929
-1.7505 0.1049 -0.3296 0.9929
-1.7459 0.0421 -0.3283 0.9929
-1.7441 -0.0202 -0.3278 0.9929
-1.7489 -0.0827 -0.3291 0.9929
-1.7564 -0.2094 -0.3325 0.9928
-1.7574 -0.3380 -0.3364 0.9927
-1.7705 -0.4737 -0.3445 0.9926
-5.2955 4.4811 -1.4664 0.9720
-5.4521 4.2893 -1.4664 0.9720
-5.6017 4.0920 -1.4664 0.9720
-5.8792 3.6821 -1.4664 0.9720
-6.3003 3.3454 -1.5079 0.9713
-1.7087 0.6846 -0.3891 0.9925
-1.7044 0.6132 -0.3829 0.9926
-1.6999 0.5439 -0.3773 0.9927
-1.6946 0.4762 -0.3721 0.9928
-1.6844 0.3460 -0.3635 0.9930
-1.6850 0.2839 -0.3612 0.9930
-1.6838 0.2222 -0.3590 0.9931
-1.6779 0.1005 -0.3553 0.9932
-1.6722 -0.0193 -0.3535 0.9932
-1.6802 -0.1397 -0.3564 0.9931
-1.6830 -0.2006 -0.3583 0.9931
-1.6850 -0.2621 -0.3605 0.9931
-1.6847 -0.3240 -0.3626 0.9930
-1.6925 -0.4528 -0.3703 0.9929
-3.7974 4.9504 -1.4663 0.9747
-4.1408 4.6670 -1.4663 0.9747
-4.7628 4.0303 -1.4664 0.9747
-5.0381 3.6803 -1.4664 0.9747
-5.2405 3.5486 -1.4874 0.9743
-1.6320 0.6538 -0.4132 0.9928
-1.6295 0.5863 -0.4070 0.9929
-1.6262 0.5203 -0.4013 0.9930
-1.6221 0.4559 -0.3960 0.9931
-1.6167 0.3321 -0.3879 0.9932
-1.6155 0.2132 -0.3830 0.9933
-1.6134 0.1546 -0.3809 0.9934
-1.6053 -0.0186 -0.3773 0.9934
-1.6164 -0.2514 -0.3845 0.9933
-1.6172 -0.3110 -0.3870 0.9933
-1.6205 -0.4335 -0.3942 0.9931
-3.2844 4.6137 -1.4663 0.9769
-3.7587 4.2362 -1.4663 0.9769
-4.9287 3.6005 -1.5804 0.9751
-5.2848 3.3098 -1.6145 0.9746
-5.5218 2.9321 -1.6188 0.9745
-1.5673 0.6279 -0.4372 0.9930
-1.5580 0.4985 -0.4235 0.9933
-1.5527 0.3190 -0.4104 0.9935
-1.5527 0.2616 -0.4077 0.9935
-1.5466 -0.0731 -0.4009 0.9936
-1.5494 -0.1288 -0.4026 0.9936
-1.5529 -0.2987 -0.4094 0.9935
-1.5570 -0.4767 -0.4216 0.9933
-3.0039 4.2197 -1.4663 0.9787
-3.1526 4.1098 -1.4663 0.9787
-3.3087 4.0085 -1.4714 0.9786
-3.5051 3.9505 -1.4951 0.9783
-4.3465 3.6781 -1.6119 0.9766
-4.4806 3.5251 -1.6139 0.9766
-4.6097 3.3674 -1.6161 0.9765
-4.7334 3.2051 -1.6183 0.9765
-4.8461 3.0350 -1.6187 0.9765
-5.0503 2.6817 -1.6188 0.9765
-1.5113 0.6690 -0.4679 0.9932
-1.5088 0.6045 -0.4601 0.9933
-1.4943 0.3630 -0.4353 0.9936
-1.4950 0.3071 -0.4321 0.9937
-1.4941 0.1972 -0.4266 0.9938
-1.4925 0.1430 -0.4245 0.9938
-1.4860 -0.0172 -0.4207 0.9938
-1.4918 -0.1240 -0.4238 0.9938
-1.4936 -0.1780 -0.4258 0.9938
-1.4947 -0.2325 -0.4282 0.9937
-1.4950 -0.2875 -0.4310 0.9937
-1.4947 -0.3432 -0.4341 0.9936
-1.4951 -0.4000 -0.4381 0.9936
-3.6179 3.7956 -1.6128 0.9783
-3.7545 3.6675 -1.6143 0.9783
-3.8869 3.5347 -1.6160 0.9783
-4.1363 3.2541 -1.6187 0.9782
-4.2497 3.1045 -1.6187 0.9782
-4.3578 2.9508 -1.6187 0.9782
-1.5876 0.9943 -0.5762 0.9922
-1.4561 0.7078 -0.4980 0.9932
-1.4554 0.6443 -0.4895 0.9934
-1.4515 0.5222 -0.4745 0.9936
-1.4484 0.4634 -0.4678 0.9937
-1.4450 0.4061 -0.4617 0.9937
-1.4447 0.3509 -0.4573 0.9938
-1.4457 0.2970 -0.4540 0.9938
-1.4442 0.1384 -0.4462 0.9939
-1.4385 0.0347 -0.4426 0.9940
-1.4353 -0.0166 -0.4415 0.9940
-1.4413 -0.0681 -0.4438 0.9940
-1.4450 -0.1722 -0.4476 0.9939
-1.4459 -0.2781 -0.4529 0.9939
-1.4452 -0.3318 -0.4561 0.9938
-1.4437 -0.3862 -0.4597 0.9938
-1.4472 -0.4431 -0.4655 0.9937
-2.9565 3.8542 -1.6147 0.9797
-3.0944 3.7489 -1.6158 0.9797
-3.3592 3.5242 -1.6184 0.9797
-3.4836 3.4029 -1.6187 0.9797
-3.8273 3.0111 -1.6187 0.9797
-3.9323 2.8726 -1.6187 0.9797
-4.0323 2.7304 -1.6187 0.9797
-1.5695 0.9830 -0.6156 0.9922
-1.5626 0.9027 -0.5999 0.9924
-1.4020 0.5617 -0.5021 0.9937
-1.3961 0.3924 -0.4821 0.9939
-1.3990 0.2874 -0.4747 0.9940
-1.3995 0.2358 -0.4718 0.9940
-1.3992 0.1847 -0.4691 0.9941
-1.3982 0.1340 -0.4669 0.9941
-1.3892 0.0335 -0.4619 0.9942
-1.3862 -0.0160 -0.4608 0.9942
-1.3944 -0.0659 -0.4640 0.9941
-1.3992 -0.2691 -0.4736 0.9940
-1.3964 -0.3736 -0.4805 0.9939
-1.3978 -0.4280 -0.4859 0.9939
-2.6252 3.6876 -1.6187 0.9810
-2.7551 3.5916 -1.6187 0.9810
-3.1232 3.2766 -1.6187 0.9810
-3.2381 3.1630 -1.6187 0.9810
-3.3489 3.0455 -1.6187 0.9810
-3.5576 2.7989 -1.6187 0.9810
-3.6552 2.6701 -1.6187 0.9810
-3.7482 2.5380 -1.6187 0.9810
-1.3502 0.7169 -0.5467 0.9935
-1.3521 0.6572 -0.5376 0.9936
-1.3530 0.5990 -0.5291 0.9937
-1.3517 0.4325 -0.5075 0.9940
-1.3506 0.3796 -0.5017 0.9941
-1.3529 0.3287 -0.4979 0.9941
-1.3545 0.2782 -0.4945 0.9941
-1.3553 0.1789 -0.4889 0.9942
-1.3545 0.1298 -0.4866 0.9942
-1.3498 0.0809 -0.4836 0.9943
-1.3397 -0.0155 -0.4791 0.9943
-1.3540 -0.1126 -0.4859 0.9942
-1.3551 -0.1615 -0.4880 0.9942
-1.3554 -0.2108 -0.4905 0.9942
-2.6889 3.2577 -1.6187 0.9821
-2.8034 3.1596 -1.6187 0.9821
-3.4109 2.4917 -1.6187 0.9821
-3.5799 2.2421 -1.6187 0.9821
-1.2981 0.7499 -0.5745 0.9936
-1.3072 0.5237 -0.5397 0.9940
-1.3075 0.4704 -0.5325 0.9941
-1.3077 0.3675 -0.5206 0.9942
-1.3121 0.2695 -0.5133 0.9943
-1.3131 0.2212 -0.5103 0.9943
-1.3133 0.1733 -0.5077 0.9943
-1.3049 0.0782 -0.5010 0.9944
-1.3089 -0.1088 -0.5033 0.9944
-1.3133 -0.1565 -0.5068 0.9944
-1.3133 -0.2043 -0.5093 0.9943
-1.3126 -0.2525 -0.5122 0.9943
-1.3111 -0.3010 -0.5155 0.9943
-2.4073 3.1382 -1.6187 0.9831
-2.7289 2.8629 -1.6187 0.9831
-2.8293 2.7637 -1.6187 0.9831
-3.0192 2.5549 -1.6187 0.9831
-1.2517 0.7230 -0.5916 0.9938
-1.2559 0.6669 -0.5820 0.9939
-1.2593 0.6121 -0.5731 0.9940
-1.2645 0.4046 -0.5434 0.9943
-1.2717 0.2612 -0.5313 0.9944
-1.2677 0.1215 -0.5212 0.9945
-1.2559 0.0303 -0.5141 0.9946
-1.2709 -0.1515 -0.5238 0.9945
-1.2705 -0.2917 -0.5335 0.9944
-1.2679 -0.3392 -0.5372 0.9943
-1.2646 -0.3872 -0.5413 0.9943
-2.2607 2.9470 -1.6187 0.9839
-2.3644 2.8645 -1.6187 0.9839
-2.8353 2.3993 -1.6187 0.9839
-2.9992 2.1910 -1.6187 0.9839
-3.0755 2.0825 -1.6187 0.9839
-1.2077 0.6976 -0.6078 0.9939
-1.2168 0.5914 -0.5896 0.9941
-1.2199 0.5401 -0.5814 0.9942
-1.2235 0.4402 -0.5667 0.9943
-1.2277 0.3450 -0.5558 0.9945
-1.2307 0.2990 -0.5520 0.9945
-1.2343 0.2079 -0.5455 0.9946
-1.2214 0.0732 -0.5333 0.9947
-1.2156 0.0293 -0.5299 0.9947
-1.2294 -0.1465 -0.5396 0.9946
-1.2335 -0.2372 -0.5474 0.9945
-1.2253 -0.3751 -0.5585 0.9944
-2.0281 2.8489 -1.6187 0.9847
-2.2261 2.6970 -1.6187 0.9847
-2.3209 2.6158 -1.6187 0.9847
-2.5016 2.4436 -1.6187 0.9847
-2.5872 2.3528 -1.6187 0.9847
-2.6695 2.2590 -1.6187 0.9847
-2.8239 2.0628 -1.6187 0.9847
-1.1662 0.6737 -0.6234 0.9941
-1.1717 0.6222 -0.6141 0.9942
-1.1799 0.5223 -0.5973 0.9943
-1.1825 0.4738 -0.5897 0.9944
-1.1843 0.4261 -0.5826 0.9945
-1.1863 0.3796 -0.5765 0.9945
-1.1934 0.2899 -0.5685 0.9946
-1.1958 0.2456 -0.5651 0.9946
-1.1911 0.1572 -0.5561 0.9947
-1.1771 0.0284 -0.5450 0.9948
-1.1898 -0.1418 -0.5546 0.9947
-1.1932 -0.1856 -0.5590 0.9947
-1.1958 -0.2300 -0.5637 0.9946
-1.1943 -0.2742 -0.5672 0.9946
-1.1878 -0.3637 -0.5750 0.9945
-1.9138 2.6884 -1.6187 0.9854
-2.0085 2.6183 -1.6187 0.9854
-2.2769 2.3887 -1.6187 0.9854
-1.1481 0.8387 -0.6974 0.9937
-1.1117 0.7527 -0.6585 0.9940
-1.1268 0.6509 -0.6383 0.9942
-1.1327 0.6015 -0.6291 0.9943
-1.1376 0.5530 -0.6205 0.9944
-1.1416 0.5054 -0.6124 0.9945
-1.1501 0.3680 -0.5924 0.9946
-1.1576 0.2812 -0.5843 0.9947
-1.1577 0.2378 -0.5797 0.9947
-1.1530 0.1522 -0.5705 0.9948
-1.1495 0.1101 -0.5665 0.9949
-1.1402 0.0275 -0.5595 0.9949
-1.1383 -0.0132 -0.5584 0.9949
-1.1481 -0.0954 -0.5651 0.9949
-1.1519 -0.1373 -0.5690 0.9948
-1.1549 -0.1797 -0.5733 0.9948
-1.1571 -0.2225 -0.5780 0.9948
-1.1585 -0.2660 -0.5831 0.9947
-1.1555 -0.3091 -0.5868 0.9947
-1.8096 2.5420 -1.6187 0.9860
-2.1528 2.2586 -1.6187 0.9860
-2.2321 2.1803 -1.6187 0.9860
-1.0632 0.8365 -0.7018 0.9939
-1.0664 0.7221 -0.6681 0.9942
-1.0818 0.6775 -0.6622 0.9943
-1.0891 0.6292 -0.6525 0.9943
-1.1007 0.5350 -0.6349 0.9945
-1.1083 0.4441 -0.6194 0.9946
-1.1108 0.3997 -0.6125 0.9947
-1.1212 0.2724 -0.5986 0.9948
-1.1205 0.2302 -0.5934 0.9949
-1.1134 0.1067 -0.5803 0.9950
-1.1182 -0.1739 -0.5871 0.9949
-1.1211 -0.2574 -0.5967 0.9948
-1.1210 -0.2999 -0.6020 0.9948
-1.7140 2.4077 -1.6187 0.9866
-1.8814 2.2793 -1.6187 0.9866
-1.9615 2.2107 -1.6187 0.9866
-2.1865 1.9884 -1.6187 0.9866
-1.0350 0.6482 -0.6689 0.9944
-1.0519 0.6077 -0.6654 0.9945
-1.0597 0.5627 -0.6571 0.9945
-1.0652 0.5178 -0.6487 0.9946
-1.0735 0.4301 -0.6334 0.9947
-1.0768 0.3874 -0.6268 0.9948
-1.0820 0.3462 -0.6222 0.9948
-1.0848 0.3049 -0.6172 0.9949
-1.0852 0.2636 -0.6117 0.9949
-1.0836 0.1825 -0.6019 0.9950
-1.0816 0.1427 -0.5975 0.9950
-1.0751 0.0644 -0.5899 0.9951
-1.0708 0.0258 -0.5867 0.9951
-1.0737 -0.0508 -0.5887 0.9951
-1.0776 -0.0896 -0.5922 0.9951
-1.0807 -0.1288 -0.5961 0.9950
-1.0845 -0.2086 -0.6049 0.9950
-1.7065 2.2246 -1.6187 0.9871
-1.7848 2.1623 -1.6187 0.9871
-1.8608 2.0972 -1.6187 0.9871
-2.0056 1.9592 -1.6187 0.9871
-0.9311 0.7325 -0.6840 0.9945
-0.9513 0.6950 -0.6802 0.9946
-0.9704 0.6571 -0.6766 0.9946
-1.0045 0.5802 -0.6697 0.9947
-1.0312 0.5012 -0.6620 0.9947
-1.0360 0.4587 -0.6542 0.9948
-1.0445 0.3758 -0.6409 0.9949
-1.0507 0.2552 -0.6242 0.9950
-1.0505 0.2158 -0.6192 0.9951
-1.0496 0.1768 -0.6145 0.9951
-1.0479 0.1383 -0.6102 0.9951
-1.0454 0.1002 -0.6063 0.9952
-1.0421 0.0624 -0.6027 0.9952
-1.0365 -0.0120 -0.5984 0.9952
-1.0443 -0.0868 -0.6050 0.9952
-1.0471 -0.1248 -0.6088 0.9951
-1.0503 -0.2020 -0.6175 0.9951
-1.0490 -0.3212 -0.6334 0.9949
