ply
format ascii 1.0
element vertex 458
property float32 x
property float32 y
property float32 z
property float32 I
end_header
-35.2951 -18.2548 7.0066 0.8510
-34.4391 -21.0949 7.1212 0.8487
-34.4625 -22.8612 7.2921 0.8454
-21.6258 -38.1798 7.7371 0.8368
-20.0843 -38.6510 7.6804 0.8378
-18.5864 -39.1647 7.6440 0.8386
-13.1543 -42.7411 7.8853 0.8339
-36.9609 -19.1164 6.3747 0.8450
-36.8940 -20.8043 6.4886 0.8425
-36.0435 -22.0777 6.4752 0.8428
-34.2724 -24.5630 6.4595 0.8431
-23.2167 -37.7407 6.7880 0.8358
-20.1298 -38.7386 6.6879 0.8381
-18.5864 -39.1647 6.6412 0.8391
-14.7611 -42.4432 6.8841 0.8337
-13.1543 -42.7411 6.8508 0.8345
-11.6335 -43.3066 6.8695 0.8341
-37.6034 -17.7574 5.4153 0.8456
-35.8157 -20.1962 5.3543 0.8472
-34.3935 -35.5910 6.4451 0.8190
-23.2167 -37.7407 5.7701 0.8363
-21.6131 -38.1573 5.7106 0.8379
-20.0181 -38.5237 5.6534 0.8394
-13.9604 -40.1411 5.5343 0.8425
-12.4799 -40.5498 5.5248 0.8427
-11.0025 -40.9577 5.5226 0.8428
-9.5243 -41.3657 5.5276 0.8426
-37.1008 -19.1887 4.4853 0.8453
-36.7809 -20.7406 4.5343 0.8438
-36.3910 -26.0814 4.8077 0.8352
-23.2166 -37.7406 4.7581 0.8367
-20.1298 -38.7385 4.6879 0.8389
-15.5024 -39.8703 4.5936 0.8419
-14.0096 -40.2824 4.5797 0.8423
-12.5368 -40.7346 4.5766 0.8424
-9.5579 -41.5114 4.5742 0.8425
-37.3125 -24.7518 3.7904 0.8355
-20.0156 -38.5188 3.6747 0.8401
-18.5019 -38.9868 3.6531 0.8409
-16.9848 -39.4056 3.6325 0.8418
-15.3134 -39.3842 3.5771 0.8440
-9.5458 -41.4593 3.6015 0.8430
-25.3608 -22.7069 2.1109 0.8725
-20.0980 -38.6775 2.7029 0.8397
-16.5830 -34.9433 2.3985 0.8564
-17.0062 -39.4551 2.6642 0.8418
-15.3532 -39.4866 2.6272 0.8438
-11.0685 -41.2035 2.6456 0.8428
-23.2166 -37.7406 1.7472 0.8375
-21.6258 -38.1798 1.7302 0.8389
-20.1298 -38.7385 1.7214 0.8397
-18.5863 -39.1646 1.7094 0.8407
-17.0062 -39.4551 1.6941 0.8420
-14.0096 -40.2824 1.6817 0.8431
-9.5579 -41.5114 1.6797 0.8432
-23.2166 -37.7405 0.7485 0.8376
-18.5443 -39.0761 0.7306 0.8411
-15.3532 -39.4866 0.7156 0.8441
-13.0984 -37.6625 0.6736 0.8525
-11.0685 -41.2035 0.7207 0.8431
-9.5579 -41.5114 0.7196 0.8433
-45.0258 -15.5628 -0.2682 0.8265
-42.2522 -16.3355 -0.2551 0.8343
-31.6821 -21.0167 -0.2141 0.8589
-19.7624 -16.4476 -0.1448 0.9023
-34.4100 -30.8091 -0.2600 0.8313
-23.2166 -37.7405 -0.2495 0.8376
-21.6258 -38.1798 -0.2470 0.8390
-20.1297 -38.7385 -0.2458 0.8398
-18.5863 -39.1646 -0.2441 0.8408
-14.0558 -40.4154 -0.2409 0.8427
-11.7697 -38.2422 -0.2253 0.8521
-11.0685 -41.2035 -0.2402 0.8431
-45.2570 -15.6427 -1.3483 0.8256
-35.2475 -18.2302 -1.1174 0.8532
-33.5689 -18.9293 -1.0852 0.8571
-31.5808 -19.3441 -1.0428 0.8623
-33.6462 -26.0042 -1.1974 0.8435
-19.7586 -16.4445 -0.7238 0.9022
-23.7163 -21.2344 -0.8964 0.8804
-25.5649 -26.4550 -1.0359 0.8631
-25.7991 -28.7038 -1.0867 0.8569
-28.0718 -36.1783 -1.2894 0.8326
-7.9694 -14.0698 -0.4553 0.9373
-6.6583 -14.0303 -0.4373 0.9397
-6.1380 -14.2405 -0.4366 0.9398
-15.3532 -39.4866 -1.1929 0.8441
-14.0558 -40.4154 -1.2049 0.8426
-11.0412 -41.1019 -1.1984 0.8434
-30.1710 -10.4284 -1.6189 0.8800
-29.7746 -11.5114 -1.6189 0.8800
-28.8480 -13.6228 -1.6179 0.8801
-26.1232 -14.7307 -1.5209 0.8868
-24.6584 -15.1040 -1.4665 0.8906
-23.5033 -16.8448 -1.4665 0.8906
-22.8793 -17.6828 -1.4665 0.8906
-19.6164 -16.3261 -1.2943 0.9028
-20.8318 -20.0540 -1.4664 0.8906
-19.3293 -21.5055 -1.4664 0.8906
-5.5033 -14.1537 -0.7701 0.9410
-3.7285 -13.8796 -0.7288 0.9441
-3.1544 -13.6999 -0.7130 0.9453
-20.8673 -7.2126 -1.6189 0.9153
-20.2921 -8.7004 -1.6189 0.9153
-19.9645 -9.4278 -1.6188 0.9153
-19.6108 -10.1428 -1.6188 0.9153
-19.2316 -10.8446 -1.6188 0.9153
-18.8272 -11.5322 -1.6188 0.9153
-18.3983 -12.2048 -1.6188 0.9153
-17.9453 -12.8614 -1.6188 0.9153
-17.4690 -13.5013 -1.6188 0.9153
-16.4485 -14.7272 -1.6188 0.9153
-15.9057 -15.3117 -1.6188 0.9153
-14.5306 -16.1665 -1.5938 0.9165
-13.5261 -16.1890 -1.5468 0.9189
-12.5680 -16.1974 -1.5032 0.9211
-11.6813 -16.2331 -1.4664 0.9229
-9.3277 -14.0029 -1.2337 0.9347
-8.5739 -13.9376 -1.1998 0.9365
-7.8594 -13.8756 -1.1693 0.9380
-5.4630 -14.0503 -1.1053 0.9413
-6.5692 -18.8889 -1.4663 0.9229
-4.2344 -13.7585 -1.0555 0.9439
-3.0841 -13.3947 -1.0078 0.9464
-15.9368 -5.5084 -1.6188 0.9345
-15.7274 -6.0805 -1.6188 0.9345
-15.4974 -6.6447 -1.6188 0.9345
-15.2472 -7.2002 -1.6188 0.9345
-14.9771 -7.7462 -1.6188 0.9345
-14.6875 -8.2822 -1.6188 0.9345
-14.3787 -8.8074 -1.6188 0.9345
-14.0512 -9.3210 -1.6188 0.9345
-13.7052 -9.8225 -1.6188 0.9345
-13.3414 -10.3112 -1.6188 0.9345
-12.5621 -11.2475 -1.6188 0.9345
-10.3365 -13.3215 -1.6188 0.9345
-9.8485 -13.6861 -1.6188 0.9345
-9.3477 -14.0329 -1.6188 0.9345
-8.3100 -14.6712 -1.6188 0.9345
-6.0874 -15.6559 -1.6127 0.9347
-5.4493 -15.6687 -1.5926 0.9355
-4.7941 -15.5770 -1.5647 0.9366
-3.1044 -13.4827 -1.3283 0.9459
-12.8802 -4.4519 -1.6188 0.9466
-12.7109 -4.9143 -1.6188 0.9466
-12.5251 -5.3702 -1.6188 0.9466
-12.1047 -6.2606 -1.6188 0.9466
-11.8706 -6.6937 -1.6188 0.9466
-11.6210 -7.1182 -1.6188 0.9466
-11.3562 -7.5333 -1.6188 0.9466
-11.0767 -7.9386 -1.6188 0.9466
-10.7827 -8.3336 -1.6188 0.9466
-10.4745 -8.7177 -1.6188 0.9466
-9.8178 -9.4511 -1.6188 0.9466
-9.4699 -9.7996 -1.6188 0.9466
-9.1097 -10.1353 -1.6188 0.9466
-8.3541 -10.7666 -1.6188 0.9466
-7.9597 -11.0613 -1.6188 0.9466
-7.5549 -11.3416 -1.6188 0.9466
-7.1403 -11.6071 -1.6188 0.9466
-6.2835 -12.0923 -1.6187 0.9466
-5.3940 -12.5144 -1.6187 0.9466
-4.9384 -12.7010 -1.6187 0.9466
-3.0576 -13.2797 -1.6187 0.9466
-1.9776 -0.6835 -0.2965 0.9916
-10.6562 -4.1199 -1.6188 0.9549
-10.3309 -4.8785 -1.6188 0.9549
-10.1479 -5.2485 -1.6188 0.9549
-9.9517 -5.6117 -1.6188 0.9549
-9.7424 -5.9675 -1.6188 0.9549
-9.2861 -6.6554 -1.6188 0.9549
-7.6371 -8.4970 -1.6188 0.9549
-7.3252 -8.7673 -1.6188 0.9549
-7.0037 -9.0262 -1.6188 0.9549
-6.3337 -9.5082 -1.6187 0.9549
-5.6306 -9.9407 -1.6187 0.9549
-5.2678 -10.1376 -1.6187 0.9549
-4.8981 -10.3212 -1.6187 0.9549
-4.5221 -10.4914 -1.6187 0.9549
-3.7528 -10.7905 -1.6187 0.9549
-2.5634 -11.1331 -1.6187 0.9549
-1.8763 -0.6485 -0.3270 0.9920
-9.0312 -3.8722 -1.6188 0.9609
-8.5592 -4.8265 -1.6188 0.9609
-8.1884 -5.4319 -1.6188 0.9609
-7.7748 -6.0089 -1.6188 0.9609
-6.3003 -7.5406 -1.6187 0.9609
-6.0237 -7.7632 -1.6187 0.9609
-5.4475 -8.1778 -1.6187 0.9609
-5.1485 -8.3693 -1.6187 0.9609
-4.8428 -8.5498 -1.6187 0.9609
-4.2128 -8.8771 -1.6187 0.9609
-2.8903 -9.3913 -1.6187 0.9609
-1.7926 -0.6931 -0.3613 0.9922
-7.9154 -3.3938 -1.6188 0.9656
-7.5017 -4.2302 -1.6188 0.9656
-7.1767 -4.7608 -1.6188 0.9656
-6.8142 -5.2665 -1.6188 0.9656
-6.2045 -5.9728 -1.6188 0.9656
-5.9846 -6.1930 -1.6187 0.9656
-5.5219 -6.6089 -1.6187 0.9656
-5.2795 -6.8041 -1.6187 0.9656
-5.0303 -6.9903 -1.6187 0.9656
-4.2444 -7.4935 -1.6187 0.9656
-3.9710 -7.6419 -1.6187 0.9656
-3.6923 -7.7804 -1.6187 0.9656
-3.4089 -7.9087 -1.6187 0.9656
-3.1209 -8.0267 -1.6187 0.9656
-2.8289 -8.1341 -1.6187 0.9656
-2.5332 -8.2310 -1.6187 0.9656
-1.9323 -8.3924 -1.6187 0.9656
-1.7029 -0.5886 -0.3809 0.9927
-1.7070 -0.6600 -0.3869 0.9925
-6.8021 -3.5181 -1.6188 0.9692
-6.6706 -3.7615 -1.6188 0.9692
-6.3816 -4.2333 -1.6188 0.9692
-6.2245 -4.4611 -1.6188 0.9692
-6.0593 -4.6830 -1.6188 0.9692
-5.8861 -4.8988 -1.6187 0.9692
-5.5171 -5.3110 -1.6187 0.9692
-4.4729 -6.2159 -1.6187 0.9692
-4.2455 -6.3734 -1.6187 0.9692
-3.7742 -6.6633 -1.6187 0.9692
-2.7751 -7.1373 -1.6187 0.9692
-2.5155 -7.2329 -1.6187 0.9692
-1.9867 -7.3956 -1.6187 0.9692
-1.7182 -7.4626 -1.6187 0.9692
-1.6332 -0.7003 -0.4176 0.9927
-6.2281 -2.9411 -1.6188 0.9721
-5.9995 -3.3831 -1.6188 0.9721
-5.7396 -3.8074 -1.6187 0.9721
-5.4497 -4.2118 -1.6187 0.9721
-5.2940 -4.4060 -1.6187 0.9721
-5.1313 -4.5944 -1.6187 0.9721
-4.9620 -4.7767 -1.6187 0.9721
-4.7862 -4.9529 -1.6187 0.9721
-4.2223 -5.4416 -1.6187 0.9721
-4.0230 -5.5905 -1.6187 0.9721
-3.6088 -5.8664 -1.6187 0.9721
-3.3945 -5.9929 -1.6187 0.9721
-2.7262 -6.3250 -1.6187 0.9721
-2.4960 -6.4193 -1.6187 0.9721
-2.0260 -6.5828 -1.6187 0.9721
-1.5613 -0.5396 -0.4277 0.9932
-1.5698 -0.6731 -0.4422 0.9930
-5.6533 -2.6697 -1.6187 0.9745
-5.4458 -3.0709 -1.6187 0.9745
-5.2099 -3.4560 -1.6187 0.9745
-5.0816 -3.6420 -1.6187 0.9745
-4.8054 -3.9994 -1.6187 0.9745
-4.3445 -4.4958 -1.6187 0.9745
-4.1792 -4.6498 -1.6187 0.9745
-4.0086 -4.7977 -1.6187 0.9745
-3.6517 -5.0746 -1.6187 0.9745
-3.4660 -5.2032 -1.6187 0.9745
-3.2757 -5.3250 -1.6187 0.9745
-3.0812 -5.4399 -1.6187 0.9745
-2.8827 -5.5476 -1.6187 0.9745
-2.6804 -5.6481 -1.6187 0.9745
-2.2656 -5.8269 -1.6187 0.9745
-2.0536 -5.9049 -1.6187 0.9745
-1.8390 -5.9753 -1.6187 0.9745
-1.4028 -6.0924 -1.6187 0.9745
-1.5042 -0.5199 -0.4505 0.9934
-1.5078 -0.5829 -0.4576 0.9933
-5.0790 -2.6269 -1.6187 0.9765
-1.6246 -0.9161 -0.5280 0.9923
-4.5243 -3.4967 -1.6187 0.9765
-4.3950 -3.6579 -1.6187 0.9765
-4.2600 -3.8142 -1.6187 0.9765
-3.9735 -4.1118 -1.6187 0.9765
-3.6662 -4.3880 -1.6187 0.9765
-3.5053 -4.5176 -1.6187 0.9765
-3.3398 -4.6412 -1.6187 0.9765
-3.1700 -4.7589 -1.6187 0.9765
-2.9960 -4.8703 -1.6187 0.9765
-2.8181 -4.9753 -1.6187 0.9765
-2.6366 -5.0739 -1.6187 0.9765
-2.4515 -5.1658 -1.6187 0.9765
-2.2633 -5.2510 -1.6187 0.9765
-1.8783 -5.4007 -1.6187 0.9765
-1.6820 -5.4650 -1.6187 0.9765
-1.4834 -5.5222 -1.6187 0.9765
-1.2830 -5.5722 -1.6187 0.9765
-1.4505 -0.5014 -0.4720 0.9936
-1.4531 -0.5618 -0.4792 0.9935
-1.4550 -0.6238 -0.4869 0.9934
-1.4559 -0.6875 -0.4952 0.9933
-1.5044 -0.7781 -0.5209 0.9929
-4.3856 -2.9093 -1.6187 0.9782
-4.1641 -3.2183 -1.6187 0.9782
-4.0451 -3.3666 -1.6187 0.9782
-3.9209 -3.5106 -1.6187 0.9782
-3.6572 -3.7845 -1.6187 0.9782
-3.5181 -3.9142 -1.6187 0.9782
-3.3744 -4.0387 -1.6187 0.9782
-3.0739 -4.2718 -1.6187 0.9782
-2.9176 -4.3800 -1.6187 0.9782
-2.0831 -4.8329 -1.6187 0.9782
-1.9072 -4.9050 -1.6187 0.9782
-1.7288 -4.9707 -1.6187 0.9782
-1.3653 -5.0826 -1.6187 0.9782
-1.4016 -0.5419 -0.4995 0.9937
-1.4026 -0.6014 -0.5073 0.9936
-1.4027 -0.6624 -0.5156 0.9935
-1.4019 -0.7251 -0.5246 0.9934
-1.5974 -0.9008 -0.6096 0.9923
-1.5051 -0.9219 -0.5867 0.9926
-3.9582 -2.8368 -1.6187 0.9797
-3.2553 -3.6218 -1.6187 0.9797
-2.9853 -3.8474 -1.6187 0.9797
-2.5516 -4.1477 -1.6187 0.9797
-2.2454 -4.3212 -1.6187 0.9797
-1.9275 -4.4720 -1.6187 0.9797
-1.7648 -4.5387 -1.6187 0.9797
-1.0927 -4.7455 -1.6187 0.9797
-1.3525 -0.4675 -0.5117 0.9939
-1.3531 -0.5231 -0.5188 0.9939
-1.3525 -0.6387 -0.5349 0.9937
-1.3508 -0.6987 -0.5439 0.9936
-1.3639 -0.7691 -0.5599 0.9934
-1.5009 -0.9194 -0.6294 0.9926
-3.6792 -2.6369 -1.6187 0.9810
-3.5816 -2.7681 -1.6187 0.9810
-3.4792 -2.8956 -1.6187 0.9810
-3.2611 -3.1393 -1.6187 0.9810
-2.9023 -3.4737 -1.6187 0.9810
-2.5095 -3.7672 -1.6187 0.9810
-2.3717 -3.8554 -1.6187 0.9810
-2.2309 -3.9386 -1.6187 0.9810
-2.0872 -4.0166 -1.6187 0.9810
-1.9407 -4.0894 -1.6187 0.9810
-1.6404 -4.2188 -1.6187 0.9810
-1.4869 -4.2753 -1.6187 0.9810
-1.3315 -4.3263 -1.6187 0.9810
-1.1743 -4.3715 -1.6187 0.9810
-1.0156 -4.4111 -1.6187 0.9810
-1.3074 -0.5055 -0.5372 0.9940
-1.2993 -0.7327 -0.5716 0.9936
-3.6020 -2.2063 -1.6187 0.9821
-3.4333 -2.4607 -1.6187 0.9821
-3.2467 -2.7021 -1.6187 0.9821
-3.0431 -2.9295 -1.6187 0.9821
-2.8237 -3.1416 -1.6187 0.9821
-2.7083 -3.2415 -1.6187 0.9821
-2.4672 -3.4286 -1.6187 0.9821
-2.3417 -3.5155 -1.6187 0.9821
-1.9477 -3.7482 -1.6187 0.9821
-1.3875 -3.9896 -1.6187 0.9821
-1.2425 -4.0371 -1.6187 0.9821
-1.0958 -4.0794 -1.6187 0.9821
-0.9478 -4.1163 -1.6187 0.9821
-1.2602 -0.5951 -0.5704 0.9940
-1.2570 -0.6501 -0.5792 0.9939
-1.2530 -0.7066 -0.5887 0.9938
-3.2147 -2.3040 -1.6187 0.9831
-3.1294 -2.4186 -1.6187 0.9831
-3.0400 -2.5301 -1.6187 0.9831
-2.8494 -2.7430 -1.6187 0.9831
-2.5359 -3.0351 -1.6187 0.9831
-2.4246 -3.1247 -1.6187 0.9831
-2.3101 -3.2103 -1.6187 0.9831
-2.1926 -3.2917 -1.6187 0.9831
-1.9493 -3.4414 -1.6187 0.9831
-1.8237 -3.5096 -1.6187 0.9831
-1.6957 -3.5731 -1.6187 0.9831
-1.5655 -3.6321 -1.6187 0.9831
-1.4333 -3.6862 -1.6187 0.9831
-0.8874 -3.8542 -1.6187 0.9831
-1.2208 -0.5234 -0.5789 0.9942
-1.2036 -0.7372 -0.6151 0.9939
-2.7672 -2.4776 -1.6187 0.9839
-2.3815 -2.8503 -1.6187 0.9839
-2.1694 -3.0148 -1.6187 0.9839
-2.0591 -3.0912 -1.6187 0.9839
-1.9461 -3.1636 -1.6187 0.9839
-1.8305 -3.2318 -1.6187 0.9839
-1.7126 -3.2958 -1.6187 0.9839
-1.4702 -3.4109 -1.6187 0.9839
-1.2201 -3.5081 -1.6187 0.9839
-1.0925 -3.5499 -1.6187 0.9839
-0.9636 -3.5870 -1.6187 0.9839
-1.1832 -0.4575 -0.5872 0.9944
-1.1808 -0.5063 -0.5947 0.9944
-1.1775 -0.5561 -0.6028 0.9943
-1.1732 -0.6068 -0.6114 0.9942
-1.1542 -0.7657 -0.6411 0.9939
-2.8424 -2.0371 -1.6187 0.9847
-2.7670 -2.1385 -1.6187 0.9847
-2.6053 -2.3327 -1.6187 0.9847
-2.5194 -2.4253 -1.6187 0.9847
-2.4301 -2.5147 -1.6187 0.9847
-1.8323 -2.9785 -1.6187 0.9847
-1.7235 -3.0428 -1.6187 0.9847
-1.4993 -3.1593 -1.6187 0.9847
-1.2673 -3.2593 -1.6187 0.9847
-1.0286 -3.3423 -1.6187 0.9847
-1.1474 -0.3966 -0.5955 0.9946
-1.1455 -0.4429 -0.6024 0.9945
-1.1218 -0.6872 -0.6453 0.9942
-2.5364 -2.1110 -1.6187 0.9854
-2.3774 -2.2886 -1.6187 0.9854
-2.2060 -2.4543 -1.6187 0.9854
-2.1158 -2.5324 -1.6187 0.9854
-1.9275 -2.6786 -1.6187 0.9854
-1.7291 -2.8107 -1.6187 0.9854
-1.6264 -2.8713 -1.6187 0.9854
-1.5216 -2.9282 -1.6187 0.9854
-1.0840 -3.1169 -1.6187 0.9854
-0.9707 -3.1540 -1.6187 0.9854
-1.1093 -0.4289 -0.6170 0.9947
-1.1062 -0.4743 -0.6244 0.9946
-1.1021 -0.5205 -0.6323 0.9945
-1.0971 -0.5674 -0.6408 0.9944
-1.0840 -0.6640 -0.6594 0.9943
-1.0716 -0.7108 -0.6671 0.9942
-1.0513 -0.7535 -0.6710 0.9942
-2.0006 -2.3945 -1.6187 0.9860
-1.8225 -2.5327 -1.6187 0.9860
-1.7298 -2.5968 -1.6187 0.9860
-1.5378 -2.7150 -1.6187 0.9860
-1.3378 -2.8189 -1.6187 0.9860
-1.2351 -2.8654 -1.6187 0.9860
-1.1308 -2.9081 -1.6187 0.9860
-0.9178 -2.9822 -1.6187 0.9860
-0.8095 -3.0134 -1.6187 0.9860
-1.0668 -0.5038 -0.6462 0.9946
-1.0022 -0.7183 -0.6753 0.9944
-2.2019 -1.9714 -1.6187 0.9866
-2.1292 -2.0497 -1.6187 0.9866
-2.0538 -2.1253 -1.6187 0.9866
-1.9757 -2.1981 -1.6187 0.9866
-1.7263 -2.3989 -1.6187 0.9866
-1.4566 -2.5716 -1.6187 0.9866
-1.3628 -2.6225 -1.6187 0.9866
-1.2671 -2.6700 -1.6187 0.9866
-1.1698 -2.7141 -1.6187 0.9866
-1.0710 -2.7545 -1.6187 0.9866
-0.9708 -2.7915 -1.6187 0.9866
-1.0465 -0.3617 -0.6392 0.9949
-1.0411 -0.4025 -0.6445 0.9949
-1.0374 -0.4448 -0.6517 0.9948
-0.9752 -0.6469 -0.6756 0.9946
-0.9361 -0.7235 -0.6831 0.9946
-0.9145 -0.7612 -0.6870 0.9945
-0.9282 -0.8311 -0.7193 0.9943
-2.0199 -1.9445 -1.6187 0.9871
-1.9483 -2.0161 -1.6187 0.9871
-1.7976 -2.1516 -1.6187 0.9871
-1.6376 -2.2757 -1.6187 0.9871
-1.5543 -2.3334 -1.6187 0.9871
-1.4690 -2.3880 -1.6187 0.9871
-1.3818 -2.4395 -1.6187 0.9871
-1.2928 -2.4879 -1.6187 0.9871
-1.1098 -2.5747 -1.6187 0.9871
-1.0160 -2.6131 -1.6187 0.9871
-0.9209 -2.6481 -1.6187 0.9871
-0.6291 -2.7322 -1.6187 0.9871
