ply
format ascii 1.0
element vertex 544
property float32 x
property float32 y
property float32 z
property float32 I
end_header
-14.4076 11.7546 3.2787 0.9273
-14.8204 11.2296 3.2787 0.9273
-15.2075 10.6854 3.2772 0.9273
-15.3938 10.0104 3.2378 0.9281
-15.5760 9.3506 3.2034 0.9289
-15.7545 8.7039 3.1737 0.9295
-17.5523 8.8899 3.4693 0.9232
-21.7494 10.0512 4.2247 0.9073
-10.6193 4.0100 2.0014 0.9549
-36.1631 -18.1464 7.1343 0.8485
-35.1857 -19.2678 7.0735 0.8496
-15.0160 11.3778 2.8861 0.9266
-15.2074 10.6853 2.8473 0.9275
-15.3938 10.0104 2.8130 0.9284
-15.7545 8.7039 2.7573 0.9298
-17.5664 8.8971 3.0166 0.9234
-29.3849 12.3193 4.8812 0.8790
-38.5661 -17.6481 6.4973 0.8423
-38.2782 -19.2078 6.5609 0.8409
-36.1559 -21.5219 6.4459 0.8434
-34.5662 -22.2946 6.3012 0.8467
-12.3237 10.0543 2.0711 0.9379
-16.1453 9.6924 2.4522 0.9269
-13.1346 7.2565 1.9541 0.9413
-17.5664 8.8971 2.5642 0.9236
-21.7532 10.0529 3.1206 0.9079
-29.3849 12.3193 4.1492 0.8794
-10.6164 4.0089 1.4778 0.9553
-38.6311 -17.6779 5.5323 0.8425
-39.4347 -19.7881 5.7455 0.8370
-35.3002 -19.3305 5.2409 0.8501
-34.4450 -20.5034 5.2200 0.8507
-34.5224 -22.2663 5.3495 0.8473
-15.0159 11.3777 2.0230 0.9270
-15.2073 10.6853 1.9958 0.9280
-16.1075 9.6698 2.0174 0.9272
-13.1346 7.2565 1.6113 0.9414
-15.9627 8.0848 1.9214 0.9305
-22.3119 10.3111 2.6394 0.9058
-28.2688 11.8514 3.2915 0.8840
-10.6150 4.0084 1.2184 0.9554
-35.5990 -19.4941 4.3583 0.8494
-15.0084 12.2447 1.6397 0.9252
-15.0007 11.3662 1.5932 0.9272
-15.3938 10.0104 1.5544 0.9289
-13.1346 7.2565 1.2703 0.9415
-15.9628 8.0848 1.5147 0.9307
-28.2687 11.8514 2.5948 0.8842
-15.0084 12.2447 1.2011 0.9253
-15.0159 11.3777 1.1682 0.9273
-15.2072 10.6852 1.1525 0.9282
-15.3938 10.0104 1.1387 0.9291
-12.7523 7.6556 0.9223 0.9421
-12.9032 7.1287 0.9141 0.9426
-15.9627 8.0849 1.1096 0.9308
-12.6768 8.2436 0.5963 0.9413
-12.7523 7.6556 0.5865 0.9422
-12.9032 7.1287 0.5813 0.9427
-14.8544 7.5235 0.6566 0.9355
-18.1645 8.3945 0.7890 0.9230
-26.1412 10.9594 1.1177 0.8927
-10.6108 4.0068 0.4472 0.9556
-12.3627 9.3673 0.2620 0.9398
-12.5217 8.7983 0.2585 0.9406
-12.6768 8.2436 0.2554 0.9413
-23.7067 9.9387 0.4342 0.9023
-12.6768 8.2436 -0.0851 0.9413
-14.8544 7.5235 -0.0937 0.9356
-23.7067 9.9387 -0.1447 0.9023
-45.9591 -15.3021 -0.2727 0.8239
-43.0222 -16.0624 -0.2586 0.8322
-38.1794 -17.4712 -0.2364 0.8454
-36.0199 -18.0746 -0.2269 0.8511
-32.6542 -19.4374 -0.2140 0.8590
-31.9338 -20.5966 -0.2139 0.8590
-12.1991 9.9527 -0.4433 0.9389
-12.3627 9.3673 -0.4368 0.9398
-12.5217 8.7983 -0.4309 0.9406
-12.6768 8.2436 -0.4258 0.9413
-14.8544 7.5235 -0.4689 0.9355
-18.1645 8.3945 -0.5635 0.9230
-23.7066 9.9387 -0.7238 0.9023
-37.2587 -12.4052 -1.1057 0.8546
-43.0222 -16.0624 -1.2931 0.8321
-36.3163 -18.2233 -1.1441 0.8499
-32.3280 -19.2433 -1.0594 0.8602
-31.6325 -20.4024 -1.0599 0.8602
-12.1991 9.9527 -0.7984 0.9389
-12.9032 7.1287 -0.7476 0.9427
-14.8544 7.5235 -0.8444 0.9355
-18.1645 8.3945 -1.0148 0.9230
-27.7164 8.2475 -1.4665 0.8906
-27.9947 7.2468 -1.4665 0.8906
-28.2370 6.2368 -1.4665 0.8906
-31.3989 5.7612 -1.6190 0.8800
-3.1075 0.3420 -0.1585 0.9876
-2.9775 0.2199 -0.1514 0.9881
-2.9586 0.1118 -0.1501 0.9882
-2.9756 -0.2085 -0.1513 0.9881
-31.6023 -4.5117 -1.6189 0.8800
-30.9337 -7.8844 -1.6189 0.8800
-30.6305 -8.9902 -1.6189 0.8800
-29.9060 -11.1655 -1.6189 0.8800
-29.4858 -12.2322 -1.6189 0.8800
-29.0274 -13.2832 -1.6189 0.8800
-28.2690 -14.1853 -1.6040 0.8810
-26.6655 -14.6021 -1.5418 0.8854
-24.3004 -15.6733 -1.4665 0.8906
-12.5217 8.7983 -1.1221 0.9405
-12.6768 8.2436 -1.1087 0.9412
-12.7523 7.6556 -1.0906 0.9421
-14.8543 7.5235 -1.2209 0.9354
-10.5456 3.9822 -0.8265 0.9558
-18.9523 6.3889 -1.4665 0.9229
-19.3620 5.0121 -1.4665 0.9229
-2.5227 0.5572 -0.1894 0.9897
-2.4716 0.4535 -0.1842 0.9900
-2.4321 0.3565 -0.1802 0.9902
-2.4090 0.1779 -0.1771 0.9904
-2.4059 -0.0820 -0.1765 0.9904
-2.4088 -0.1688 -0.1771 0.9904
-2.4101 -0.2562 -0.1777 0.9903
-2.4283 -0.3467 -0.1799 0.9902
-2.4663 -0.4430 -0.1837 0.9900
-2.5173 -0.5462 -0.1889 0.9897
-21.1851 -6.2179 -1.6189 0.9153
-20.9481 -6.9747 -1.6189 0.9153
-19.7335 -9.9021 -1.6188 0.9153
-18.9717 -11.2929 -1.6188 0.9153
-11.8352 9.6558 -1.4664 0.9405
-12.1743 9.2245 -1.4664 0.9405
-12.6768 8.2436 -1.4517 0.9410
-12.7523 7.6555 -1.4280 0.9420
-13.8654 6.4077 -1.4664 0.9405
-14.0866 5.9056 -1.4664 0.9405
-10.5184 3.9719 -1.0794 0.9558
-2.2698 0.6754 -0.2274 0.9905
-2.2353 0.5786 -0.2217 0.9908
-2.1826 0.4005 -0.2130 0.9911
-2.1569 0.2374 -0.2083 0.9913
-2.1560 0.1592 -0.2076 0.9914
-2.1506 0.0040 -0.2065 0.9914
-2.1564 -0.3079 -0.2091 0.9913
-2.1798 -0.3915 -0.2126 0.9911
-2.2064 -0.4787 -0.2168 0.9910
-15.9984 -5.3267 -1.6188 0.9345
-15.5748 -6.4612 -1.6188 0.9345
-15.3327 -7.0164 -1.6188 0.9345
-15.0708 -7.5624 -1.6188 0.9345
-14.4891 -8.6246 -1.6188 0.9345
-14.1700 -9.1394 -1.6188 0.9345
-9.8393 7.4553 -1.4664 0.9515
-10.1007 7.0972 -1.4664 0.9515
-10.3491 6.7299 -1.4664 0.9515
-11.2061 5.1787 -1.4664 0.9515
-11.3849 4.7730 -1.4664 0.9515
-10.4911 3.9616 -1.3321 0.9558
-2.0699 0.6159 -0.2565 0.9913
-2.0533 0.5315 -0.2519 0.9915
-2.0366 0.4498 -0.2478 0.9916
-2.0199 0.3706 -0.2439 0.9918
-2.0055 0.1481 -0.2389 0.9919
-2.0015 0.0757 -0.2379 0.9920
-1.9960 0.0037 -0.2371 0.9920
-2.0011 -0.0682 -0.2378 0.9920
-2.0051 -0.1405 -0.2388 0.9919
-2.0085 -0.2135 -0.2399 0.9919
-2.0113 -0.2872 -0.2413 0.9918
-2.0185 -0.3626 -0.2436 0.9918
-2.0349 -0.4415 -0.2473 0.9916
-2.0516 -0.5229 -0.2515 0.9915
-2.0681 -0.6070 -0.2560 0.9914
-12.3920 -5.6707 -1.6188 0.9466
-12.1803 -6.1120 -1.6188 0.9466
-11.7102 -6.9705 -1.6188 0.9466
-11.4523 -7.3865 -1.6188 0.9466
-8.4679 5.9499 -1.4664 0.9591
-9.0587 5.0047 -1.4664 0.9591
-9.3946 4.3416 -1.4664 0.9591
-9.5445 4.0014 -1.4664 0.9591
-9.6820 3.6561 -1.4664 0.9591
-1.9474 0.5041 -0.2850 0.9919
-1.9196 0.2814 -0.2749 0.9922
-1.9175 0.2111 -0.2733 0.9922
-1.9147 0.1414 -0.2720 0.9923
-1.9043 0.0036 -0.2698 0.9923
-1.9099 -0.0651 -0.2708 0.9923
-1.9144 -0.1342 -0.2719 0.9923
-1.9172 -0.2038 -0.2732 0.9922
-1.9331 -0.4194 -0.2803 0.9920
-1.9734 -0.6570 -0.2947 0.9916
-10.7033 -3.9961 -1.6188 0.9549
-10.5529 -4.3778 -1.6188 0.9549
-10.3888 -4.7540 -1.6188 0.9549
-9.8172 -5.8437 -1.6188 0.9549
-6.8970 5.6269 -1.4664 0.9646
-7.7912 4.3044 -1.4664 0.9646
-7.9408 4.0219 -1.4664 0.9646
-8.0801 3.7341 -1.4664 0.9646
-8.3273 3.1445 -1.4664 0.9646
-1.8740 0.6317 -0.3258 0.9920
-1.8532 0.4797 -0.3154 0.9923
-1.8351 0.2690 -0.3055 0.9925
-1.8307 0.1352 -0.3024 0.9926
-1.8258 0.0690 -0.3010 0.9926
-1.8252 -0.0622 -0.3009 0.9926
-1.8302 -0.1283 -0.3022 0.9926
-1.8349 -0.2620 -0.3054 0.9925
-1.8358 -0.3298 -0.3073 0.9925
-1.8523 -0.4721 -0.3149 0.9923
-1.8617 -0.5464 -0.3196 0.9922
-1.8835 -0.7032 -0.3312 0.9919
-9.0763 -3.7653 -1.6188 0.9609
-8.9352 -4.0888 -1.6188 0.9609
-6.0448 4.9317 -1.4664 0.9687
-6.2180 4.7115 -1.4664 0.9687
-6.5402 4.2530 -1.4664 0.9687
-6.6887 4.0154 -1.4664 0.9687
-1.7909 0.6763 -0.3598 0.9922
-1.7824 0.6009 -0.3536 0.9924
-1.7688 0.4579 -0.3434 0.9926
-1.7611 0.3890 -0.3390 0.9927
-1.7556 0.1932 -0.3320 0.9928
-1.7477 0.0661 -0.3287 0.9929
-1.7553 -0.1866 -0.3318 0.9928
-1.7571 -0.2509 -0.3336 0.9928
-1.7680 -0.4506 -0.3429 0.9926
-1.7818 -0.5932 -0.3530 0.9924
-1.7900 -0.6683 -0.3591 0.9923
-7.9549 -3.3001 -1.6188 0.9656
-7.5538 -4.1365 -1.6188 0.9656
-7.4004 -4.4051 -1.6188 0.9656
-7.2374 -4.6680 -1.6188 0.9656
-5.3751 4.3853 -1.4664 0.9720
-5.6760 3.9882 -1.4664 0.9720
-5.8156 3.7818 -1.4664 0.9720
-6.9204 3.1982 -1.6115 0.9693
-1.7112 0.7174 -0.3922 0.9924
-1.7062 0.6443 -0.3855 0.9926
-1.6969 0.5049 -0.3742 0.9928
-1.6912 0.4378 -0.3693 0.9929
-1.6849 0.3091 -0.3621 0.9930
-1.6846 0.2469 -0.3599 0.9931
-1.6823 0.1852 -0.3578 0.9931
-1.6793 0.1240 -0.3559 0.9931
-1.6709 0.0031 -0.3532 0.9932
-1.6750 -0.0571 -0.3543 0.9932
-1.6849 -0.3026 -0.3619 0.9930
-1.6841 -0.3654 -0.3643 0.9930
-1.6905 -0.4309 -0.3688 0.9929
-1.6963 -0.4979 -0.3737 0.9928
-1.7058 -0.6369 -0.3849 0.9926
-1.7106 -0.7097 -0.3915 0.9925
-6.8446 -3.4346 -1.6188 0.9692
-6.5805 -3.9170 -1.6188 0.9692
-6.4355 -4.1508 -1.6188 0.9692
-5.3994 3.5112 -1.5137 0.9739
-5.7292 3.4394 -1.5705 0.9729
-6.0043 3.3172 -1.6122 0.9722
-6.2516 2.8891 -1.6186 0.9721
-1.6307 0.6158 -0.4097 0.9929
-1.6240 0.4832 -0.3982 0.9931
-1.6194 0.4192 -0.3931 0.9932
-1.6161 0.3570 -0.3890 0.9932
-1.6171 0.2967 -0.3864 0.9933
-1.6161 0.2369 -0.3839 0.9933
-1.6143 0.1777 -0.3817 0.9933
-1.6079 -0.0548 -0.3781 0.9934
-1.6141 -0.1716 -0.3815 0.9934
-1.6235 -0.4765 -0.3977 0.9931
-1.6274 -0.5418 -0.4031 0.9930
-1.6327 -0.6773 -0.4154 0.9928
-6.2630 -2.8660 -1.6188 0.9721
-6.1561 -3.0891 -1.6188 0.9721
-6.0412 -3.3081 -1.6188 0.9721
-5.9185 -3.5230 -1.6188 0.9721
-5.7881 -3.7332 -1.6187 0.9721
-5.0720 3.5638 -1.6050 0.9747
-5.2236 3.3969 -1.6133 0.9746
-5.4723 3.0233 -1.6187 0.9745
-1.5724 0.7267 -0.4485 0.9929
-1.5690 0.6578 -0.4405 0.9930
-1.5650 0.5909 -0.4331 0.9931
-1.5602 0.5259 -0.4263 0.9932
-1.5563 0.4631 -0.4204 0.9933
-1.5527 0.4019 -0.4153 0.9934
-1.5528 0.2849 -0.4088 0.9935
-1.5510 0.1707 -0.4040 0.9936
-1.5487 0.1144 -0.4021 0.9936
-1.5458 0.0584 -0.4005 0.9936
-1.5454 -0.0526 -0.4004 0.9936
-1.5522 -0.2216 -0.4060 0.9935
-1.5528 -0.2789 -0.4085 0.9935
-1.5526 -0.3369 -0.4113 0.9935
-1.5523 -0.3957 -0.4148 0.9934
-1.5560 -0.4567 -0.4199 0.9933
-1.5645 -0.5841 -0.4324 0.9931
-1.5686 -0.6508 -0.4397 0.9930
-5.2539 -3.3887 -1.6187 0.9745
-4.4146 3.6017 -1.6129 0.9766
-4.5470 3.4453 -1.6150 0.9766
-4.6742 3.2843 -1.6172 0.9765
-4.7937 3.1173 -1.6187 0.9765
-1.6568 0.9946 -0.5471 0.9920
-1.6275 0.8992 -0.5264 0.9923
-5.1011 2.5836 -1.6188 0.9765
-1.5100 0.6330 -0.4635 0.9932
-1.5071 0.5691 -0.4560 0.9933
-1.5034 0.5068 -0.4491 0.9934
-1.4989 0.4460 -0.4427 0.9935
-1.4950 0.2743 -0.4303 0.9937
-1.4912 0.1101 -0.4233 0.9938
-1.4885 0.0563 -0.4217 0.9938
-1.4930 -0.1587 -0.4250 0.9938
-1.4944 -0.2133 -0.4273 0.9937
-1.4950 -0.2685 -0.4300 0.9937
-1.4949 -0.3243 -0.4330 0.9937
-1.4940 -0.3808 -0.4365 0.9936
-1.5067 -0.5625 -0.4553 0.9933
-1.5097 -0.6263 -0.4627 0.9932
-1.6406 -0.8984 -0.5295 0.9923
-4.8053 -3.0993 -1.6187 0.9765
-4.0778 3.3269 -1.6187 0.9782
-4.4121 2.8691 -1.6187 0.9782
-1.5085 0.9056 -0.5412 0.9927
-1.6275 0.8992 -0.5719 0.9922
-1.4561 0.7375 -0.5020 0.9932
-1.4558 0.6728 -0.4933 0.9933
-1.4499 0.4887 -0.4706 0.9936
-1.4465 0.4304 -0.4642 0.9937
-1.4441 0.3738 -0.4588 0.9938
-1.4459 0.2653 -0.4522 0.9939
-1.4448 0.1590 -0.4471 0.9939
-1.4406 0.0545 -0.4434 0.9940
-1.4328 0.0027 -0.4407 0.9940
-1.4460 -0.2597 -0.4519 0.9939
-1.4442 -0.3681 -0.4584 0.9938
-1.4462 -0.4245 -0.4636 0.9937
-1.4561 -0.7307 -0.5011 0.9932
-1.6407 -0.8984 -0.5753 0.9922
-1.5203 -0.9050 -0.5442 0.9926
-4.4227 -2.8526 -1.6187 0.9782
-3.7733 3.0785 -1.6187 0.9797
-3.9845 2.7997 -1.6187 0.9797
-4.0825 2.6548 -1.6187 0.9797
-1.6275 0.8992 -0.6181 0.9922
-1.4028 0.6483 -0.5137 0.9935
-1.4025 0.5880 -0.5055 0.9936
-1.4013 0.5292 -0.4979 0.9937
-1.3996 0.4718 -0.4909 0.9938
-1.3969 0.3616 -0.4796 0.9939
-1.3985 0.3089 -0.4761 0.9940
-1.3994 0.2568 -0.4729 0.9940
-1.3972 0.1032 -0.4657 0.9941
-1.3839 0.0026 -0.4600 0.9942
-1.3915 -0.0474 -0.4628 0.9941
-1.3986 -0.1487 -0.4675 0.9941
-1.3994 -0.1998 -0.4699 0.9941
-1.3970 -0.4100 -0.4840 0.9939
-1.3994 -0.4659 -0.4903 0.9938
-1.4011 -0.5231 -0.4972 0.9937
-1.4028 -0.6419 -0.5128 0.9935
-1.4022 -0.7036 -0.5215 0.9934
-1.5203 -0.9050 -0.5881 0.9926
-4.0924 -2.6395 -1.6187 0.9797
-3.6079 2.7337 -1.6187 0.9810
-3.7037 2.6024 -1.6187 0.9810
-3.7948 2.4677 -1.6187 0.9810
-1.5030 0.9023 -0.6269 0.9926
-1.3527 0.6251 -0.5329 0.9937
-1.3530 0.5109 -0.5172 0.9939
-1.3540 0.2991 -0.4959 0.9941
-1.3551 0.2486 -0.4927 0.9942
-1.3525 0.0999 -0.4850 0.9943
-1.3548 -0.1440 -0.4872 0.9942
-1.3554 -0.1935 -0.4896 0.9942
-1.3551 -0.2434 -0.4924 0.9942
-1.3541 -0.2938 -0.4955 0.9941
-1.3523 -0.3447 -0.4991 0.9941
-1.3504 -0.3964 -0.5033 0.9940
-1.3530 -0.5051 -0.5165 0.9939
-1.3532 -0.5614 -0.5239 0.9938
-1.3528 -0.6191 -0.5320 0.9937
-1.3515 -0.6782 -0.5407 0.9936
-1.3492 -0.7388 -0.5501 0.9935
-3.8040 -2.4535 -1.6187 0.9810
-1.4131 0.8483 -0.6316 0.9930
-1.3002 0.7183 -0.5692 0.9937
-1.3068 0.5479 -0.5430 0.9939
-1.3075 0.4937 -0.5356 0.9940
-1.3093 0.3389 -0.5183 0.9942
-1.3128 0.2409 -0.5115 0.9943
-1.3133 0.1925 -0.5087 0.9943
-1.3074 0.0965 -0.5024 0.9944
-1.2935 0.0024 -0.4957 0.9945
-1.3000 -0.0443 -0.4985 0.9944
-1.3117 -0.2846 -0.5144 0.9943
-1.3096 -0.3338 -0.5179 0.9942
-1.3055 -0.5974 -0.5502 0.9939
-1.3035 -0.6541 -0.5589 0.9938
-1.3006 -0.7122 -0.5682 0.9937
-1.3803 -0.8216 -0.6156 0.9931
-3.5497 -2.2895 -1.6187 0.9821
-3.0646 2.5003 -1.6187 0.9831
-3.1524 2.3886 -1.6187 0.9831
-1.2493 0.7500 -0.5964 0.9937
-1.2578 0.6371 -0.5770 0.9939
-1.2642 0.4774 -0.5531 0.9942
-1.2686 0.3284 -0.5363 0.9944
-1.2697 0.1397 -0.5228 0.9945
-1.2644 0.0934 -0.5189 0.9945
-1.2584 0.0476 -0.5154 0.9946
-1.2516 0.0023 -0.5122 0.9946
-1.2577 -0.0428 -0.5150 0.9946
-1.2638 -0.0886 -0.5185 0.9945
-1.2692 -0.1349 -0.5224 0.9945
-1.2732 -0.1818 -0.5264 0.9945
-1.2726 -0.2286 -0.5292 0.9944
-1.2711 -0.2758 -0.5323 0.9944
-1.2643 -0.4720 -0.5523 0.9942
-1.2632 -0.5240 -0.5597 0.9941
-1.2611 -0.5771 -0.5676 0.9940
-1.2581 -0.6313 -0.5761 0.9939
-2.8780 2.3480 -1.6187 0.9839
-1.2150 0.6154 -0.5936 0.9941
-1.2230 0.4618 -0.5697 0.9943
-1.2239 0.4126 -0.5629 0.9944
-1.2321 0.2721 -0.5499 0.9945
-1.2324 0.1806 -0.5428 0.9946
-1.2283 0.1352 -0.5386 0.9946
-1.2235 0.0904 -0.5347 0.9947
-1.2173 -0.0415 -0.5308 0.9947
-1.2230 -0.0857 -0.5343 0.9947
-1.2279 -0.1305 -0.5381 0.9946
-1.2340 -0.2216 -0.5464 0.9945
-1.2323 -0.2674 -0.5496 0.9945
-1.2299 -0.3135 -0.5531 0.9945
-1.2266 -0.3600 -0.5571 0.9944
-1.2231 -0.4567 -0.5690 0.9943
-1.2215 -0.5067 -0.5763 0.9942
-1.2189 -0.5578 -0.5842 0.9942
-1.2110 -0.6631 -0.6017 0.9940
-2.7096 2.2107 -1.6187 0.9847
-2.8613 2.0105 -1.6187 0.9847
-1.1562 0.7518 -0.6384 0.9939
-1.1632 0.6983 -0.6280 0.9940
-1.1693 0.6460 -0.6184 0.9941
-1.1743 0.5948 -0.6093 0.9942
-1.1784 0.5446 -0.6009 0.9943
-1.1815 0.4953 -0.5930 0.9944
-1.1922 0.3086 -0.5700 0.9946
-1.1949 0.2639 -0.5664 0.9946
-1.1924 0.1748 -0.5579 0.9947
-1.1844 0.0875 -0.5497 0.9948
-1.1793 0.0446 -0.5462 0.9948
-1.1733 0.0022 -0.5431 0.9948
-1.1921 -0.1702 -0.5574 0.9947
-1.1925 -0.3040 -0.5696 0.9946
-1.1850 -0.3946 -0.5781 0.9945
-1.1838 -0.4420 -0.5849 0.9944
-1.1817 -0.4903 -0.5922 0.9944
-1.1787 -0.5394 -0.6000 0.9943
-1.1748 -0.5895 -0.6084 0.9942
-1.1569 -0.7462 -0.6372 0.9940
-2.5570 2.0861 -1.6187 0.9854
-2.6302 1.9930 -1.6187 0.9854
-1.1301 0.6243 -0.6333 0.9943
-1.1355 0.5751 -0.6244 0.9943
-1.1460 0.4327 -0.6009 0.9946
-1.1526 0.3430 -0.5899 0.9947
-1.1542 0.1692 -0.5722 0.9948
-1.1422 0.0432 -0.5607 0.9949
-1.1417 -0.0389 -0.5604 0.9949
-1.1506 -0.1223 -0.5676 0.9949
-1.1539 -0.1647 -0.5718 0.9948
-1.1564 -0.2077 -0.5763 0.9948
-1.1462 -0.4279 -0.6001 0.9946
-1.1437 -0.4745 -0.6074 0.9945
-1.1403 -0.5218 -0.6152 0.9944
-1.1360 -0.5700 -0.6235 0.9944
-1.1307 -0.6192 -0.6323 0.9943
-1.1243 -0.6692 -0.6418 0.9942
-1.0476 0.7938 -0.6819 0.9941
-1.0567 0.7425 -0.6700 0.9942
-1.0984 0.5563 -0.6387 0.9945
-1.1032 0.5098 -0.6304 0.9945
-1.1070 0.4641 -0.6227 0.9946
-1.1133 0.3753 -0.6095 0.9947
-1.1213 0.2903 -0.6009 0.9948
-1.1209 0.2476 -0.5955 0.9948
-1.1197 0.2054 -0.5906 0.9949
-1.1176 0.1638 -0.5860 0.9949
-1.1148 0.1227 -0.5818 0.9950
-1.1111 0.0821 -0.5780 0.9950
-1.1067 0.0418 -0.5745 0.9950
-1.1015 0.0021 -0.5715 0.9950
-1.1062 -0.0377 -0.5742 0.9950
-1.1173 -0.1595 -0.5855 0.9949
-1.1208 -0.2432 -0.5950 0.9948
-1.1184 -0.3283 -0.6047 0.9948
-1.1073 -0.4594 -0.6219 0.9946
-1.1036 -0.5050 -0.6296 0.9945
-1.0989 -0.5514 -0.6378 0.9945
-1.0933 -0.5987 -0.6466 0.9944
-1.0784 -0.6955 -0.6657 0.9942
-0.9875 0.8056 -0.6980 0.9942
-1.0264 0.6675 -0.6706 0.9944
-1.0628 0.5383 -0.6525 0.9946
-1.0799 0.3640 -0.6242 0.9948
-1.0844 0.3227 -0.6196 0.9949
-1.0852 0.2809 -0.6139 0.9949
-1.0851 0.2397 -0.6086 0.9949
-1.0799 0.1189 -0.5951 0.9951
-1.0767 0.0795 -0.5913 0.9951
-1.0726 0.0406 -0.5879 0.9951
-1.0677 0.0020 -0.5848 0.9951
-1.0721 -0.0365 -0.5875 0.9951
-1.0796 -0.1147 -0.5947 0.9951
-1.0823 -0.1545 -0.5988 0.9950
-1.0850 -0.2354 -0.6081 0.9949
-1.0852 -0.2766 -0.6134 0.9949
-1.0845 -0.3183 -0.6190 0.9949
-1.0804 -0.3597 -0.6237 0.9948
-1.0724 -0.4449 -0.6359 0.9947
-1.0574 -0.5791 -0.6603 0.9945
-1.0459 -0.6225 -0.6666 0.9945
-0.9416 0.7134 -0.6820 0.9946
-0.9613 0.6755 -0.6783 0.9946
-0.9798 0.6371 -0.6747 0.9946
-1.0273 0.5203 -0.6648 0.9947
-1.0384 0.4353 -0.6500 0.9948
-1.0419 0.3934 -0.6430 0.9949
-1.0474 0.3531 -0.6382 0.9949
-1.0434 0.0770 -0.6041 0.9952
-1.0352 0.0019 -0.5977 0.9952
-1.0431 -0.0731 -0.6037 0.9952
-1.0462 -0.1112 -0.6074 0.9952
-1.0505 -0.2678 -0.6259 0.9950
-1.0495 -0.3080 -0.6315 0.9950
-1.0477 -0.3488 -0.6375 0.9949
-1.0425 -0.3892 -0.6425 0.9949
-1.0345 -0.4734 -0.6568 0.9948
-1.0287 -0.5162 -0.6645 0.9947
-0.9986 -0.5944 -0.6709 0.9946
