ply
format ascii 1.0
element vertex 391
property float32 x
property float32 y
property float32 z
property float32 I
end_header
11.9808 -46.4330 6.2446 0.8241
13.5057 -45.4576 6.1753 0.8259
15.6306 -46.3762 6.3729 0.8209
11.9808 -46.4330 5.1494 0.8245
14.7670 -43.8140 4.9649 0.8303
19.1952 -45.7004 5.3227 0.8192
11.9808 -46.4330 4.0594 0.8249
7.9418 -23.5635 2.1050 0.9050
16.0685 -42.5134 3.8474 0.8332
18.0912 -43.0718 3.9547 0.8290
12.8549 -43.2670 2.7989 0.8345
17.1448 -40.8187 2.7454 0.8374
19.3510 -41.7598 2.8541 0.8316
24.0747 -43.3959 3.0774 0.8196
28.7089 -19.3312 2.1462 0.8705
12.8549 -43.2670 1.7798 0.8347
22.7698 -41.0438 1.8508 0.8287
11.9808 -46.4330 0.8100 0.8254
12.8549 -43.2670 0.7624 0.8348
13.6329 -40.4489 0.7210 0.8430
15.5676 -37.0636 0.6791 0.8514
19.3707 -38.1135 0.7222 0.8428
11.9808 -46.4330 -0.2700 0.8255
12.8549 -43.2671 -0.2541 0.8348
14.3316 -37.9181 -0.2282 0.8503
22.5127 -37.3211 -0.2454 0.8400
7.8008 -30.2330 -0.8792 0.8825
12.8549 -43.2671 -1.2709 0.8348
14.9642 -35.6270 -1.0881 0.8567
17.6044 -34.6381 -1.0941 0.8560
23.4935 -35.9320 -1.2088 0.8422
25.8631 -36.5863 -1.2616 0.8359
28.4525 -37.3011 -1.3210 0.8288
12.8040 -12.5162 -0.5042 0.9309
12.7898 -11.6255 -0.4867 0.9332
14.0754 -10.2389 -0.4901 0.9327
9.4489 -28.0350 -1.5004 0.8883
10.4704 -27.7024 -1.5019 0.8882
12.4290 -26.8220 -1.4992 0.8883
15.2508 -25.2825 -1.4974 0.8885
17.0330 -24.0950 -1.4964 0.8885
17.8776 -23.4374 -1.4949 0.8886
18.6975 -22.7509 -1.4934 0.8887
12.4563 -12.1764 -0.8834 0.9326
13.8952 -10.1078 -0.8714 0.9335
25.8209 -13.5666 -1.4792 0.8897
26.6774 -11.6330 -1.4760 0.8900
27.3835 -9.6445 -1.4723 0.8902
4.9962 -19.3632 -1.4663 0.9229
5.6953 -19.1692 -1.4662 0.9229
6.3869 -18.9499 -1.4662 0.9229
7.0700 -18.7057 -1.4662 0.9229
8.4076 -18.1437 -1.4662 0.9229
11.5430 -16.3289 -1.4662 0.9229
12.1277 -15.8993 -1.4662 0.9229
10.3534 -11.7051 -1.1458 0.9392
13.7830 -14.4877 -1.4662 0.9229
12.9136 -11.7381 -1.2796 0.9324
16.5866 -11.1687 -1.4662 0.9229
17.7017 -9.3007 -1.4662 0.9229
18.6072 -7.3226 -1.4662 0.9229
18.8606 -6.6428 -1.4662 0.9229
19.2849 -6.0153 -1.4812 0.9222
3.8158 -14.7885 -1.4663 0.9405
4.3497 -14.6403 -1.4663 0.9405
4.8779 -14.4728 -1.4663 0.9405
5.9144 -14.0810 -1.4663 0.9405
6.4212 -13.8572 -1.4662 0.9405
6.9197 -13.6151 -1.4662 0.9405
7.4090 -13.3551 -1.4662 0.9405
8.3577 -12.7827 -1.4662 0.9405
8.8159 -12.4711 -1.4662 0.9405
12.2417 -10.3418 -1.5385 0.9376
13.9271 -9.3779 -1.6119 0.9348
14.2946 -8.8892 -1.6161 0.9346
15.1994 -7.2951 -1.6186 0.9345
15.4540 -6.7389 -1.6186 0.9345
15.6883 -6.1739 -1.6186 0.9345
3.4045 -13.1946 -1.6187 0.9466
3.8809 -13.0624 -1.6187 0.9466
4.3522 -12.9130 -1.6187 0.9466
4.8177 -12.7466 -1.6187 0.9466
5.2770 -12.5635 -1.6187 0.9466
6.1739 -12.1478 -1.6187 0.9466
7.4570 -11.4051 -1.6186 0.9466
7.8658 -11.1271 -1.6186 0.9466
9.7442 -9.5252 -1.6186 0.9466
10.4091 -8.7936 -1.6186 0.9466
11.3028 -7.6108 -1.6186 0.9466
11.8248 -6.7713 -1.6186 0.9466
12.0627 -6.3379 -1.6186 0.9466
12.4904 -5.4466 -1.6186 0.9466
2.8542 -11.0618 -1.6187 0.9549
3.2536 -10.9510 -1.6187 0.9549
3.6487 -10.8258 -1.6187 0.9549
4.0390 -10.6862 -1.6187 0.9549
4.4240 -10.5327 -1.6187 0.9549
5.1760 -10.1842 -1.6187 0.9549
6.5944 -9.3285 -1.6187 0.9549
7.5687 -8.5569 -1.6186 0.9549
7.8741 -8.2767 -1.6186 0.9549
8.4535 -7.6840 -1.6186 0.9549
8.7266 -7.3723 -1.6186 0.9549
9.4759 -6.3806 -1.6186 0.9549
9.7011 -6.0327 -1.6186 0.9549
10.1129 -5.3134 -1.6186 0.9549
10.2990 -4.9431 -1.6186 0.9549
10.4715 -4.5662 -1.6186 0.9549
10.6303 -4.1833 -1.6186 0.9549
10.9056 -3.4016 -1.6186 0.9549
3.4739 -9.1911 -1.6187 0.9610
3.8050 -9.0590 -1.6187 0.9610
4.1311 -8.9150 -1.6187 0.9610
4.4518 -8.7593 -1.6187 0.9610
5.0751 -8.4134 -1.6187 0.9610
5.3770 -8.2238 -1.6187 0.9610
5.6718 -8.0233 -1.6187 0.9610
5.9590 -7.8123 -1.6187 0.9610
6.2385 -7.5910 -1.6187 0.9610
7.2707 -6.6089 -1.6186 0.9610
7.5057 -6.3408 -1.6186 0.9610
7.7307 -6.0643 -1.6186 0.9610
7.9457 -5.7799 -1.6186 0.9610
8.3438 -5.1886 -1.6186 0.9610
8.5265 -4.8825 -1.6186 0.9610
8.8580 -4.2515 -1.6186 0.9610
9.3798 -2.9257 -1.6186 0.9610
2.1516 -8.3387 -1.6187 0.9656
3.0447 -8.0556 -1.6187 0.9656
3.3349 -7.9398 -1.6187 0.9656
3.6207 -7.8136 -1.6187 0.9656
3.9018 -7.6771 -1.6187 0.9656
4.1777 -7.5305 -1.6187 0.9656
4.7127 -7.2078 -1.6187 0.9656
4.9711 -7.0321 -1.6187 0.9656
5.4678 -6.6532 -1.6187 0.9656
5.7055 -6.4504 -1.6187 0.9656
6.3725 -5.7924 -1.6187 0.9656
6.7757 -5.3152 -1.6187 0.9656
7.7637 -3.7263 -1.6186 0.9656
7.8938 -3.4422 -1.6186 0.9656
8.2210 -2.5643 -1.6186 0.9656
1.9132 -7.4149 -1.6187 0.9692
2.1809 -7.3406 -1.6187 0.9692
2.4458 -7.2566 -1.6187 0.9692
2.7074 -7.1631 -1.6187 0.9692
2.9654 -7.0602 -1.6187 0.9692
3.2196 -6.9480 -1.6187 0.9692
3.4695 -6.8266 -1.6187 0.9692
3.9553 -6.5571 -1.6187 0.9692
4.1906 -6.4093 -1.6187 0.9692
4.4203 -6.2530 -1.6187 0.9692
4.8620 -5.9161 -1.6187 0.9692
5.0734 -5.7358 -1.6187 0.9692
5.2781 -5.5480 -1.6187 0.9692
6.3518 -4.2770 -1.6187 0.9692
6.5028 -4.0438 -1.6187 0.9692
6.6452 -3.8052 -1.6187 0.9692
7.0193 -3.0608 -1.6187 0.9692
7.3102 -2.2802 -1.6187 0.9692
1.7207 -6.6689 -1.6187 0.9721
2.1997 -6.5266 -1.6187 0.9721
2.8957 -6.2490 -1.6187 0.9721
3.3412 -6.0226 -1.6187 0.9721
3.5575 -5.8975 -1.6187 0.9721
4.3729 -5.3209 -1.6187 0.9721
4.7472 -4.9899 -1.6187 0.9721
4.9251 -4.8144 -1.6187 0.9721
5.0965 -4.6325 -1.6187 0.9721
5.4189 -4.2508 -1.6187 0.9721
5.7129 -3.8468 -1.6187 0.9721
5.8486 -3.6370 -1.6187 0.9721
6.0969 -3.2034 -1.6187 0.9721
6.4088 -2.5221 -1.6187 0.9721
1.5620 -6.0535 -1.6187 0.9745
1.7805 -5.9928 -1.6187 0.9745
1.9967 -5.9243 -1.6187 0.9745
2.2103 -5.8480 -1.6187 0.9745
2.8325 -5.5732 -1.6187 0.9745
3.2291 -5.3532 -1.6187 0.9745
4.4706 -4.3701 -1.6187 0.9745
4.6262 -4.2050 -1.6187 0.9745
5.5343 -2.9078 -1.6187 0.9745
5.7305 -2.4989 -1.6187 0.9745
5.8966 -2.0768 -1.6187 0.9745
5.9680 -1.8615 -1.6187 0.9745
1.4286 -5.5366 -1.6187 0.9765
1.8262 -5.4184 -1.6187 0.9765
2.4040 -5.1879 -1.6187 0.9765
2.7738 -5.0000 -1.6187 0.9765
3.3006 -4.6690 -1.6187 0.9765
3.9411 -4.1426 -1.6187 0.9765
4.2311 -3.8459 -1.6187 0.9765
4.3678 -3.6899 -1.6187 0.9765
4.4988 -3.5291 -1.6187 0.9765
4.6239 -3.3635 -1.6187 0.9765
4.7428 -3.1936 -1.6187 0.9765
5.0617 -2.6595 -1.6187 0.9765
5.2412 -2.2855 -1.6187 0.9765
5.3931 -1.8995 -1.6187 0.9765
5.4584 -1.7026 -1.6187 0.9765
1.4988 -5.0448 -1.6187 0.9782
1.6808 -4.9871 -1.6187 0.9782
1.8606 -4.9228 -1.6187 0.9782
2.2127 -4.7750 -1.6187 0.9782
2.3844 -4.6915 -1.6187 0.9782
2.7183 -4.5063 -1.6187 0.9782
3.0378 -4.2974 -1.6187 0.9782
3.3414 -4.0658 -1.6187 0.9782
3.6274 -3.8128 -1.6187 0.9782
3.7633 -3.6787 -1.6187 0.9782
4.0201 -3.3962 -1.6187 0.9782
4.5669 -2.6151 -1.6187 0.9782
4.7445 -2.2772 -1.6187 0.9782
4.8239 -2.1035 -1.6187 0.9782
4.8971 -1.9271 -1.6187 0.9782
4.9638 -1.7482 -1.6187 0.9782
5.0239 -1.5670 -1.6187 0.9782
1.3869 -4.6680 -1.6187 0.9797
1.5553 -4.6146 -1.6187 0.9797
1.8858 -4.4897 -1.6187 0.9797
2.0474 -4.4183 -1.6187 0.9797
2.2063 -4.3411 -1.6187 0.9797
2.6649 -4.0757 -1.6187 0.9797
2.8109 -3.9764 -1.6187 0.9797
2.9533 -3.8718 -1.6187 0.9797
3.0918 -3.7621 -1.6187 0.9797
3.2263 -3.6475 -1.6187 0.9797
3.4823 -3.4040 -1.6187 0.9797
3.6034 -3.2754 -1.6187 0.9797
3.7199 -3.1425 -1.6187 0.9797
3.9379 -2.8646 -1.6187 0.9797
4.1353 -2.5715 -1.6187 0.9797
4.3108 -2.2649 -1.6187 0.9797
4.3901 -2.1071 -1.6187 0.9797
4.4637 -1.9464 -1.6187 0.9797
4.5313 -1.7832 -1.6187 0.9797
1.1309 -4.3829 -1.6187 0.9810
1.4457 -4.2894 -1.6187 0.9810
1.6003 -4.2341 -1.6187 0.9810
1.9031 -4.1069 -1.6187 0.9810
2.0508 -4.0352 -1.6187 0.9810
2.1959 -3.9581 -1.6187 0.9810
2.3380 -3.8759 -1.6187 0.9810
2.6129 -3.6962 -1.6187 0.9810
2.7452 -3.5989 -1.6187 0.9810
3.4577 -2.9211 -1.6187 0.9810
3.5614 -2.7937 -1.6187 0.9810
3.6604 -2.6627 -1.6187 0.9810
3.7546 -2.5282 -1.6187 0.9810
3.8438 -2.3903 -1.6187 0.9810
3.9280 -2.2493 -1.6187 0.9810
4.0808 -1.9586 -1.6187 0.9810
4.1491 -1.8093 -1.6187 0.9810
4.2120 -1.6575 -1.6187 0.9810
4.2694 -1.5037 -1.6187 0.9810
1.2030 -4.0490 -1.6187 0.9821
1.3491 -4.0027 -1.6187 0.9821
2.5617 -3.3584 -1.6187 0.9821
2.6819 -3.2633 -1.6187 0.9821
2.7985 -3.1639 -1.6187 0.9821
3.0205 -2.9526 -1.6187 0.9821
3.1257 -2.8411 -1.6187 0.9821
3.2266 -2.7259 -1.6187 0.9821
3.3234 -2.6070 -1.6187 0.9821
3.4158 -2.4847 -1.6187 0.9821
3.5037 -2.3592 -1.6187 0.9821
3.5870 -2.2305 -1.6187 0.9821
3.6655 -2.0990 -1.6187 0.9821
3.8080 -1.8277 -1.6187 0.9821
3.8718 -1.6883 -1.6187 0.9821
3.9305 -1.5468 -1.6187 0.9821
3.9840 -1.4032 -1.6187 0.9821
0.9881 -3.8296 -1.6187 0.9831
1.3983 -3.6996 -1.6187 0.9831
1.9186 -3.4585 -1.6187 0.9831
2.2830 -3.2295 -1.6187 0.9831
2.3986 -3.1446 -1.6187 0.9831
2.6203 -2.9624 -1.6187 0.9831
2.7261 -2.8654 -1.6187 0.9831
3.1118 -2.4410 -1.6187 0.9831
3.3586 -2.0885 -1.6187 0.9831
3.5012 -1.8395 -1.6187 0.9831
3.5656 -1.7113 -1.6187 0.9831
3.7304 -1.3139 -1.6187 0.9831
0.9279 -3.5964 -1.6187 0.9839
1.0578 -3.5603 -1.6187 0.9839
1.1863 -3.5196 -1.6187 0.9839
1.3131 -3.4743 -1.6187 0.9839
1.5616 -3.3699 -1.6187 0.9839
1.6828 -3.3111 -1.6187 0.9839
2.0325 -3.1087 -1.6187 0.9839
2.1440 -3.0329 -1.6187 0.9839
2.2526 -2.9531 -1.6187 0.9839
2.3582 -2.8695 -1.6187 0.9839
2.7484 -2.4982 -1.6187 0.9839
2.9223 -2.2924 -1.6187 0.9839
3.0035 -2.1849 -1.6187 0.9839
3.0808 -2.0745 -1.6187 0.9839
3.2231 -1.8456 -1.6187 0.9839
3.2879 -1.7275 -1.6187 0.9839
3.3484 -1.6071 -1.6187 0.9839
3.4045 -1.4846 -1.6187 0.9839
3.4561 -1.3601 -1.6187 0.9839
3.5032 -1.2338 -1.6187 0.9839
0.9959 -3.3522 -1.6187 0.9847
1.1169 -3.3138 -1.6187 0.9847
1.2364 -3.2711 -1.6187 0.9847
1.3542 -3.2241 -1.6187 0.9847
1.4703 -3.1729 -1.6187 0.9847
1.5844 -3.1174 -1.6187 0.9847
1.8062 -2.9944 -1.6187 0.9847
1.9137 -2.9269 -1.6187 0.9847
2.0186 -2.8555 -1.6187 0.9847
2.2203 -2.7017 -1.6187 0.9847
2.3169 -2.6193 -1.6187 0.9847
2.4103 -2.5336 -1.6187 0.9847
2.7514 -2.1583 -1.6187 0.9847
2.8279 -2.0571 -1.6187 0.9847
2.9007 -1.9532 -1.6187 0.9847
3.0346 -1.7377 -1.6187 0.9847
3.0957 -1.6265 -1.6187 0.9847
3.1526 -1.5131 -1.6187 0.9847
3.2540 -1.2805 -1.6187 0.9847
3.2983 -1.1617 -1.6187 0.9847
3.3383 -1.0413 -1.6187 0.9847
0.8245 -3.1953 -1.6187 0.9854
0.9398 -3.1633 -1.6187 0.9854
1.1667 -3.0868 -1.6187 0.9854
1.2779 -3.0425 -1.6187 0.9854
1.3874 -2.9941 -1.6187 0.9854
1.6009 -2.8856 -1.6187 0.9854
1.7045 -2.8257 -1.6187 0.9854
1.8059 -2.7620 -1.6187 0.9854
2.0014 -2.6238 -1.6187 0.9854
2.0952 -2.5494 -1.6187 0.9854
2.1863 -2.4717 -1.6187 0.9854
2.2745 -2.3908 -1.6187 0.9854
2.4419 -2.2196 -1.6187 0.9854
2.5208 -2.1296 -1.6187 0.9854
2.5964 -2.0367 -1.6187 0.9854
2.6686 -1.9412 -1.6187 0.9854
2.8023 -1.7426 -1.6187 0.9854
2.8637 -1.6398 -1.6187 0.9854
2.9750 -1.4279 -1.6187 0.9854
3.0248 -1.3190 -1.6187 0.9854
0.8886 -2.9910 -1.6187 0.9860
0.9965 -2.9568 -1.6187 0.9860
1.2083 -2.8767 -1.6187 0.9860
1.3119 -2.8310 -1.6187 0.9860
1.4137 -2.7816 -1.6187 0.9860
1.5137 -2.7284 -1.6187 0.9860
1.6116 -2.6717 -1.6187 0.9860
1.8011 -2.5479 -1.6187 0.9860
1.9811 -2.4106 -1.6187 0.9860
2.0672 -2.3371 -1.6187 0.9860
2.3835 -2.0136 -1.6187 0.9860
2.7077 -1.5505 -1.6187 0.9860
2.7621 -1.4513 -1.6187 0.9860
2.8130 -1.3501 -1.6187 0.9860
2.9034 -1.1426 -1.6187 0.9860
2.9430 -1.0365 -1.6187 0.9860
2.9787 -0.9291 -1.6187 0.9860
0.8417 -2.8330 -1.6187 0.9866
1.2426 -2.6815 -1.6187 0.9866
1.3391 -2.6347 -1.6187 0.9866
1.8765 -2.2833 -1.6187 0.9866
1.9581 -2.2137 -1.6187 0.9866
2.1134 -2.0659 -1.6187 0.9866
2.1869 -1.9879 -1.6187 0.9866
2.4515 -1.6507 -1.6187 0.9866
2.6644 -1.2788 -1.6187 0.9866
2.7501 -1.0823 -1.6187 0.9866
2.7876 -0.9818 -1.6187 0.9866
0.7005 -2.7147 -1.6187 0.9871
0.7985 -2.6876 -1.6187 0.9871
1.0857 -2.5849 -1.6187 0.9871
1.1788 -2.5438 -1.6187 0.9871
1.3601 -2.4517 -1.6187 0.9871
1.4482 -2.4007 -1.6187 0.9871
1.7801 -2.1660 -1.6187 0.9871
1.8575 -2.1000 -1.6187 0.9871
1.9325 -2.0313 -1.6187 0.9871
2.0747 -1.8858 -1.6187 0.9871
2.1417 -1.8093 -1.6187 0.9871
2.3256 -1.5659 -1.6187 0.9871
2.4330 -1.3932 -1.6187 0.9871
2.5276 -1.2131 -1.6187 0.9871
2.5699 -1.1206 -1.6187 0.9871
2.6444 -0.9314 -1.6187 0.9871
2.6765 -0.8348 -1.6187 0.9871
