ply
format ascii 1.0
element vertex 340
property float32 x
property float32 y
property float32 z
property float32 I
end_header
27.7555 -19.5951 2.8761 0.8725
27.3920 -20.8392 2.1343 0.8712
27.8741 -19.6788 1.3454 0.8723
27.8741 -19.6788 0.5764 0.8724
27.8741 -19.6788 -0.1921 0.8724
12.5855 -11.8961 -0.4876 0.9330
12.6941 -11.1700 -0.4761 0.9346
27.8741 -19.6788 -0.9608 0.8724
12.7699 -11.2367 -0.8626 0.9341
13.9851 -10.6396 -0.8912 0.9320
25.9652 -13.2621 -1.4786 0.8898
26.3879 -12.3133 -1.4768 0.8899
26.7758 -11.3511 -1.4749 0.8900
27.1279 -10.3766 -1.4730 0.8902
27.4490 -9.3930 -1.4713 0.8903
27.7306 -8.3985 -1.4694 0.8904
27.9734 -7.3952 -1.4674 0.8906
28.3935 -5.3781 -1.4656 0.8907
28.8051 -2.3183 -1.4656 0.8907
28.8695 -1.2908 -1.4656 0.8907
28.8971 -0.2616 -1.4656 0.8907
29.0131 3.8952 -1.4846 0.8894
29.8358 5.0935 -1.5350 0.8858
30.6507 6.3639 -1.5876 0.8822
12.6156 -11.9246 -1.2728 0.9327
12.7923 -11.2564 -1.2494 0.9339
13.8765 -10.5569 -1.2784 0.9325
14.0872 -9.9454 -1.2644 0.9332
17.4685 -9.7219 -1.4658 0.9229
17.8036 -9.0935 -1.4658 0.9229
18.9144 -6.4725 -1.4658 0.9230
19.4514 -5.8911 -1.4902 0.9217
20.1613 -5.3299 -1.5291 0.9198
21.5897 -4.0894 -1.6111 0.9156
21.8157 -3.3321 -1.6181 0.9153
21.9205 -2.5529 -1.6181 0.9153
21.9975 -1.7704 -1.6181 0.9153
22.0466 -0.9857 -1.6181 0.9153
22.0261 1.3719 -1.6181 0.9153
21.8725 2.9366 -1.6181 0.9153
21.7541 3.7138 -1.6181 0.9153
11.3820 -10.7586 -1.5036 0.9390
12.4801 -10.2164 -1.5484 0.9372
13.6204 -9.6159 -1.6007 0.9352
14.4192 -8.7116 -1.6173 0.9345
15.5193 -6.5791 -1.6183 0.9345
16.1324 -4.8859 -1.6183 0.9345
16.5615 -3.1370 -1.6183 0.9345
16.6627 -2.5450 -1.6183 0.9345
16.8391 -0.7529 -1.6183 0.9345
16.8500 0.4479 -1.6183 0.9345
16.7754 1.6464 -1.6183 0.9345
16.6157 2.8366 -1.6183 0.9345
16.5041 3.4267 -1.6183 0.9345
10.2285 -9.0004 -1.6184 0.9466
10.8432 -8.2493 -1.6184 0.9466
11.6613 -7.0454 -1.6184 0.9466
11.9048 -6.6255 -1.6184 0.9466
12.3462 -5.7611 -1.6184 0.9466
12.7250 -4.8674 -1.6184 0.9466
13.0392 -3.9491 -1.6183 0.9466
13.1715 -3.4821 -1.6183 0.9466
13.2872 -3.0107 -1.6183 0.9466
13.4678 -2.0570 -1.6183 0.9466
13.6104 -0.6085 -1.6183 0.9466
13.6192 0.3620 -1.6183 0.9466
13.5976 0.8469 -1.6183 0.9466
13.5588 1.3307 -1.6183 0.9466
13.3396 2.7696 -1.6183 0.9466
8.3011 -7.8464 -1.6185 0.9549
8.5753 -7.5458 -1.6185 0.9549
9.0907 -6.9160 -1.6184 0.9549
9.3313 -6.5878 -1.6184 0.9549
9.5600 -6.2512 -1.6184 0.9549
10.5163 -4.4582 -1.6184 0.9549
10.8070 -3.6981 -1.6184 0.9549
11.0428 -2.9193 -1.6184 0.9549
11.1398 -2.5241 -1.6184 0.9549
11.3454 -1.3213 -1.6184 0.9549
11.4216 -0.1034 -1.6184 0.9549
11.4181 0.3035 -1.6184 0.9549
11.4000 0.7100 -1.6184 0.9549
11.3675 1.1157 -1.6184 0.9549
11.2593 1.9222 -1.6184 0.9549
7.3756 -6.4901 -1.6185 0.9610
7.6021 -6.2232 -1.6185 0.9610
7.8189 -5.9485 -1.6185 0.9610
8.2226 -5.3767 -1.6185 0.9610
8.5845 -4.7776 -1.6185 0.9610
8.7492 -4.4688 -1.6185 0.9610
9.0451 -3.8345 -1.6184 0.9610
9.4025 -2.8476 -1.6184 0.9610
9.4979 -2.5109 -1.6184 0.9610
9.6526 -1.8283 -1.6184 0.9610
9.8052 0.6107 -1.6184 0.9610
9.6841 1.6533 -1.6184 0.9610
9.6191 1.9972 -1.6184 0.9610
6.2578 -5.9150 -1.6185 0.9656
6.4645 -5.6884 -1.6185 0.9656
6.6630 -5.4545 -1.6185 0.9656
6.8530 -5.2137 -1.6185 0.9656
7.3701 -4.4528 -1.6185 0.9656
7.8030 -3.6411 -1.6185 0.9656
7.9277 -3.3608 -1.6185 0.9656
8.0424 -3.0763 -1.6185 0.9656
8.1469 -2.7878 -1.6185 0.9656
8.2410 -2.4959 -1.6185 0.9656
8.3978 -1.9028 -1.6185 0.9656
8.5119 -1.3001 -1.6185 0.9656
8.5528 -0.9961 -1.6185 0.9656
8.5829 -0.6908 -1.6185 0.9656
8.5784 -0.0777 -1.6125 0.9657
8.5940 0.5353 -1.6185 0.9656
8.5695 0.8410 -1.6185 0.9656
8.4879 1.4490 -1.6185 0.9656
8.4309 1.7505 -1.6185 0.9656
6.5536 -3.9595 -1.6185 0.9692
6.9386 -3.2377 -1.6185 0.9692
7.1515 -2.7355 -1.6185 0.9692
7.2444 -2.4790 -1.6185 0.9692
7.3281 -2.2194 -1.6185 0.9692
7.5690 -1.1561 -1.6185 0.9692
7.6054 -0.8857 -1.6185 0.9692
7.6491 -0.3420 -1.6185 0.9692
7.6564 -0.0693 -1.6185 0.9692
7.6541 0.2035 -1.6185 0.9692
7.6202 0.7479 -1.6185 0.9692
7.4969 1.5565 -1.6185 0.9692
5.3289 -4.3623 -1.6185 0.9721
5.4809 -4.1697 -1.6185 0.9721
5.8944 -3.5612 -1.6185 0.9721
6.0175 -3.3490 -1.6185 0.9721
6.1330 -3.1325 -1.6185 0.9721
6.2406 -2.9120 -1.6185 0.9721
6.4321 -2.4603 -1.6185 0.9721
6.7163 -1.5218 -1.6185 0.9721
6.8076 -1.0398 -1.6185 0.9721
6.8403 -0.7966 -1.6185 0.9721
6.8797 -0.3076 -1.6185 0.9721
6.8863 -0.0624 -1.6185 0.9721
6.8537 0.6726 -1.6185 0.9721
6.7884 1.1589 -1.6185 0.9721
6.7428 1.4000 -1.6185 0.9721
4.8371 -3.9598 -1.6186 0.9745
4.9751 -3.7850 -1.6185 0.9745
5.1068 -3.6053 -1.6185 0.9745
5.2319 -3.4211 -1.6185 0.9745
5.3505 -3.2326 -1.6185 0.9745
5.5670 -2.8434 -1.6185 0.9745
5.9144 -2.0239 -1.6185 0.9745
5.9827 -1.8119 -1.6185 0.9745
6.0435 -1.5977 -1.6185 0.9745
6.0966 -1.3814 -1.6185 0.9745
6.1794 -0.9438 -1.6185 0.9745
6.2091 -0.7231 -1.6185 0.9745
6.2449 -0.2792 -1.6185 0.9745
6.2489 0.1661 -1.6185 0.9745
6.2212 0.6106 -1.6185 0.9745
6.1955 0.8318 -1.6185 0.9745
6.1206 1.2708 -1.6185 0.9745
4.1550 -3.9275 -1.6186 0.9765
4.2923 -3.7769 -1.6186 0.9765
4.4241 -3.6217 -1.6186 0.9765
4.6707 -3.2975 -1.6186 0.9765
4.8936 -2.9566 -1.6186 0.9765
4.9958 -2.7804 -1.6185 0.9765
5.0917 -2.6006 -1.6185 0.9765
5.2639 -2.2315 -1.6185 0.9765
5.3400 -2.0426 -1.6185 0.9765
5.5274 -1.4613 -1.6185 0.9765
5.6174 -1.0640 -1.6185 0.9765
5.6789 -0.6614 -1.6185 0.9765
5.7063 0.3554 -1.6185 0.9765
5.6900 0.5584 -1.6185 0.9765
5.6665 0.7608 -1.6185 0.9765
4.2989 -3.0350 -1.6186 0.9782
4.5041 -2.7212 -1.6186 0.9782
4.5981 -2.5590 -1.6186 0.9782
4.6863 -2.3936 -1.6186 0.9782
4.8449 -2.0539 -1.6186 0.9782
4.9150 -1.8800 -1.6186 0.9782
4.9788 -1.7037 -1.6185 0.9782
5.0363 -1.5253 -1.6185 0.9782
5.1703 -0.9793 -1.6185 0.9782
5.2019 -0.7945 -1.6185 0.9782
5.2453 -0.4221 -1.6185 0.9782
5.2570 -0.2351 -1.6185 0.9782
5.2620 -0.0476 -1.6185 0.9782
5.2520 0.3271 -1.6185 0.9782
5.1523 1.0698 -1.6185 0.9782
3.5387 -3.3448 -1.6186 0.9797
3.6556 -3.2167 -1.6186 0.9797
4.0753 -2.6648 -1.6186 0.9797
4.3363 -2.2149 -1.6186 0.9797
4.4830 -1.9005 -1.6186 0.9797
4.5479 -1.7396 -1.6186 0.9797
4.6070 -1.5765 -1.6186 0.9797
4.6602 -1.4114 -1.6186 0.9797
4.8365 -0.5633 -1.6186 0.9797
4.8643 -0.2175 -1.6186 0.9797
4.8690 -0.0441 -1.6186 0.9797
4.8459 0.4756 -1.6186 0.9797
4.8259 0.6479 -1.6186 0.9797
3.5023 -2.8670 -1.6186 0.9810
3.6022 -2.7405 -1.6186 0.9810
3.7882 -2.4771 -1.6186 0.9810
3.8740 -2.3405 -1.6186 0.9810
3.9549 -2.2010 -1.6186 0.9810
4.2823 -1.4654 -1.6186 0.9810
4.3318 -1.3119 -1.6186 0.9810
4.4957 -0.5236 -1.6186 0.9810
4.5115 -0.3631 -1.6186 0.9810
4.5216 -0.2022 -1.6186 0.9810
4.5259 -0.0410 -1.6186 0.9810
4.5245 0.1203 -1.6186 0.9810
4.5173 0.2814 -1.6186 0.9810
4.5044 0.4421 -1.6186 0.9810
4.4858 0.6023 -1.6186 0.9810
4.4616 0.7617 -1.6186 0.9810
4.4316 0.9201 -1.6186 0.9810
3.0695 -2.9014 -1.6186 0.9821
3.1709 -2.7902 -1.6186 0.9821
3.2683 -2.6755 -1.6186 0.9821
3.6151 -2.1841 -1.6186 0.9821
3.8275 -1.7860 -1.6186 0.9821
3.9961 -1.3675 -1.6186 0.9821
4.0423 -1.2243 -1.6186 0.9821
4.1499 -0.7860 -1.6186 0.9821
4.2234 -0.0382 -1.6186 0.9821
4.2155 0.2625 -1.6186 0.9821
4.1861 0.5620 -1.6186 0.9821
2.8741 -2.7166 -1.6186 0.9831
3.0602 -2.5051 -1.6186 0.9831
3.3100 -2.1643 -1.6186 0.9831
3.4557 -1.9232 -1.6186 0.9831
3.5838 -1.6723 -1.6186 0.9831
3.6411 -1.5436 -1.6186 0.9831
3.7417 -1.2804 -1.6186 0.9831
3.8234 -1.0108 -1.6186 0.9831
3.8570 -0.8739 -1.6186 0.9831
3.9094 -0.5971 -1.6186 0.9831
3.9420 -0.3173 -1.6186 0.9831
3.9546 -0.0358 -1.6186 0.9831
3.9533 0.1051 -1.6186 0.9831
3.9471 0.2458 -1.6186 0.9831
3.9358 0.3863 -1.6186 0.9831
3.9196 0.5262 -1.6186 0.9831
2.6991 -2.5512 -1.6186 0.9839
2.9558 -2.2487 -1.6186 0.9839
3.1788 -1.9205 -1.6186 0.9839
3.2452 -1.8061 -1.6186 0.9839
3.3075 -1.6893 -1.6186 0.9839
3.3655 -1.5704 -1.6186 0.9839
3.4688 -1.3269 -1.6186 0.9839
3.5139 -1.2024 -1.6186 0.9839
3.5906 -0.9492 -1.6186 0.9839
3.6713 -0.5608 -1.6186 0.9839
3.7019 -0.2979 -1.6186 0.9839
3.7138 -0.0336 -1.6186 0.9839
3.6962 0.3628 -1.6186 0.9839
3.6809 0.4942 -1.6186 0.9839
3.6610 0.6250 -1.6186 0.9839
2.5412 -2.4020 -1.6186 0.9847
2.6252 -2.3100 -1.6186 0.9847
2.7058 -2.2150 -1.6186 0.9847
2.9266 -1.9137 -1.6186 0.9847
2.9929 -1.8082 -1.6186 0.9847
3.0554 -1.7005 -1.6186 0.9847
3.1688 -1.4786 -1.6186 0.9847
3.3466 -1.0136 -1.6186 0.9847
3.4855 -0.2805 -1.6186 0.9847
3.4933 -0.1562 -1.6186 0.9847
3.4966 -0.0316 -1.6186 0.9847
3.4900 0.2174 -1.6186 0.9847
3.4657 0.4653 -1.6186 0.9847
3.4237 0.7109 -1.6186 0.9847
2.5533 -2.0902 -1.6186 0.9854
2.6957 -1.9031 -1.6186 0.9854
2.7618 -1.8059 -1.6186 0.9854
2.9386 -1.5009 -1.6186 0.9854
3.0380 -1.2879 -1.6186 0.9854
3.0820 -1.1789 -1.6186 0.9854
3.1901 -0.8434 -1.6186 0.9854
3.2619 -0.4982 -1.6186 0.9854
3.2776 -0.3817 -1.6186 0.9854
3.2964 -0.1474 -1.6186 0.9854
3.2996 -0.0299 -1.6186 0.9854
3.2840 0.3223 -1.6186 0.9854
3.2704 0.4391 -1.6186 0.9854
3.2527 0.5553 -1.6186 0.9854
3.2308 0.6708 -1.6186 0.9854
2.4831 -1.8891 -1.6186 0.9860
2.5488 -1.7995 -1.6186 0.9860
2.6113 -1.7075 -1.6186 0.9860
2.7263 -1.5173 -1.6186 0.9860
2.7786 -1.4192 -1.6186 0.9860
2.9520 -1.0102 -1.6186 0.9860
3.0164 -0.7974 -1.6186 0.9860
3.0429 -0.6895 -1.6186 0.9860
3.0655 -0.5806 -1.6186 0.9860
3.0843 -0.4711 -1.6186 0.9860
3.0991 -0.3609 -1.6186 0.9860
3.1100 -0.2503 -1.6186 0.9860
3.1169 -0.1394 -1.6186 0.9860
3.1189 0.0829 -1.6186 0.9860
3.1051 0.3048 -1.6186 0.9860
3.0923 0.4152 -1.6186 0.9860
3.0755 0.5250 -1.6186 0.9860
3.0549 0.6343 -1.6186 0.9860
2.3520 -1.7893 -1.6186 0.9866
2.4734 -1.6173 -1.6186 0.9866
2.5295 -1.5282 -1.6186 0.9866
2.5823 -1.4371 -1.6186 0.9866
2.6318 -1.3442 -1.6186 0.9866
2.6780 -1.2496 -1.6186 0.9866
2.7602 -1.0558 -1.6186 0.9866
2.7961 -0.9568 -1.6186 0.9866
2.8284 -0.8566 -1.6186 0.9866
2.8571 -0.7553 -1.6186 0.9866
2.9354 -0.3419 -1.6186 0.9866
2.9411 0.2887 -1.6186 0.9866
2.9290 0.3932 -1.6186 0.9866
2.1694 -1.7759 -1.6186 0.9871
2.2312 -1.6975 -1.6186 0.9871
2.2903 -1.6169 -1.6186 0.9871
2.3464 -1.5343 -1.6186 0.9871
2.3996 -1.4498 -1.6186 0.9871
2.4967 -1.2752 -1.6186 0.9871
2.5405 -1.1855 -1.6186 0.9871
2.5811 -1.0942 -1.6186 0.9871
2.6185 -1.0016 -1.6186 0.9871
2.7104 -0.7165 -1.6186 0.9871
2.7342 -0.6195 -1.6186 0.9871
2.7714 -0.4233 -1.6186 0.9871
2.7847 -0.3243 -1.6186 0.9871
2.7945 -0.2249 -1.6186 0.9871
2.8007 -0.1252 -1.6186 0.9871
2.8034 -0.0254 -1.6186 0.9871
2.7901 0.2738 -1.6186 0.9871
2.7786 0.3730 -1.6186 0.9871
