ply
format ascii 1.0
element vertex 479
property float32 x
property float32 y
property float32 z
property float32 I
end_header
-5.9245 44.3508 7.8897 0.8338
-7.7808 37.5570 6.7629 0.8557
-8.5349 30.1610 5.5270 0.8805
-9.6187 29.8722 5.5336 0.8803
-9.5358 26.3477 4.9407 0.8924
-10.0872 25.0371 4.7595 0.8962
-11.0377 24.8003 4.7865 0.8956
-11.6016 23.7448 4.6599 0.8982
-11.9402 22.3734 4.4717 0.9021
-12.2906 21.1719 4.3166 0.9054
-12.6057 20.0302 4.1731 0.9083
-13.0386 15.3336 3.5490 0.9215
-8.5168 34.7989 5.4883 0.8650
-9.6279 29.9008 4.8122 0.8806
-9.5137 26.2868 4.2826 0.8930
-10.0940 25.0540 4.1379 0.8965
-12.8641 18.9065 3.5032 0.9116
-13.2726 16.7895 3.2787 0.9170
-13.7460 16.1655 3.2507 0.9177
-4.7519 48.8077 6.3858 0.8205
-5.9245 44.3508 5.8267 0.8349
-6.7277 39.5391 5.2228 0.8506
-7.7808 37.5569 4.9945 0.8567
-11.6019 23.7453 3.4415 0.8989
-11.9526 22.3965 3.3058 0.9027
-12.2907 21.1720 3.1879 0.9060
-12.6059 20.0304 3.0819 0.9089
-13.4569 17.0226 2.8257 0.9162
-13.7459 16.1655 2.7632 0.9180
-4.7501 48.7893 5.2638 0.8210
-5.9245 44.3507 4.8048 0.8353
-6.6899 39.3171 4.2826 0.8518
-8.5168 34.7989 3.8471 0.8658
-8.5947 30.3722 3.3895 0.8807
-10.3297 28.5413 3.2594 0.8851
-11.2061 25.1787 2.9594 0.8951
-9.9651 18.6724 2.2728 0.9184
-12.2907 21.1720 2.6288 0.9062
-10.7277 15.7666 2.0478 0.9261
-13.6445 17.2599 2.3626 0.9153
-13.7459 16.1655 2.2786 0.9182
-5.4661 40.9196 3.4947 0.8473
-7.7809 37.5574 3.2469 0.8573
-9.8034 30.4459 2.7076 0.8795
-10.6528 29.4341 2.6498 0.8819
-8.9453 22.2028 2.0263 0.9084
-11.2060 25.1786 2.3330 0.8953
-12.0110 24.5827 2.3161 0.8960
-9.9575 18.6582 1.7903 0.9186
-12.7000 20.1800 2.0184 0.9087
-13.2321 18.0268 1.8930 0.9141
-13.6446 17.2599 1.8625 0.9155
-4.7609 48.9001 3.0466 0.8213
-5.9246 44.3513 2.7747 0.8358
-6.9651 40.9345 2.5748 0.8467
-6.4670 31.2155 1.9768 0.8801
-8.5170 34.7994 2.2216 0.8663
-9.2168 32.5707 2.0990 0.8731
-12.4383 21.4263 1.5363 0.9055
-12.7000 20.1800 1.4785 0.9089
-12.9011 18.9609 1.4221 0.9122
-13.2321 18.0268 1.3867 0.9143
-13.6676 17.2891 1.3666 0.9155
-13.7459 16.1655 1.3158 0.9185
-7.0089 41.1919 1.6476 0.8460
-6.4670 31.2155 1.2570 0.8802
-8.5170 34.7994 1.4127 0.8664
-10.6528 29.4341 1.2343 0.8822
-9.5296 19.5039 0.8560 0.9168
-9.7735 18.3134 0.8185 0.9203
-10.3737 16.4836 0.7680 0.9250
-11.2080 13.1809 0.6822 0.9331
-4.7184 48.4636 0.8225 0.8230
-5.9246 44.3513 0.7558 0.8361
-5.6689 33.3167 0.5709 0.8735
-6.3773 30.7824 0.5310 0.8818
-6.9938 28.5763 0.4970 0.8890
-7.5368 26.6338 0.4676 0.8952
-7.9721 24.7585 0.4394 0.9012
-8.8449 21.9535 0.3998 0.9097
-9.2020 20.6758 0.3823 0.9134
-10.3737 16.4836 0.3290 0.9250
-11.0678 14.0004 0.3015 0.9311
-5.9280 44.3770 -0.2521 0.8360
-5.6690 33.3167 -0.1903 0.8736
-6.3773 30.7824 -0.1770 0.8818
-6.9938 28.5763 -0.1656 0.8890
-7.5368 26.6338 -0.1558 0.8952
-8.8449 21.9535 -0.1333 0.9097
-9.2020 20.6758 -0.1274 0.9135
-9.5296 19.5039 -0.1222 0.9168
-9.7735 18.3134 -0.1169 0.9203
-10.1122 17.4194 -0.1134 0.9226
-10.3737 16.4836 -0.1097 0.9251
-10.6188 15.6066 -0.1063 0.9273
-10.8496 14.7810 -0.1032 0.9293
-11.2080 13.1809 -0.0974 0.9331
-4.0568 41.6679 -1.1788 0.8458
-5.1080 38.2385 -1.0863 0.8570
-6.3773 30.7824 -0.8852 0.8818
-6.9938 28.5763 -0.8284 0.8889
-7.5368 26.6338 -0.7794 0.8952
-8.4529 23.3558 -0.6994 0.9054
-8.8449 21.9535 -0.6664 0.9096
-9.7735 18.3134 -0.5845 0.9203
-11.2080 13.1808 -0.4872 0.9331
9.4198 27.3349 -1.4663 0.8907
8.4370 27.6542 -1.4663 0.8907
6.4403 28.1864 -1.4663 0.8907
5.4290 28.3987 -1.4663 0.8907
3.3868 28.7143 -1.4663 0.8907
1.3272 28.8832 -1.4663 0.8907
0.2942 28.9123 -1.4663 0.8906
-1.7718 28.8598 -1.4664 0.8906
-2.8018 28.7782 -1.4664 0.8906
-4.8502 28.5048 -1.4664 0.8906
-5.8657 28.3134 -1.4664 0.8906
-6.8738 28.0859 -1.4664 0.8906
-7.9721 24.7585 -1.3191 0.9011
-8.4529 23.3558 -1.2597 0.9053
-8.8449 21.9535 -1.2003 0.9096
-10.3737 16.4836 -0.9877 0.9250
-10.6188 15.6066 -0.9573 0.9272
-10.8496 14.7810 -0.9299 0.9292
-11.2080 13.1809 -0.8774 0.9331
4.4546 19.4956 -1.4663 0.9229
3.7550 19.6424 -1.4663 0.9229
3.0507 19.7641 -1.4663 0.9229
1.6313 19.9317 -1.4663 0.9229
0.2035 19.9974 -1.4663 0.9229
-1.2254 19.9610 -1.4663 0.9229
-3.3546 19.7155 -1.4664 0.9229
-4.0570 19.5830 -1.4664 0.9229
-5.4454 19.2434 -1.4664 0.9229
-7.4737 18.5502 -1.4664 0.9229
-8.1319 18.2714 -1.4664 0.9229
-8.7797 17.9692 -1.4664 0.9229
-9.4162 17.6440 -1.4664 0.9229
-10.0408 17.2963 -1.4664 0.9229
-10.3737 16.4836 -1.4280 0.9249
-10.6188 15.6066 -1.3841 0.9271
-10.8496 14.7810 -1.3444 0.9291
5.4889 14.2527 -1.4663 0.9405
4.4569 14.6084 -1.4663 0.9405
2.3299 15.0945 -1.4663 0.9405
-0.3905 15.2685 -1.4663 0.9405
-3.0985 14.9561 -1.4663 0.9405
-5.1980 14.3622 -1.4664 0.9405
-7.1914 13.4751 -1.4664 0.9405
-7.6684 13.2096 -1.4664 0.9405
-9.0381 12.3131 -1.4664 0.9405
-9.4724 11.9822 -1.4664 0.9405
-9.8945 11.6361 -1.4664 0.9405
4.0217 11.6705 -1.4663 0.9515
2.7496 12.0340 -1.4663 0.9515
2.3178 12.1246 -1.4663 0.9515
0.5666 12.3312 -1.4663 0.9515
-0.7564 12.3211 -1.4663 0.9515
-1.1962 12.2862 -1.4663 0.9515
-1.6345 12.2357 -1.4663 0.9515
-2.0707 12.1695 -1.4663 0.9515
-2.9346 11.9905 -1.4663 0.9515
-3.3612 11.8780 -1.4663 0.9515
-3.7836 11.7504 -1.4664 0.9515
-5.4193 11.0915 -1.4664 0.9515
-6.1976 10.6761 -1.4664 0.9515
-6.9444 10.2062 -1.4664 0.9515
-7.3047 9.9515 -1.4664 0.9515
-7.6557 9.6842 -1.4664 0.9515
-7.9968 9.4044 -1.4664 0.9515
3.0199 9.8983 -1.4663 0.9591
2.6642 9.9999 -1.4663 0.9591
2.3052 10.0887 -1.4663 0.9591
1.5787 10.2276 -1.4663 0.9591
0.8442 10.3143 -1.4663 0.9591
0.4750 10.3379 -1.4663 0.9591
0.1053 10.3483 -1.4663 0.9591
-0.2646 10.3455 -1.4663 0.9591
-0.6341 10.3295 -1.4663 0.9591
-1.0028 10.3002 -1.4663 0.9591
-1.7360 10.2023 -1.4663 0.9591
-2.0994 10.1338 -1.4663 0.9591
-2.4602 10.0523 -1.4663 0.9591
-2.8179 9.9580 -1.4663 0.9591
-3.1719 9.8509 -1.4663 0.9591
-3.5220 9.7313 -1.4663 0.9591
-4.5432 9.2985 -1.4664 0.9591
-4.8726 9.1303 -1.4664 0.9591
-6.1239 8.3429 -1.4664 0.9591
-6.7041 7.8842 -1.4664 0.9591
2.8999 8.4151 -1.4663 0.9646
2.2915 8.6007 -1.4663 0.9646
1.9826 8.6772 -1.4663 0.9646
1.6713 8.7425 -1.4663 0.9646
0.0906 8.9004 -1.4663 0.9646
-0.2275 8.8980 -1.4663 0.9646
-0.5454 8.8842 -1.4663 0.9646
-1.1785 8.8226 -1.4663 0.9646
-1.4931 8.7748 -1.4663 0.9646
-1.8057 8.7159 -1.4663 0.9646
-2.1160 8.6458 -1.4663 0.9646
-2.4236 8.5647 -1.4663 0.9646
-2.7281 8.4726 -1.4663 0.9646
-3.0292 8.3697 -1.4663 0.9646
-3.3263 8.2561 -1.4663 0.9646
-3.6192 8.1320 -1.4663 0.9646
-3.9075 7.9975 -1.4663 0.9646
-4.4688 7.6980 -1.4664 0.9646
-4.7410 7.5333 -1.4664 0.9646
-5.2670 7.1755 -1.4664 0.9646
2.8036 7.2799 -1.4663 0.9687
2.0084 7.5382 -1.4663 0.9687
1.7377 7.6051 -1.4663 0.9687
1.4648 7.6624 -1.4663 0.9687
1.1901 7.7098 -1.4663 0.9687
0.3581 7.7930 -1.4663 0.9687
-0.7559 7.7645 -1.4663 0.9687
-1.3086 7.6907 -1.4663 0.9687
-1.5826 7.6391 -1.4663 0.9687
-1.8546 7.5776 -1.4663 0.9687
-2.1242 7.5065 -1.4663 0.9687
-2.3911 7.4258 -1.4663 0.9687
-3.1721 7.1273 -1.4663 0.9687
-3.4248 7.0094 -1.4663 0.9687
-4.6163 6.2890 -1.4664 0.9687
-5.0537 5.9432 -1.4664 0.9687
2.2600 6.5583 -1.4663 0.9720
2.0242 6.6349 -1.4663 0.9720
1.5452 6.7626 -1.4663 0.9720
0.8126 6.8891 -1.4663 0.9720
0.5658 6.9137 -1.4663 0.9720
0.3184 6.9296 -1.4663 0.9720
0.0706 6.9365 -1.4663 0.9720
-0.1773 6.9346 -1.4663 0.9720
-0.4250 6.9239 -1.4663 0.9720
-0.9185 6.8758 -1.4663 0.9720
-1.1636 6.8386 -1.4663 0.9720
-2.1262 6.6031 -1.4663 0.9720
-2.3608 6.5229 -1.4663 0.9720
-2.5923 6.4344 -1.4663 0.9720
-3.0453 6.2328 -1.4663 0.9720
-3.2661 6.1200 -1.4663 0.9720
-3.4827 5.9994 -1.4663 0.9720
-3.6949 5.8711 -1.4663 0.9720
-3.9023 5.7353 -1.4663 0.9720
-4.1048 5.5922 -1.4663 0.9720
-4.3021 5.4420 -1.4663 0.9720
-4.4938 5.2847 -1.4663 0.9720
2.0327 5.8986 -1.4663 0.9747
1.6062 6.0287 -1.4663 0.9747
1.1715 6.1280 -1.4663 0.9747
0.7308 6.1961 -1.4663 0.9747
0.5089 6.2182 -1.4663 0.9747
0.2864 6.2325 -1.4663 0.9747
0.0635 6.2387 -1.4663 0.9747
-0.1595 6.2370 -1.4663 0.9747
-0.3823 6.2273 -1.4663 0.9747
-0.6046 6.2097 -1.4663 0.9747
-0.8261 6.1841 -1.4663 0.9747
-1.0465 6.1507 -1.4663 0.9747
-1.4832 6.0602 -1.4663 0.9747
-1.6988 6.0033 -1.4663 0.9747
-1.9123 5.9388 -1.4663 0.9747
-2.5369 5.7001 -1.4663 0.9747
-2.7390 5.6058 -1.4663 0.9747
-3.1324 5.3958 -1.4663 0.9747
-3.5098 5.1583 -1.4663 0.9747
-3.6919 5.0296 -1.4663 0.9747
-3.8692 4.8945 -1.4663 0.9747
-4.0417 4.7531 -1.4663 0.9747
2.2375 5.8100 -1.6120 0.9746
1.9889 5.7714 -1.5806 0.9751
1.7301 5.6709 -1.5351 0.9758
1.0634 5.5625 -1.4663 0.9769
0.8639 5.5970 -1.4663 0.9769
0.6634 5.6242 -1.4663 0.9769
0.4620 5.6444 -1.4663 0.9769
0.0576 5.6630 -1.4663 0.9769
-0.1448 5.6614 -1.4663 0.9769
-0.3470 5.6526 -1.4663 0.9769
-1.3463 5.5009 -1.4663 0.9769
-1.5420 5.4493 -1.4663 0.9769
-1.7358 5.3907 -1.4663 0.9769
-1.9273 5.3253 -1.4663 0.9769
-2.4862 5.0884 -1.4663 0.9769
-2.6664 4.9963 -1.4663 0.9769
-3.0165 4.7931 -1.4663 0.9769
-3.1858 4.6823 -1.4663 0.9769
-3.6687 4.3144 -1.4663 0.9769
2.0543 5.3344 -1.6182 0.9765
1.6635 5.4525 -1.6138 0.9766
1.4657 5.5015 -1.6118 0.9766
1.2491 5.4666 -1.5874 0.9770
1.0304 5.3899 -1.5535 0.9774
0.2377 5.1742 -1.4663 0.9787
0.0527 5.1794 -1.4663 0.9787
-0.6858 5.1340 -1.4663 0.9787
-1.4104 4.9840 -1.4663 0.9787
-1.5875 4.9304 -1.4663 0.9787
-1.7627 4.8705 -1.4663 0.9787
-1.9357 4.8044 -1.4663 0.9787
-2.2739 4.6539 -1.4663 0.9787
-2.4387 4.5697 -1.4663 0.9787
-2.6005 4.4796 -1.4663 0.9787
-3.2122 4.0634 -1.4663 0.9787
-3.3877 3.9840 -1.4805 0.9785
1.5357 5.0337 -1.6187 0.9782
1.3541 5.0823 -1.6177 0.9782
1.1703 5.1219 -1.6160 0.9783
0.9855 5.1552 -1.6144 0.9783
0.4215 5.1504 -1.5895 0.9786
-0.4725 4.8528 -1.4997 0.9798
-0.6408 4.7975 -1.4887 0.9799
-0.9714 4.6890 -1.4729 0.9802
-1.1351 4.6378 -1.4686 0.9802
-1.6245 4.4886 -1.4682 0.9802
-1.7875 4.4366 -1.4712 0.9802
-2.2845 4.2807 -1.4924 0.9799
-2.8070 4.1254 -1.5347 0.9793
-2.9902 4.0737 -1.5543 0.9791
-3.1783 4.0204 -1.5763 0.9788
-3.3717 3.9651 -1.6009 0.9785
1.5866 4.6040 -1.6187 0.9797
1.2537 4.7055 -1.6187 0.9797
0.7427 4.8116 -1.6183 0.9797
0.3965 4.8445 -1.6157 0.9797
0.0494 4.8540 -1.6136 0.9797
-0.2971 4.8401 -1.6119 0.9798
-0.4697 4.8243 -1.6112 0.9798
-0.6380 4.7764 -1.6018 0.9799
-0.8035 4.7219 -1.5922 0.9800
-1.2912 4.5630 -1.5763 0.9802
-1.4536 4.5142 -1.5764 0.9802
-1.7789 4.4153 -1.5823 0.9801
-2.1077 4.3138 -1.5959 0.9800
-2.7298 4.0121 -1.6131 0.9798
-2.8733 3.9144 -1.6141 0.9797
-3.0133 3.8117 -1.6151 0.9797
1.1653 4.3739 -1.6187 0.9810
1.0083 4.4128 -1.6187 0.9810
0.6905 4.4735 -1.6187 0.9810
0.2078 4.5217 -1.6187 0.9810
0.0461 4.5263 -1.6187 0.9810
-0.1157 4.5230 -1.6180 0.9810
-0.5983 4.4793 -1.6161 0.9810
-0.7578 4.4538 -1.6156 0.9810
-1.2296 4.3451 -1.6148 0.9810
-1.3840 4.2983 -1.6148 0.9810
-1.8368 4.1270 -1.6154 0.9810
-1.9836 4.0597 -1.6158 0.9810
-2.1280 3.9874 -1.6163 0.9810
-2.6785 3.6491 -1.6187 0.9810
-2.8072 3.5510 -1.6187 0.9810
-2.9323 3.4484 -1.6187 0.9810
1.3762 3.9935 -1.6187 0.9821
1.2326 4.0401 -1.6187 0.9821
1.0874 4.0816 -1.6187 0.9821
0.9409 4.1179 -1.6187 0.9821
0.6444 4.1746 -1.6187 0.9821
0.3446 4.2099 -1.6187 0.9821
0.0430 4.2238 -1.6187 0.9821
-0.1080 4.2226 -1.6187 0.9821
-0.2588 4.2161 -1.6187 0.9821
-0.7085 4.1642 -1.6187 0.9821
-1.4375 3.9719 -1.6187 0.9821
-2.3762 3.4923 -1.6187 0.9821
-2.4995 3.4052 -1.6187 0.9821
1.4214 3.6908 -1.6187 0.9831
1.1541 3.7829 -1.6187 0.9831
1.0182 3.8217 -1.6187 0.9831
0.8810 3.8557 -1.6187 0.9831
0.6033 3.9088 -1.6187 0.9831
0.4633 3.9279 -1.6187 0.9831
-0.3833 3.9365 -1.6187 0.9831
-0.6634 3.8991 -1.6187 0.9831
-0.9402 3.8417 -1.6187 0.9831
-1.0769 3.8057 -1.6187 0.9831
-1.3460 3.7190 -1.6187 0.9831
-1.4780 3.6686 -1.6187 0.9831
-1.6082 3.6134 -1.6187 0.9831
-1.7363 3.5536 -1.6187 0.9831
-1.8622 3.4893 -1.6187 0.9831
-2.1066 3.3474 -1.6187 0.9831
-2.2249 3.2700 -1.6187 0.9831
-2.3403 3.1884 -1.6187 0.9831
1.3348 3.4661 -1.6187 0.9839
1.2101 3.5115 -1.6187 0.9839
0.9562 3.5890 -1.6187 0.9839
0.8273 3.6209 -1.6187 0.9839
0.6974 3.6481 -1.6187 0.9839
0.5666 3.6707 -1.6187 0.9839
0.4350 3.6886 -1.6187 0.9839
0.3030 3.7018 -1.6187 0.9839
0.0378 3.7140 -1.6187 0.9839
-0.0950 3.7130 -1.6187 0.9839
-0.2276 3.7072 -1.6187 0.9839
-0.4918 3.6815 -1.6187 0.9839
-0.7535 3.6370 -1.6187 0.9839
-1.0113 3.5739 -1.6187 0.9839
-1.6305 3.3372 -1.6187 0.9839
-1.8647 3.2122 -1.6187 0.9839
-2.0894 3.0708 -1.6187 0.9839
1.2567 3.2634 -1.6187 0.9847
1.1393 3.3062 -1.6187 0.9847
0.7789 3.4091 -1.6187 0.9847
0.6566 3.4348 -1.6187 0.9847
0.5335 3.4561 -1.6187 0.9847
0.2853 3.4854 -1.6187 0.9847
0.1605 3.4933 -1.6187 0.9847
-0.0894 3.4959 -1.6187 0.9847
-0.2143 3.4904 -1.6187 0.9847
-0.3389 3.4806 -1.6187 0.9847
-0.4630 3.4662 -1.6187 0.9847
-0.8313 3.3968 -1.6187 0.9847
-0.9522 3.3649 -1.6187 0.9847
-1.1901 3.2883 -1.6187 0.9847
-1.3068 3.2437 -1.6187 0.9847
-1.6465 3.0852 -1.6187 0.9847
-1.8626 2.9597 -1.6187 0.9847
-2.2654 2.6641 -1.6187 0.9847
1.1859 3.0795 -1.6187 0.9854
1.0752 3.1199 -1.6187 0.9854
0.7351 3.2171 -1.6187 0.9854
0.6196 3.2413 -1.6187 0.9854
-0.2022 3.2938 -1.6187 0.9854
-0.4369 3.2709 -1.6187 0.9854
-0.5536 3.2532 -1.6187 0.9854
-0.8985 3.1753 -1.6187 0.9854
-1.3418 3.0149 -1.6187 0.9854
-1.4487 2.9650 -1.6187 0.9854
-1.9527 2.6603 -1.6187 0.9854
1.1214 2.9118 -1.6187 0.9860
0.8033 3.0151 -1.6187 0.9860
0.3655 3.0988 -1.6187 0.9860
-0.0798 3.1192 -1.6187 0.9860
-0.3024 3.1056 -1.6187 0.9860
-0.5234 3.0760 -1.6187 0.9860
-0.6330 3.0554 -1.6187 0.9860
-0.8496 3.0024 -1.6187 0.9860
-1.0619 2.9340 -1.6187 0.9860
-1.2687 2.8507 -1.6187 0.9860
-1.3698 2.8035 -1.6187 0.9860
-1.5665 2.6985 -1.6187 0.9860
-1.6619 2.6408 -1.6187 0.9860
-1.7553 2.5797 -1.6187 0.9860
0.7609 2.8558 -1.6187 0.9866
0.6583 2.8812 -1.6187 0.9866
0.5550 2.9029 -1.6187 0.9866
0.4509 2.9209 -1.6187 0.9866
0.3462 2.9351 -1.6187 0.9866
0.1357 2.9523 -1.6187 0.9866
0.0301 2.9553 -1.6187 0.9866
-0.0756 2.9545 -1.6187 0.9866
-0.1811 2.9499 -1.6187 0.9866
-0.5996 2.8940 -1.6187 0.9866
-0.7026 2.8707 -1.6187 0.9866
-1.0058 2.7791 -1.6187 0.9866
-1.1045 2.7414 -1.6187 0.9866
-1.2974 2.6555 -1.6187 0.9866
-1.3915 2.6074 -1.6187 0.9866
-1.5742 2.5014 -1.6187 0.9866
-1.7488 2.3825 -1.6187 0.9866
-1.8329 2.3185 -1.6187 0.9866
-1.9145 2.2515 -1.6187 0.9866
0.9134 2.6507 -1.6187 0.9871
0.7218 2.7092 -1.6187 0.9871
0.2287 2.7944 -1.6187 0.9871
0.0285 2.8036 -1.6187 0.9871
-0.0717 2.8028 -1.6187 0.9871
-0.1718 2.7984 -1.6187 0.9871
-0.2717 2.7905 -1.6187 0.9871
-0.3712 2.7790 -1.6187 0.9871
-0.5688 2.7454 -1.6187 0.9871
-0.8594 2.6688 -1.6187 0.9871
-1.2308 2.5191 -1.6187 0.9871
-1.3200 2.4735 -1.6187 0.9871
-1.5772 2.3180 -1.6187 0.9871
-1.7387 2.1995 -1.6187 0.9871
-1.8162 2.1359 -1.6187 0.9871
