ply
format ascii 1.0
element vertex 610
property float32 x
property float32 y
property float32 z
property float32 I
end_header
-7.0525 39.9935 7.1608 0.8479
-8.6010 34.3039 6.2359 0.8662
-8.6450 29.9257 5.4925 0.8812
-9.7239 29.6619 5.5041 0.8809
-11.1652 24.7712 4.7910 0.8955
-12.6397 19.9075 4.1580 0.9087
-12.4912 15.6898 3.5362 0.9218
-14.4060 13.5878 3.4918 0.9227
-14.2406 12.5056 3.3418 0.9259
-14.8082 11.2456 3.2787 0.9273
-15.1987 10.7121 3.2787 0.9273
-15.5651 9.3900 3.2053 0.9288
-15.7421 8.7490 3.1756 0.9295
-17.2939 8.8218 3.4232 0.9242
-21.2977 9.9264 4.1432 0.9090
-6.9564 39.4487 6.1366 0.8504
-7.8986 37.0385 5.8017 0.8579
-8.6400 29.9084 4.7691 0.8816
-9.7137 29.6309 4.7770 0.8815
-11.6497 23.5713 4.0279 0.8991
-12.5742 19.8044 3.5938 0.9094
-12.8944 18.7968 3.4920 0.9119
-14.4473 13.6267 3.0424 0.9228
-14.6140 12.8335 2.9795 0.9243
-15.5651 9.3900 2.7848 0.9291
-15.7421 8.7490 2.7590 0.9297
-17.2939 8.8218 2.9741 0.9244
-3.3425 49.1738 6.4182 0.8197
-5.6869 40.6531 5.3454 0.8474
-6.9616 39.4783 5.2202 0.8507
-7.8986 37.0385 4.9316 0.8583
-8.6214 34.3853 4.6163 0.8668
-9.7345 29.6943 4.0693 0.8816
-10.2081 24.9829 3.5144 0.8969
-11.1474 24.7318 3.5326 0.8963
-11.9951 22.2425 3.2908 0.9031
-12.3286 21.0347 3.1750 0.9063
-12.6397 19.9076 3.0708 0.9093
-12.9315 18.8509 2.9768 0.9119
-13.2595 17.9276 2.9037 0.9140
-13.4815 16.9337 2.8186 0.9164
-13.7681 16.0852 2.7572 0.9181
-14.0046 15.2302 2.6943 0.9199
-14.4663 14.6509 2.6812 0.9203
-12.1818 10.6976 2.1112 0.9367
-12.3203 10.0665 2.0718 0.9378
-12.6689 8.9291 2.0183 0.9394
-16.1341 9.7332 2.4537 0.9268
-29.2465 12.3854 4.1359 0.8798
-5.0281 48.4418 5.2297 0.8221
-6.9228 39.2579 4.2806 0.8518
-8.6260 34.4035 3.8087 0.8670
-10.8358 26.5191 3.0762 0.8911
-11.2603 24.9823 2.9426 0.8956
-12.3286 21.0347 2.6181 0.9066
-10.5333 16.5899 2.1102 0.9240
-10.7537 15.6762 2.0413 0.9264
-13.2595 17.9276 2.3944 0.9142
-14.0046 15.2302 2.2218 0.9201
-14.4472 13.6267 2.1326 0.9232
-14.6140 12.8335 2.0885 0.9247
-15.0101 11.3989 2.0239 0.9270
-15.3845 10.0439 1.9729 0.9288
-16.0963 9.7105 2.0186 0.9272
-13.1246 7.2943 1.6124 0.9414
-27.4548 11.6266 3.2016 0.8870
-5.6565 40.4360 3.4563 0.8488
-6.9438 39.3771 3.3848 0.8517
-7.8987 37.0389 3.2059 0.8590
-8.6261 34.4040 3.0025 0.8673
-8.1754 24.9385 2.2217 0.9000
-8.5965 23.3802 2.1087 0.9048
-11.2603 24.9822 2.3197 0.8958
-12.0757 24.4333 2.3072 0.8964
-12.4766 21.2873 2.0887 0.9057
-13.6694 17.1698 1.8578 0.9157
-14.7147 14.9026 1.7729 0.9194
-14.4472 13.6267 1.6812 0.9234
-14.6140 12.8335 1.6464 0.9249
-14.9949 11.3874 1.5939 0.9272
-15.1996 10.7127 1.5742 0.9281
-16.0963 9.7105 1.5913 0.9273
-19.2339 8.9645 1.7964 0.9183
-27.0889 11.4717 2.4903 0.8886
-4.9897 48.0713 2.9969 0.8239
-5.8559 33.2078 2.0910 0.8736
-7.8986 37.0389 2.3484 0.8592
-9.3108 32.2304 2.0803 0.8742
-8.5966 23.3802 1.5447 0.9050
-10.9555 26.8120 1.7961 0.8904
-12.0474 24.3761 1.6861 0.8968
-12.4766 21.2873 1.5301 0.9058
-12.7916 20.1468 1.4798 0.9088
-12.9315 18.8509 1.4176 0.9125
-13.2595 17.9276 1.3827 0.9145
-13.6925 17.1988 1.3632 0.9157
-14.0046 15.2302 1.2830 0.9204
-14.4472 13.6267 1.2315 0.9235
-14.6140 12.8335 1.2060 0.9250
-15.1996 10.7127 1.1531 0.9282
-15.3845 10.0439 1.1393 0.9290
-12.7433 7.6877 0.9229 0.9421
-12.8930 7.1656 0.9147 0.9426
-19.2339 8.9645 1.3159 0.9185
-25.3019 10.7149 1.7039 0.8957
-5.0418 48.5737 1.9256 0.8224
-8.1754 24.9385 1.0348 0.9003
-8.5965 23.3802 0.9822 0.9051
-9.2469 20.5153 0.8873 0.9139
-9.5692 19.3619 0.8516 0.9172
-9.8671 18.2965 0.8197 0.9202
-10.6441 15.5164 0.7419 0.9274
-10.8722 14.7000 0.7209 0.9294
-11.6758 11.8249 0.6553 0.9356
-11.8555 11.1822 0.6426 0.9368
-12.1957 9.9647 0.6210 0.9389
-12.6691 8.2711 0.5966 0.9412
-12.7433 7.6877 0.5868 0.9422
-12.8930 7.1656 0.5816 0.9427
-18.0131 8.3955 0.7836 0.9235
-5.7953 32.8645 0.5637 0.8750
-8.0385 24.5209 0.4359 0.9019
-8.5111 23.1478 0.4166 0.9060
-8.8958 21.7713 0.3973 0.9102
-9.5692 19.3619 0.3648 0.9172
-10.4018 16.3830 0.3278 0.9253
-10.8722 14.7000 0.3088 0.9295
-11.0882 13.9275 0.3007 0.9313
-11.2263 13.1156 0.2916 0.9333
-11.6758 11.8249 0.2807 0.9357
-12.1957 9.9647 0.2660 0.9389
-12.3578 9.3848 0.2621 0.9398
-12.5154 8.8209 0.2586 0.9406
-12.7433 7.6877 0.2514 0.9422
-12.8930 7.1656 0.2492 0.9427
-14.6239 7.4599 0.2773 0.9364
-18.0130 8.3955 0.3357 0.9236
-4.9673 35.5092 -0.2019 0.8664
-5.7953 32.8645 -0.1879 0.8750
-7.6141 26.3572 -0.1545 0.8961
-8.5111 23.1478 -0.1389 0.9061
-8.8958 21.7713 -0.1324 0.9102
-9.2469 20.5153 -0.1267 0.9139
-9.5692 19.3619 -0.1216 0.9172
-9.8671 18.2965 -0.1170 0.9202
-10.6441 15.5164 -0.1059 0.9275
-10.8723 14.7000 -0.1029 0.9295
-11.0882 13.9275 -0.1002 0.9313
-11.4887 12.4943 -0.0956 0.9344
-12.5154 8.8209 -0.0862 0.9406
-12.6691 8.2711 -0.0852 0.9413
-12.8930 7.1656 -0.0830 0.9427
-14.6239 7.4599 -0.0924 0.9364
-23.2183 9.8326 -0.1420 0.9041
-3.0723 45.1993 -1.2757 0.8342
-6.4450 30.2223 -0.8701 0.8837
-7.0840 28.2537 -0.8202 0.8900
-8.5111 23.1478 -0.6945 0.9060
-9.5693 19.3619 -0.6081 0.9172
-9.8671 18.2965 -0.5853 0.9202
-10.1436 17.3068 -0.5649 0.9229
-10.6441 15.5164 -0.5298 0.9275
-11.2263 13.1156 -0.4861 0.9332
-12.1957 9.9647 -0.4435 0.9389
-12.3578 9.3848 -0.4369 0.9398
-12.5154 8.8209 -0.4311 0.9406
-12.6691 8.2711 -0.4260 0.9413
-14.6239 7.4599 -0.4623 0.9364
-18.0131 8.3955 -0.5596 0.9236
-23.2183 9.8326 -0.7100 0.9040
1.1219 28.8919 -1.4663 0.8907
0.0940 28.9137 -1.4663 0.8906
-0.9340 28.8989 -1.4663 0.8906
-2.9855 28.7598 -1.4664 0.8906
-5.0222 28.4755 -1.4664 0.8906
-6.0305 28.2788 -1.4664 0.8906
-7.0322 28.0467 -1.4664 0.8906
-8.8958 21.7713 -1.1927 0.9101
-9.2469 20.5153 -1.1412 0.9138
-9.8670 18.2965 -1.0542 0.9201
-10.1436 17.3068 -1.0173 0.9228
-10.4018 16.3830 -0.9842 0.9252
-10.8723 14.7000 -0.9272 0.9294
-11.0881 13.9275 -0.9028 0.9312
-11.4887 12.4943 -0.8608 0.9343
-11.6758 11.8249 -0.8428 0.9356
-11.8555 11.1822 -0.8265 0.9368
-12.3578 9.3848 -0.7870 0.9397
-12.7433 7.6877 -0.7548 0.9421
-12.8930 7.1656 -0.7481 0.9426
-14.6239 7.4598 -0.8326 0.9364
-18.0131 8.3955 -1.0079 0.9235
2.1938 19.8776 -1.4663 0.9229
1.4859 19.9431 -1.4663 0.9229
0.7760 19.9833 -1.4663 0.9229
0.0650 19.9984 -1.4663 0.9229
-0.6460 19.9881 -1.4663 0.9229
-2.7706 19.8059 -1.4664 0.9229
-3.4730 19.6950 -1.4664 0.9229
-4.1710 19.5591 -1.4664 0.9229
-4.8638 19.3985 -1.4664 0.9229
-5.5504 19.2134 -1.4664 0.9229
-6.9017 18.7705 -1.4664 0.9229
-8.2181 18.2328 -1.4664 0.9229
-9.4930 17.6028 -1.4664 0.9229
-10.4019 16.3830 -1.4229 0.9251
-11.0881 13.9275 -1.3053 0.9311
-11.2263 13.1156 -1.2658 0.9331
-11.8555 11.1822 -1.1949 0.9367
-12.1957 9.9647 -1.1548 0.9388
-12.7433 7.6877 -1.0912 0.9421
-12.8930 7.1656 -1.0815 0.9426
-14.6240 7.4598 -1.2037 0.9363
-18.4168 7.7992 -1.4665 0.9229
1.6756 15.1812 -1.4663 0.9405
0.5926 15.2619 -1.4663 0.9405
0.0497 15.2734 -1.4663 0.9405
-1.5769 15.1919 -1.4663 0.9405
-2.1160 15.1263 -1.4663 0.9405
-3.7146 14.8152 -1.4664 0.9405
-4.2390 14.6738 -1.4664 0.9405
-4.7580 14.5138 -1.4664 0.9405
-5.2710 14.3355 -1.4664 0.9405
-7.2500 13.4437 -1.4664 0.9405
-7.7234 13.1775 -1.4664 0.9405
-8.1870 12.8946 -1.4664 0.9405
-9.9323 11.6039 -1.4664 0.9405
-10.3386 11.2434 -1.4664 0.9405
-11.4771 10.0788 -1.4664 0.9405
-11.8281 9.6643 -1.4664 0.9405
-12.4850 8.7994 -1.4664 0.9405
-12.8930 7.1656 -1.4161 0.9424
-13.8446 6.4526 -1.4664 0.9405
-14.0652 5.9564 -1.4664 0.9405
-0.3987 12.3379 -1.4663 0.9515
-1.7102 12.2253 -1.4663 0.9515
-2.5746 12.0729 -1.4663 0.9515
-3.0022 11.9738 -1.4663 0.9515
-3.4260 11.8595 -1.4663 0.9515
-3.8455 11.7303 -1.4664 0.9515
-4.2601 11.5861 -1.4664 0.9515
-4.6693 11.4274 -1.4664 0.9515
-5.4695 11.0668 -1.4664 0.9515
-6.2421 10.6501 -1.4664 0.9515
-6.6168 10.4215 -1.4664 0.9515
-6.9831 10.1797 -1.4664 0.9515
-7.6889 9.6578 -1.4664 0.9515
-8.3557 9.0870 -1.4664 0.9515
-9.2758 8.1457 -1.4664 0.9515
-9.5596 7.8108 -1.4664 0.9515
-10.0905 7.1118 -1.4664 0.9515
-10.3370 6.7486 -1.4664 0.9515
-10.7904 5.9970 -1.4664 0.9515
-10.9968 5.6096 -1.4664 0.9515
1.5003 10.2395 -1.4663 0.9591
1.1354 10.2863 -1.4663 0.9591
0.7689 10.3202 -1.4663 0.9591
0.4015 10.3411 -1.4663 0.9591
-0.3343 10.3435 -1.4663 0.9591
-1.4337 10.2492 -1.4663 0.9591
-2.1584 10.1214 -1.4663 0.9591
-2.5169 10.0383 -1.4663 0.9591
-2.8722 9.9425 -1.4663 0.9591
-3.2238 9.8341 -1.4663 0.9591
-3.5714 9.7133 -1.4663 0.9591
-4.2526 9.4350 -1.4664 0.9591
-4.5854 9.2778 -1.4664 0.9591
-5.5472 8.7369 -1.4664 0.9591
-6.1540 8.3206 -1.4664 0.9591
-6.7298 7.8623 -1.4664 0.9591
-7.5287 7.1011 -1.4664 0.9591
-8.0142 6.5482 -1.4664 0.9591
-8.4593 5.9621 -1.4664 0.9591
-8.8616 5.3460 -1.4664 0.9591
-9.2191 4.7028 -1.4664 0.9591
-9.5300 4.0358 -1.4664 0.9591
0.6614 8.8762 -1.4663 0.9646
-0.2875 8.8962 -1.4663 0.9646
-0.6036 8.8804 -1.4663 0.9646
-1.5457 8.7657 -1.4663 0.9646
-2.1647 8.6337 -1.4663 0.9646
-2.4703 8.5513 -1.4663 0.9646
-3.6576 8.1148 -1.4663 0.9646
-4.5009 7.6793 -1.4664 0.9646
-4.7710 7.5144 -1.4664 0.9646
-5.2930 7.1564 -1.4664 0.9646
-6.0249 6.5522 -1.4664 0.9646
-6.2540 6.3338 -1.4664 0.9646
-6.4752 6.1075 -1.4664 0.9646
-6.6883 5.8734 -1.4664 0.9646
-6.8929 5.6319 -1.4664 0.9646
-7.0887 5.3833 -1.4664 0.9646
-7.4534 4.8660 -1.4664 0.9646
-7.9292 4.0448 -1.4664 0.9646
0.5796 7.7796 -1.4663 0.9687
0.0254 7.8012 -1.4663 0.9687
-0.8054 7.7596 -1.4663 0.9687
-1.0808 7.7260 -1.4663 0.9687
-1.3548 7.6827 -1.4663 0.9687
-2.4302 7.4131 -1.4663 0.9687
-2.6922 7.3221 -1.4663 0.9687
-3.4565 6.9938 -1.4663 0.9687
-3.7030 6.8665 -1.4663 0.9687
-3.9448 6.7305 -1.4663 0.9687
-4.1816 6.5860 -1.4663 0.9687
-4.4131 6.4332 -1.4664 0.9687
-4.6390 6.2722 -1.4664 0.9687
-5.2805 5.7427 -1.4664 0.9687
-6.0413 4.9361 -1.4664 0.9687
-6.2129 4.7182 -1.4664 0.9687
-6.3768 4.4943 -1.4664 0.9687
-6.5325 4.2648 -1.4664 0.9687
-6.6800 4.0299 -1.4664 0.9687
-6.8191 3.7898 -1.4664 0.9687
1.0057 6.8636 -1.4663 0.9720
0.7610 6.8950 -1.4663 0.9720
0.0226 6.9369 -1.4663 0.9720
-0.2241 6.9333 -1.4663 0.9720
-0.4704 6.9209 -1.4663 0.9720
-0.7162 6.8998 -1.4663 0.9720
-0.9610 6.8700 -1.4663 0.9720
-1.4468 6.7844 -1.4663 0.9720
-1.6871 6.7287 -1.4663 0.9720
-1.9252 6.6645 -1.4663 0.9720
-2.3939 6.5108 -1.4663 0.9720
-2.6239 6.4216 -1.4663 0.9720
-3.0736 6.2189 -1.4663 0.9720
-3.7183 5.8563 -1.4663 0.9720
-3.9241 5.7204 -1.4663 0.9720
-4.1250 5.5773 -1.4663 0.9720
-4.3207 5.4271 -1.4663 0.9720
-4.5109 5.2701 -1.4663 0.9720
-5.0464 4.7598 -1.4664 0.9720
-5.2125 4.5774 -1.4664 0.9720
-5.3719 4.3892 -1.4664 0.9720
-5.5246 4.1955 -1.4664 0.9720
-5.6702 3.9964 -1.4664 0.9720
-5.8087 3.7923 -1.4664 0.9720
-6.0981 3.3892 -1.4747 0.9719
-6.4814 3.3062 -1.5380 0.9707
-1.7118 0.7249 -0.3929 0.9924
0.4636 6.2218 -1.4663 0.9747
0.2421 6.2343 -1.4663 0.9747
-0.4231 6.2247 -1.4663 0.9747
-0.6442 6.2057 -1.4663 0.9747
-0.8644 6.1789 -1.4663 0.9747
-1.0835 6.1443 -1.4663 0.9747
-1.3012 6.1019 -1.4663 0.9747
-1.9436 5.9287 -1.4663 0.9747
-2.3599 5.7756 -1.4663 0.9747
-2.5638 5.6880 -1.4663 0.9747
-2.9615 5.4915 -1.4663 0.9747
-3.8860 4.8812 -1.4663 0.9747
-4.0571 4.7399 -1.4663 0.9747
-4.3837 4.4396 -1.4663 0.9747
-4.6881 4.1169 -1.4663 0.9747
-4.8315 3.9477 -1.4664 0.9747
-4.9688 3.7734 -1.4664 0.9747
-5.0998 3.5944 -1.4664 0.9747
-5.3835 3.5146 -1.5110 0.9739
-5.7086 3.4439 -1.5669 0.9730
-5.9951 3.3319 -1.6120 0.9722
-6.2410 2.9088 -1.6183 0.9721
-1.6330 0.6916 -0.4168 0.9927
0.4208 5.6476 -1.4663 0.9769
0.0184 5.6632 -1.4663 0.9769
-0.1829 5.6603 -1.4663 0.9769
-0.5847 5.6330 -1.4663 0.9769
-0.7846 5.6087 -1.4663 0.9769
-1.1811 5.5387 -1.4663 0.9769
-1.3773 5.4933 -1.4663 0.9769
-1.5717 5.4408 -1.4663 0.9769
-2.1421 5.2426 -1.4663 0.9769
-2.3272 5.1631 -1.4663 0.9769
-2.5093 5.0771 -1.4663 0.9769
-2.6882 4.9847 -1.4663 0.9769
-2.8637 4.8860 -1.4663 0.9769
-3.0356 4.7811 -1.4663 0.9769
-3.2037 4.6701 -1.4663 0.9769
-3.5274 4.4307 -1.4663 0.9769
-3.6827 4.3025 -1.4663 0.9769
-4.2856 3.7635 -1.4768 0.9767
-5.3435 3.2236 -1.6158 0.9745
-5.4640 3.0367 -1.6185 0.9745
-5.5693 2.8409 -1.6188 0.9745
0.5772 5.2297 -1.4895 0.9784
0.3850 5.1670 -1.4668 0.9787
0.2010 5.1757 -1.4663 0.9787
-0.1673 5.1770 -1.4663 0.9787
-0.5348 5.1520 -1.4663 0.9787
-1.2597 5.0242 -1.4663 0.9787
-1.6135 4.9220 -1.4663 0.9787
-1.7875 4.8615 -1.4663 0.9787
-2.1284 4.7222 -1.4663 0.9787
-2.6191 4.4687 -1.4663 0.9787
-3.0801 4.1644 -1.4663 0.9787
-3.4057 3.9788 -1.4827 0.9785
-3.6060 3.9216 -1.5082 0.9781
-4.0317 3.8027 -1.5689 0.9772
-4.2633 3.7439 -1.6062 0.9767
-4.4119 3.6048 -1.6129 0.9766
-4.6692 3.2908 -1.6171 0.9765
-1.5124 0.7049 -0.4724 0.9931
-1.5103 0.6396 -0.4643 0.9932
0.7600 5.1871 -1.6125 0.9783
0.5745 5.2046 -1.6105 0.9783
0.1969 5.0704 -1.5607 0.9790
-0.3329 4.8983 -1.5101 0.9797
-0.5027 4.8429 -1.4976 0.9798
-1.3233 4.5809 -1.4666 0.9802
-1.6477 4.4813 -1.4686 0.9802
-1.9730 4.3774 -1.4768 0.9801
-2.6476 4.1700 -1.5193 0.9795
-2.8263 4.1200 -1.5367 0.9793
-3.5476 3.8581 -1.6121 0.9783
-3.9498 3.4686 -1.6168 0.9782
-1.4561 0.7428 -0.5028 0.9932
-1.4559 0.6785 -0.4940 0.9933
0.3611 4.8465 -1.6155 0.9797
0.0158 4.8537 -1.6134 0.9797
-0.1567 4.8486 -1.6125 0.9798
-0.3288 4.8377 -1.6118 0.9798
-0.6668 4.7669 -1.6000 0.9799
-0.8310 4.7128 -1.5907 0.9800
-0.9935 4.6589 -1.5835 0.9801
-1.3160 4.5556 -1.5762 0.9802
-1.6391 4.4580 -1.5788 0.9802
-1.8013 4.4084 -1.5830 0.9801
-2.2949 4.2554 -1.6071 0.9798
-2.5998 4.0947 -1.6123 0.9798
-3.1621 3.6943 -1.6164 0.9797
-3.2941 3.5824 -1.6177 0.9797
-3.5426 3.3414 -1.6187 0.9797
-3.6591 3.2133 -1.6187 0.9797
-3.7711 3.0812 -1.6187 0.9797
-3.9805 2.8055 -1.6187 0.9797
-4.0777 2.6622 -1.6187 0.9797
-1.5018 0.9060 -0.5830 0.9926
-1.4027 0.6538 -0.5144 0.9935
0.6563 4.4787 -1.6187 0.9810
0.3363 4.5140 -1.6187 0.9810
0.1756 4.5231 -1.6187 0.9810
-0.4667 4.4962 -1.6165 0.9810
-0.6260 4.4753 -1.6160 0.9810
-0.7845 4.4490 -1.6155 0.9810
-1.0983 4.3803 -1.6149 0.9810
-1.2532 4.3383 -1.6148 0.9810
-1.4067 4.2910 -1.6148 0.9810
-1.5585 4.2386 -1.6150 0.9810
-1.8563 4.1184 -1.6155 0.9810
-2.1454 3.9782 -1.6163 0.9810
-2.5601 3.7319 -1.6184 0.9810
-2.6917 3.6393 -1.6187 0.9810
-3.0639 3.3321 -1.6187 0.9810
-3.1804 3.2210 -1.6187 0.9810
-3.2929 3.1059 -1.6187 0.9810
-3.5053 2.8641 -1.6187 0.9810
-3.6049 2.7376 -1.6187 0.9810
-3.7000 2.6077 -1.6187 0.9810
-1.5010 0.9055 -0.6269 0.9926
-1.3526 0.6304 -0.5337 0.9937
-1.3532 0.5730 -0.5255 0.9938
0.6124 4.1794 -1.6187 0.9821
0.4634 4.1985 -1.6187 0.9821
0.3139 4.2123 -1.6187 0.9821
0.1639 4.2208 -1.6187 0.9821
0.0137 4.2240 -1.6187 0.9821
-0.1364 4.2218 -1.6187 0.9821
-0.4361 4.2014 -1.6187 0.9821
-0.5852 4.1833 -1.6187 0.9821
-0.7335 4.1598 -1.6187 0.9821
-0.8810 4.1311 -1.6187 0.9821
-1.0273 4.0972 -1.6187 0.9821
-1.3158 4.0138 -1.6187 0.9821
-1.5977 3.9102 -1.6187 0.9821
-1.7357 3.8509 -1.6187 0.9821
-2.1359 3.6442 -1.6187 0.9821
-2.2641 3.5660 -1.6187 0.9821
-2.3895 3.4833 -1.6187 0.9821
-2.9679 3.0058 -1.6187 0.9821
-3.2710 2.6727 -1.6187 0.9821
-3.3640 2.5547 -1.6187 0.9821
-1.2999 0.7225 -0.5699 0.9936
-1.3052 0.6083 -0.5518 0.9939
0.5734 3.9133 -1.6187 0.9831
0.4339 3.9312 -1.6187 0.9831
0.2939 3.9441 -1.6187 0.9831
-0.9619 3.8364 -1.6187 0.9831
-1.0977 3.7997 -1.6187 0.9831
-1.2321 3.7583 -1.6187 0.9831
-1.3649 3.7121 -1.6187 0.9831
-1.9999 3.4122 -1.6187 0.9831
-2.1200 3.3390 -1.6187 0.9831
-2.3519 3.1799 -1.6187 0.9831
-2.4634 3.0943 -1.6187 0.9831
-2.5719 3.0047 -1.6187 0.9831
-2.7789 2.8144 -1.6187 0.9831
-2.8772 2.7138 -1.6187 0.9831
-2.9719 2.6098 -1.6187 0.9831
-3.0628 2.5025 -1.6187 0.9831
-3.3118 2.1622 -1.6187 0.9831
-1.2538 0.6968 -0.5871 0.9938
-1.2575 0.6415 -0.5778 0.9939
-1.2628 0.5348 -0.5613 0.9941
0.4075 3.6918 -1.6187 0.9839
-0.1200 3.7123 -1.6187 0.9839
-0.2519 3.7057 -1.6187 0.9839
-0.3835 3.6944 -1.6187 0.9839
-0.5146 3.6784 -1.6187 0.9839
-0.7747 3.6326 -1.6187 0.9839
-0.9033 3.6027 -1.6187 0.9839
-1.0308 3.5683 -1.6187 0.9839
-1.2818 3.4861 -1.6187 0.9839
-1.5263 3.3862 -1.6187 0.9839
-1.9909 3.1356 -1.6187 0.9839
-2.7020 2.5485 -1.6187 0.9839
-2.9580 2.2464 -1.6187 0.9839
-3.0360 2.1398 -1.6187 0.9839
-1.2101 0.6725 -0.6033 0.9940
-1.2183 0.5678 -0.5858 0.9942
-1.2210 0.5171 -0.5779 0.9942
0.0114 3.4970 -1.6187 0.9847
-0.4845 3.4633 -1.6187 0.9847
-0.7293 3.4201 -1.6187 0.9847
-1.0894 3.3230 -1.6187 0.9847
-1.5494 3.1350 -1.6187 0.9847
-1.8744 2.9523 -1.6187 0.9847
-2.0795 2.8116 -1.6187 0.9847
-2.1781 2.7359 -1.6187 0.9847
-2.6277 2.3075 -1.6187 0.9847
-2.7080 2.2127 -1.6187 0.9847
-2.7850 2.1150 -1.6187 0.9847
-2.8584 2.0146 -1.6187 0.9847
-1.1628 0.7015 -0.6286 0.9940
-1.1781 0.5491 -0.6016 0.9943
0.4784 3.2651 -1.6187 0.9854
0.1280 3.2975 -1.6187 0.9854
-0.1066 3.2983 -1.6187 0.9854
-0.2238 3.2924 -1.6187 0.9854
-0.3407 3.2824 -1.6187 0.9854
-0.4572 3.2682 -1.6187 0.9854
-0.6883 3.2274 -1.6187 0.9854
-0.8026 3.2009 -1.6187 0.9854
-0.9158 3.1704 -1.6187 0.9854
-1.2482 3.0548 -1.6187 0.9854
-1.4621 2.9584 -1.6187 0.9854
-1.5664 2.9046 -1.6187 0.9854
-1.8667 2.7213 -1.6187 0.9854
-2.2337 2.4292 -1.6187 0.9854
-2.4006 2.2643 -1.6187 0.9854
-2.6281 1.9958 -1.6187 0.9854
-1.1156 0.7283 -0.6535 0.9941
-1.1297 0.6278 -0.6339 0.9943
-1.1351 0.5790 -0.6251 0.9943
-1.1431 0.4841 -0.6089 0.9945
0.1211 3.1179 -1.6187 0.9860
-0.2116 3.1131 -1.6187 0.9860
-0.5419 3.0728 -1.6187 0.9860
-0.6508 3.0516 -1.6187 0.9860
-0.8660 2.9977 -1.6187 0.9860
-1.1802 2.8884 -1.6187 0.9860
-1.6725 2.6342 -1.6187 0.9860
-1.7651 2.5730 -1.6187 0.9860
-1.8554 2.5087 -1.6187 0.9860
-2.0290 2.3705 -1.6187 0.9860
-2.1923 2.2203 -1.6187 0.9860
-2.2699 2.1410 -1.6187 0.9860
-2.3446 2.0589 -1.6187 0.9860
-1.0485 0.7962 -0.6830 0.9941
-1.0854 0.6548 -0.6576 0.9943
-1.1028 0.5140 -0.6312 0.9945
-1.1066 0.4686 -0.6235 0.9946
0.4285 2.9242 -1.6187 0.9866
0.3242 2.9376 -1.6187 0.9866
-0.0955 2.9539 -1.6187 0.9866
-0.2004 2.9487 -1.6187 0.9866
-0.4094 2.9270 -1.6187 0.9866
-0.6164 2.8905 -1.6187 0.9866
-0.7188 2.8667 -1.6187 0.9866
-0.9207 2.8084 -1.6187 0.9866
-1.2145 2.6944 -1.6187 0.9866
-1.4945 2.5498 -1.6187 0.9866
-1.6719 2.4371 -1.6187 0.9866
-1.7574 2.3762 -1.6187 0.9866
-1.8408 2.3122 -1.6187 0.9866
-2.1500 2.0279 -1.6187 0.9866
-0.9879 0.8072 -0.6988 0.9942
-1.0065 0.7094 -0.6745 0.9944
-1.0623 0.5419 -0.6532 0.9946
-1.0674 0.4975 -0.6450 0.9946
0.4065 2.7741 -1.6187 0.9871
0.3076 2.7868 -1.6187 0.9871
0.2083 2.7960 -1.6187 0.9871
0.1088 2.8016 -1.6187 0.9871
-0.1901 2.7972 -1.6187 0.9871
-0.4869 2.7611 -1.6187 0.9871
-0.5847 2.7421 -1.6187 0.9871
-1.0605 2.5954 -1.6187 0.9871
-1.1521 2.5561 -1.6187 0.9871
-1.3308 2.4677 -1.6187 0.9871
-1.4177 2.4189 -1.6187 0.9871
-1.7463 2.1935 -1.6187 0.9871
-1.8232 2.1300 -1.6187 0.9871
-1.9699 1.9951 -1.6187 0.9871
-0.9208 0.8685 -0.7308 0.9942
-0.9273 0.8143 -0.7125 0.9943
-0.9201 0.7517 -0.6860 0.9945
-0.9789 0.6391 -0.6749 0.9946
-1.0117 0.5622 -0.6682 0.9947
-1.0262 0.5235 -0.6651 0.9947
