ply
format ascii 1.0
element vertex 334
property float32 x
property float32 y
property float32 z
property float32 I
end_header
2.9196 6.6208 1.1085 0.9711
22.4345 38.7951 5.8358 0.8346
2.9191 6.6197 0.9421 0.9712
17.7599 30.7115 0.5993 0.8677
2.9168 6.6144 0.1221 0.9715
38.8846 25.1595 -0.2608 0.8309
40.2747 28.1853 -0.2768 0.8215
18.1283 28.8752 -0.1920 0.8725
18.1283 28.8752 -0.9600 0.8725
29.9094 11.1331 -1.6185 0.8800
29.4854 12.2120 -1.6185 0.8800
27.4069 16.3526 -1.6185 0.8800
26.1479 18.2990 -1.6185 0.8800
24.7508 20.1487 -1.6185 0.8800
24.0029 21.0345 -1.6186 0.8800
20.7049 24.2885 -1.6186 0.8800
15.6274 19.7418 -1.2769 0.9041
17.1092 23.3053 -1.4662 0.8907
16.2516 23.9113 -1.4662 0.8907
15.3726 24.4859 -1.4662 0.8907
14.4733 25.0281 -1.4662 0.8907
12.6186 26.0129 -1.4662 0.8907
10.6973 26.8605 -1.4663 0.8907
21.4027 5.4050 -1.6186 0.9153
21.1923 6.1787 -1.6186 0.9153
20.6880 7.7007 -1.6186 0.9153
20.3947 8.4469 -1.6186 0.9153
18.5338 11.9919 -1.6186 0.9153
17.1197 13.9365 -1.6186 0.9153
16.0631 15.1425 -1.6186 0.9153
15.5026 15.7159 -1.6186 0.9153
14.8995 16.2444 -1.6162 0.9154
12.9728 15.2181 -1.4662 0.9229
12.4116 15.6793 -1.4662 0.9229
11.8340 16.1197 -1.4662 0.9229
10.6329 16.9363 -1.4662 0.9229
9.3756 17.6635 -1.4663 0.9229
8.7279 17.9924 -1.4663 0.9229
2.9149 6.6102 -0.5297 0.9714
16.4854 3.5317 -1.6186 0.9345
16.3463 4.1281 -1.6186 0.9345
15.5764 6.4513 -1.6186 0.9345
15.3319 7.0128 -1.6186 0.9345
15.0671 7.5649 -1.6186 0.9345
14.4784 8.6387 -1.6186 0.9345
14.1551 9.1588 -1.6186 0.9345
12.2681 11.5650 -1.6186 0.9345
11.8400 12.0029 -1.6186 0.9345
10.3234 11.2552 -1.4662 0.9405
9.4793 11.9749 -1.4663 0.9405
8.5851 12.6314 -1.4663 0.9405
8.1207 12.9349 -1.4663 0.9405
7.6456 13.2213 -1.4663 0.9405
6.6659 13.7415 -1.4663 0.9405
2.9145 6.6092 -0.6935 0.9714
5.6509 14.1892 -1.4663 0.9405
13.3240 2.8544 -1.6186 0.9466
13.0817 3.8140 -1.6186 0.9466
12.9346 4.2866 -1.6186 0.9466
12.3917 5.6679 -1.6186 0.9466
12.1777 6.1142 -1.6186 0.9466
11.9476 6.5524 -1.6186 0.9466
11.7018 6.9820 -1.6186 0.9466
11.4406 7.4024 -1.6186 0.9466
10.5677 8.6028 -1.6186 0.9466
10.2483 8.9809 -1.6186 0.9466
9.9154 9.3471 -1.6186 0.9466
9.1750 10.0032 -1.6124 0.9468
7.6614 9.6784 -1.4663 0.9515
6.9387 10.2090 -1.4663 0.9515
6.1794 10.6858 -1.4663 0.9515
5.7873 10.9032 -1.4663 0.9515
4.5671 11.4680 -1.4663 0.9515
11.0761 2.7971 -1.6186 0.9549
10.7062 3.9852 -1.6186 0.9549
10.3887 4.7518 -1.6186 0.9549
9.1156 6.8857 -1.6186 0.9549
8.0226 8.1330 -1.6187 0.9549
7.7214 8.4184 -1.6185 0.9549
6.1241 8.3419 -1.4663 0.9591
5.5025 8.7645 -1.4663 0.9591
9.5264 2.4058 -1.6186 0.9610
9.3267 3.0909 -1.6186 0.9610
9.0777 3.7597 -1.6186 0.9610
8.9352 4.0869 -1.6186 0.9610
8.4377 5.0345 -1.6187 0.9610
7.8402 5.9223 -1.6187 0.9610
7.6200 6.2031 -1.6187 0.9610
7.3897 6.4758 -1.6187 0.9610
7.1496 6.7399 -1.6187 0.9610
6.9002 6.9951 -1.6187 0.9610
6.6416 7.2411 -1.6187 0.9610
5.5310 7.5341 -1.5397 0.9628
5.0032 7.3613 -1.4663 0.9646
4.4557 7.7051 -1.4663 0.9646
4.1729 7.8618 -1.4663 0.9646
3.8847 8.0082 -1.4663 0.9646
2.8654 6.4978 -1.1699 0.9716
8.4206 1.8040 -1.6186 0.9656
8.2674 2.4104 -1.6187 0.9656
8.1745 2.7091 -1.6187 0.9656
7.8313 3.5820 -1.6187 0.9656
6.6786 5.4368 -1.6187 0.9656
6.4767 5.6757 -1.6187 0.9656
6.2663 5.9072 -1.6187 0.9656
5.5867 6.5537 -1.6187 0.9656
5.3451 6.7523 -1.6187 0.9656
5.0880 6.9306 -1.6160 0.9656
4.3077 6.8614 -1.5228 0.9676
3.9052 6.7532 -1.4663 0.9687
3.6574 6.8906 -1.4663 0.9687
2.8550 6.4744 -1.3300 0.9716
7.4877 1.6041 -1.6187 0.9692
7.4245 1.8750 -1.6187 0.9692
7.2688 2.4089 -1.6187 0.9692
7.0748 2.9302 -1.6187 0.9692
6.8435 3.4360 -1.6187 0.9692
5.7592 5.0469 -1.6187 0.9692
4.9678 5.8276 -1.6187 0.9692
4.7529 6.0042 -1.6187 0.9692
4.3046 6.3334 -1.6187 0.9692
4.0619 6.4698 -1.6148 0.9693
3.8082 6.5854 -1.6080 0.9694
3.0327 6.2518 -1.4688 0.9720
2.7989 6.3471 -1.4663 0.9720
6.7345 1.4427 -1.6187 0.9721
6.4546 2.4026 -1.6187 0.9721
6.3631 2.6354 -1.6187 0.9721
6.2632 2.8648 -1.6187 0.9721
6.0388 3.3118 -1.6187 0.9721
5.9145 3.5289 -1.6187 0.9721
5.4956 4.1513 -1.6187 0.9721
5.1798 4.5392 -1.6187 0.9721
5.0116 4.7244 -1.6187 0.9721
4.4681 5.2414 -1.6187 0.9721
4.2747 5.4002 -1.6187 0.9721
4.0758 5.5519 -1.6187 0.9721
3.8715 5.6962 -1.6187 0.9721
3.4464 5.9597 -1.6180 0.9721
3.2211 6.0686 -1.6147 0.9722
2.6753 6.0668 -1.5583 0.9731
6.0614 1.5307 -1.6187 0.9745
6.0018 1.7499 -1.6187 0.9745
5.9343 1.9667 -1.6187 0.9745
5.8589 2.1809 -1.6187 0.9745
5.6852 2.6004 -1.6187 0.9745
5.5870 2.8051 -1.6187 0.9745
5.4815 3.0062 -1.6187 0.9745
5.2488 3.3961 -1.6187 0.9745
4.9885 3.7682 -1.6187 0.9745
4.8483 3.9469 -1.6187 0.9745
4.7018 4.1203 -1.6187 0.9745
4.5491 4.2884 -1.6187 0.9745
4.2258 4.6072 -1.6187 0.9745
4.0557 4.7577 -1.6187 0.9745
3.6997 5.0395 -1.6187 0.9745
2.7277 5.6231 -1.6182 0.9745
2.3047 5.7871 -1.6128 0.9746
5.5438 1.4000 -1.6187 0.9765
5.4275 1.7987 -1.6187 0.9765
5.2826 2.1879 -1.6187 0.9765
5.1997 2.3783 -1.6187 0.9765
4.8006 3.1061 -1.6187 0.9765
4.3003 3.7685 -1.6187 0.9765
4.0154 4.0707 -1.6187 0.9765
3.3838 4.6092 -1.6187 0.9765
3.2141 4.7290 -1.6187 0.9765
3.0403 4.8426 -1.6187 0.9765
2.8624 4.9498 -1.6187 0.9765
2.6808 5.0505 -1.6187 0.9765
2.1156 5.3121 -1.6187 0.9765
5.1459 1.1024 -1.6187 0.9782
5.0523 1.4730 -1.6187 0.9782
4.9320 1.8359 -1.6187 0.9782
4.8621 2.0138 -1.6187 0.9782
4.7858 2.1890 -1.6187 0.9782
4.7031 2.3614 -1.6187 0.9782
4.4184 2.8589 -1.6187 0.9782
4.3117 3.0174 -1.6187 0.9782
4.1993 3.1720 -1.6187 0.9782
3.8294 3.6099 -1.6187 0.9782
3.6958 3.7466 -1.6187 0.9782
3.5573 3.8784 -1.6187 0.9782
3.2664 4.1263 -1.6187 0.9782
2.9583 4.3526 -1.6187 0.9782
2.6345 4.5558 -1.6187 0.9782
2.4673 4.6485 -1.6187 0.9782
2.2969 4.7350 -1.6187 0.9782
2.1234 4.8153 -1.6187 0.9782
4.7616 1.0201 -1.6187 0.9797
4.7213 1.1923 -1.6187 0.9797
4.6750 1.3630 -1.6187 0.9797
4.6224 1.5319 -1.6187 0.9797
4.3519 2.1850 -1.6187 0.9797
4.2696 2.3416 -1.6187 0.9797
4.0884 2.6453 -1.6187 0.9797
3.9897 2.7921 -1.6187 0.9797
3.8856 2.9351 -1.6187 0.9797
3.5434 3.3403 -1.6187 0.9797
3.2916 3.5887 -1.6187 0.9797
2.7373 4.0275 -1.6187 0.9797
2.4378 4.2155 -1.6187 0.9797
2.1254 4.3814 -1.6187 0.9797
4.3455 1.2670 -1.6187 0.9810
4.2421 1.5790 -1.6187 0.9810
4.1819 1.7320 -1.6187 0.9810
3.9688 2.1766 -1.6187 0.9810
3.8871 2.3193 -1.6187 0.9810
3.7085 2.5953 -1.6187 0.9810
3.6118 2.7283 -1.6187 0.9810
3.5104 2.8576 -1.6187 0.9810
3.2937 3.1049 -1.6187 0.9810
2.9365 3.4447 -1.6187 0.9810
2.6787 3.6488 -1.6187 0.9810
2.5444 3.7437 -1.6187 0.9810
2.4068 3.8336 -1.6187 0.9810
2.2660 3.9185 -1.6187 0.9810
2.1222 3.9982 -1.6187 0.9810
4.0095 1.3288 -1.6187 0.9821
3.9586 1.4735 -1.6187 0.9821
3.7749 1.8953 -1.6187 0.9821
3.7035 2.0311 -1.6187 0.9821
3.6273 2.1643 -1.6187 0.9821
3.5463 2.2946 -1.6187 0.9821
3.4607 2.4219 -1.6187 0.9821
3.3704 2.5459 -1.6187 0.9821
3.2758 2.6667 -1.6187 0.9821
3.1767 2.7839 -1.6187 0.9821
3.0736 2.8974 -1.6187 0.9821
2.9663 3.0071 -1.6187 0.9821
2.3744 3.4934 -1.6187 0.9821
1.9804 3.7310 -1.6187 0.9821
1.8435 3.8004 -1.6187 0.9821
3.8672 0.8285 -1.6187 0.9831
3.8346 0.9684 -1.6187 0.9831
3.5966 1.6451 -1.6187 0.9831
3.5345 1.7746 -1.6187 0.9831
3.2404 2.2677 -1.6187 0.9831
3.1559 2.3839 -1.6187 0.9831
2.8779 2.7129 -1.6187 0.9831
2.5658 3.0099 -1.6187 0.9831
2.4548 3.1010 -1.6187 0.9831
2.3405 3.1882 -1.6187 0.9831
2.1029 3.3496 -1.6187 0.9831
1.8543 3.4934 -1.6187 0.9831
1.4633 3.6744 -1.6187 0.9831
3.6317 0.7780 -1.6187 0.9839
3.6011 0.9094 -1.6187 0.9839
3.5256 1.1684 -1.6187 0.9839
3.4808 1.2957 -1.6187 0.9839
3.3192 1.6666 -1.6187 0.9839
3.1183 2.0177 -1.6187 0.9839
2.9636 2.2387 -1.6187 0.9839
2.6083 2.6442 -1.6187 0.9839
2.1980 2.9940 -1.6187 0.9839
2.0878 3.0718 -1.6187 0.9839
1.7414 3.2807 -1.6187 0.9839
1.6211 3.3418 -1.6187 0.9839
1.4986 3.3984 -1.6187 0.9839
1.3742 3.4506 -1.6187 0.9839
3.4194 0.7325 -1.6187 0.9847
3.3572 0.9788 -1.6187 0.9847
3.2773 1.2199 -1.6187 0.9847
3.2308 1.3381 -1.6187 0.9847
3.1252 1.5691 -1.6187 0.9847
3.0030 1.7918 -1.6187 0.9847
2.8651 2.0050 -1.6187 0.9847
2.7904 2.1078 -1.6187 0.9847
2.7120 2.2077 -1.6187 0.9847
2.4558 2.4896 -1.6187 0.9847
2.3637 2.5771 -1.6187 0.9847
1.7506 3.0273 -1.6187 0.9847
3.1680 0.9237 -1.6187 0.9854
3.1324 1.0381 -1.6187 0.9854
2.8934 1.5868 -1.6187 0.9854
2.7036 1.8921 -1.6187 0.9854
2.5592 2.0833 -1.6187 0.9854
2.4818 2.1749 -1.6187 0.9854
2.3174 2.3493 -1.6187 0.9854
1.9528 2.6601 -1.6187 0.9854
1.8550 2.7292 -1.6187 0.9854
1.7546 2.7948 -1.6187 0.9854
1.6520 2.8567 -1.6187 0.9854
1.2209 3.0658 -1.6187 0.9854
3.0510 0.6536 -1.6187 0.9860
3.0252 0.7640 -1.6187 0.9860
2.9955 0.8733 -1.6187 0.9860
2.9242 1.0885 -1.6187 0.9860
2.7885 1.4000 -1.6187 0.9860
2.7358 1.5004 -1.6187 0.9860
2.6795 1.5987 -1.6187 0.9860
2.4198 1.9699 -1.6187 0.9860
2.2704 2.1403 -1.6187 0.9860
2.1912 2.2213 -1.6187 0.9860
1.7539 2.5806 -1.6187 0.9860
1.5620 2.7011 -1.6187 0.9860
1.4629 2.7560 -1.6187 0.9860
1.1545 2.8988 -1.6187 0.9860
2.8898 0.6191 -1.6187 0.9866
2.8655 0.7236 -1.6187 0.9866
2.8373 0.8272 -1.6187 0.9866
2.7305 1.1309 -1.6187 0.9866
2.6412 1.3261 -1.6187 0.9866
2.5913 1.4212 -1.6187 0.9866
2.5380 1.5143 -1.6187 0.9866
2.4813 1.6055 -1.6187 0.9866
2.3583 1.7814 -1.6187 0.9866
2.2227 1.9478 -1.6187 0.9866
2.1505 2.0273 -1.6187 0.9866
2.0755 2.1040 -1.6187 0.9866
1.9977 2.1780 -1.6187 0.9866
1.9173 2.2491 -1.6187 0.9866
1.8343 2.3173 -1.6187 0.9866
1.7490 2.3824 -1.6187 0.9866
1.6613 2.4443 -1.6187 0.9866
1.5714 2.5030 -1.6187 0.9866
1.4795 2.5585 -1.6187 0.9866
1.3856 2.6105 -1.6187 0.9866
1.2899 2.6591 -1.6187 0.9866
2.7415 0.5873 -1.6187 0.9871
2.6613 0.8820 -1.6187 0.9871
2.6275 0.9780 -1.6187 0.9871
2.5903 1.0728 -1.6187 0.9871
2.5496 1.1662 -1.6187 0.9871
2.4583 1.3482 -1.6187 0.9871
2.4077 1.4366 -1.6187 0.9871
2.3539 1.5231 -1.6187 0.9871
2.2970 1.6075 -1.6187 0.9871
2.1743 1.7700 -1.6187 0.9871
2.0401 1.9232 -1.6187 0.9871
1.8951 2.0662 -1.6187 0.9871
1.4907 2.3745 -1.6187 0.9871
1.4035 2.4271 -1.6187 0.9871
1.1313 2.5653 -1.6187 0.9871
