ply
format ascii 1.0
element vertex 336
property float32 x
property float32 y
property float32 z
property float32 I
end_header
24.0360 -3.1285 3.7132 0.9066
24.0290 -3.1276 2.0515 0.9073
39.6367 24.9067 0.7908 0.8292
40.3185 27.4276 0.8237 0.8228
24.0123 -3.1254 -0.1363 0.9077
40.3185 27.4275 -0.2745 0.8228
39.6367 24.9067 -1.3182 0.8292
27.8774 -7.8592 -1.4689 0.8905
28.1036 -6.8312 -1.4667 0.8906
28.5127 -4.7703 -1.4661 0.8907
23.8385 -3.1028 -1.2191 0.9082
28.8624 -1.6397 -1.4661 0.8907
28.9030 -0.5900 -1.4661 0.8907
28.9053 0.4605 -1.4661 0.8907
28.8696 1.5103 -1.4661 0.8907
28.7956 2.5582 -1.4661 0.8907
28.8167 3.6194 -1.4729 0.8902
29.6595 4.8256 -1.5239 0.8866
30.0554 10.7328 -1.6185 0.8800
29.6457 11.8176 -1.6185 0.8800
29.1967 12.8869 -1.6185 0.8800
28.7094 13.9392 -1.6185 0.8800
28.1842 14.9732 -1.6185 0.8800
26.3879 17.9509 -1.6185 0.8800
18.8012 -6.8091 -1.4662 0.9229
19.1120 -6.1459 -1.4720 0.9226
19.8365 -5.5923 -1.5112 0.9207
21.3254 -4.3697 -1.5961 0.9164
21.8898 -2.8491 -1.6185 0.9153
21.9789 -2.0520 -1.6185 0.9153
22.0389 -1.2521 -1.6185 0.9153
22.0698 -0.4505 -1.6185 0.9153
21.6449 4.3342 -1.6186 0.9153
21.0449 6.6635 -1.6186 0.9153
20.7890 7.4237 -1.6186 0.9153
20.5056 8.1741 -1.6186 0.9153
19.8579 9.6416 -1.6186 0.9153
18.6911 11.7450 -1.6186 0.9153
17.7890 13.0714 -1.6186 0.9153
16.0500 -5.1612 -1.6186 0.9345
16.2269 -4.5747 -1.6186 0.9345
16.3824 -3.9821 -1.6186 0.9345
16.5162 -3.3843 -1.6186 0.9345
16.6283 -2.7820 -1.6186 0.9345
16.8559 -0.3441 -1.6186 0.9345
16.8572 0.2685 -1.6186 0.9345
16.7933 1.4919 -1.6186 0.9345
16.0731 5.0892 -1.6186 0.9345
15.8776 5.6699 -1.6186 0.9345
15.6611 6.2430 -1.6186 0.9345
15.1665 7.3638 -1.6186 0.9345
14.5918 8.4457 -1.6186 0.9345
12.9721 -4.1715 -1.6186 0.9466
13.2407 -3.2185 -1.6186 0.9466
13.3489 -2.7353 -1.6186 0.9466
13.5673 -1.2666 -1.6186 0.9466
13.6044 -0.7729 -1.6186 0.9466
13.6246 0.2170 -1.6186 0.9466
13.6077 0.7119 -1.6186 0.9466
13.5201 1.6981 -1.6186 0.9466
13.1316 3.6386 -1.6186 0.9466
12.6578 5.0458 -1.6186 0.9466
12.4661 5.5023 -1.6186 0.9466
12.2580 5.9516 -1.6186 0.9466
12.0337 6.3930 -1.6186 0.9466
11.5377 7.2500 -1.6186 0.9466
11.2667 7.6644 -1.6186 0.9466
10.9808 8.0687 -1.6186 0.9466
10.8753 -3.4972 -1.6186 0.9549
10.9952 -3.0998 -1.6186 0.9549
11.2672 -1.8850 -1.6186 0.9549
11.3282 -1.4744 -1.6186 0.9549
11.4214 -0.2332 -1.6186 0.9549
11.1126 2.6485 -1.6186 0.9549
10.6118 4.2302 -1.6186 0.9549
10.2766 4.9896 -1.6186 0.9549
10.0886 5.3597 -1.6186 0.9549
9.6728 6.0781 -1.6186 0.9549
9.4455 6.4256 -1.6186 0.9549
9.3537 -3.0079 -1.6186 0.9610
9.4568 -2.6661 -1.6186 0.9610
9.5475 -2.3207 -1.6186 0.9610
9.6908 -1.6213 -1.6186 0.9610
9.7433 -1.2682 -1.6186 0.9610
9.8096 -0.5573 -1.6186 0.9610
9.8234 -0.2005 -1.6186 0.9610
9.8242 0.1565 -1.6186 0.9610
9.7869 0.8695 -1.6186 0.9610
9.6979 1.5779 -1.6186 0.9610
9.6342 1.9292 -1.6186 0.9610
9.5578 2.2779 -1.6186 0.9610
9.4688 2.6237 -1.6186 0.9610
9.1271 3.6383 -1.6186 0.9610
8.1240 5.5265 -1.6187 0.9610
7.9179 5.8180 -1.6187 0.9610
8.0970 -2.9324 -1.6186 0.9656
8.1982 -2.6363 -1.6186 0.9656
8.3679 -2.0340 -1.6186 0.9656
8.4936 -1.4210 -1.6186 0.9656
8.5396 -1.1115 -1.6186 0.9656
8.5498 -0.1745 -1.6074 0.9658
8.6105 0.1372 -1.6186 0.9656
8.5778 0.7621 -1.6186 0.9656
8.4440 1.6908 -1.6186 0.9656
8.3770 1.9965 -1.6187 0.9656
8.2099 2.5995 -1.6187 0.9656
8.1101 2.8961 -1.6187 0.9656
7.7468 3.7613 -1.6187 0.9656
7.1204 4.8438 -1.6187 0.9656
6.9397 5.0993 -1.6187 0.9656
7.1999 -2.6075 -1.6187 0.9692
7.2899 -2.3442 -1.6187 0.9692
7.3703 -2.0778 -1.6187 0.9692
7.6244 -0.7118 -1.6187 0.9692
7.6560 -0.1563 -1.6187 0.9692
7.6566 0.1220 -1.6187 0.9692
7.6471 0.4001 -1.6187 0.9692
7.6275 0.6776 -1.6187 0.9692
7.5979 0.9543 -1.6187 0.9692
7.5582 1.2297 -1.6187 0.9692
7.5085 1.5035 -1.6187 0.9692
7.4489 1.7753 -1.6187 0.9692
7.3795 2.0448 -1.6187 0.9692
7.3004 2.3116 -1.6187 0.9692
7.1133 2.8355 -1.6187 0.9692
6.8886 3.3446 -1.6187 0.9692
6.7625 3.5927 -1.6187 0.9692
6.1708 4.5343 -1.6187 0.9692
6.5566 -2.1084 -1.6187 0.9721
6.6924 -1.6267 -1.6187 0.9721
6.7929 -1.1365 -1.6187 0.9721
6.8574 -0.6402 -1.6187 0.9721
6.8858 -0.1406 -1.6187 0.9721
6.8779 0.3598 -1.6187 0.9721
6.8602 0.6095 -1.6187 0.9721
6.8335 0.8583 -1.6187 0.9721
6.6996 1.5967 -1.6187 0.9721
6.6372 1.8391 -1.6187 0.9721
6.3977 2.5503 -1.6187 0.9721
6.3008 2.7811 -1.6187 0.9721
6.1956 3.0082 -1.6187 0.9721
5.9608 3.4501 -1.6187 0.9721
5.8316 3.6644 -1.6187 0.9721
5.6946 3.8738 -1.6187 0.9721
5.9515 -1.9138 -1.6187 0.9745
6.0748 -1.4766 -1.6187 0.9745
6.1244 -1.2549 -1.6187 0.9745
6.1660 -1.0316 -1.6187 0.9745
6.2246 -0.5811 -1.6187 0.9745
6.2509 0.0996 -1.6187 0.9745
6.2431 0.3266 -1.6187 0.9745
6.2029 0.7791 -1.6187 0.9745
6.1705 1.0039 -1.6187 0.9745
6.0813 1.4494 -1.6187 0.9745
6.0247 1.6694 -1.6187 0.9745
5.9600 1.8871 -1.6187 0.9745
5.8875 2.1024 -1.6187 0.9745
5.8073 2.3150 -1.6187 0.9745
5.7193 2.5244 -1.6187 0.9745
5.4107 3.1317 -1.6187 0.9745
5.2934 3.3262 -1.6187 0.9745
5.1691 3.5163 -1.6187 0.9745
5.0379 3.7018 -1.6187 0.9745
5.3761 -1.9470 -1.6187 0.9765
5.6700 -0.7380 -1.6187 0.9765
5.6930 -0.5315 -1.6187 0.9765
5.7086 -0.3243 -1.6187 0.9765
5.7171 0.0911 -1.6187 0.9765
5.6732 0.7125 -1.6187 0.9765
5.6436 0.9182 -1.6187 0.9765
5.6065 1.1227 -1.6187 0.9765
5.5620 1.3256 -1.6187 0.9765
5.5102 1.5268 -1.6187 0.9765
5.3848 1.9229 -1.6187 0.9765
5.3114 2.1173 -1.6187 0.9765
5.2310 2.3089 -1.6187 0.9765
5.0495 2.6826 -1.6187 0.9765
4.9487 2.8643 -1.6187 0.9765
4.6077 3.3857 -1.6187 0.9765
4.9481 -1.7920 -1.6187 0.9782
5.0100 -1.6111 -1.6187 0.9782
5.1555 -1.0564 -1.6187 0.9782
5.2398 -0.4892 -1.6187 0.9782
5.2542 -0.2985 -1.6187 0.9782
5.2615 -0.1074 -1.6187 0.9782
5.2620 0.0838 -1.6187 0.9782
5.2216 0.6558 -1.6187 0.9782
5.1943 0.8451 -1.6187 0.9782
5.1602 1.0333 -1.6187 0.9782
5.1193 1.2201 -1.6187 0.9782
5.0171 1.5886 -1.6187 0.9782
4.8886 1.9487 -1.6187 0.9782
4.8145 2.1250 -1.6187 0.9782
4.6475 2.4690 -1.6187 0.9782
4.5547 2.6363 -1.6187 0.9782
4.5786 -1.6582 -1.6187 0.9797
4.6358 -1.4907 -1.6187 0.9797
4.6869 -1.3213 -1.6187 0.9797
4.7705 -0.9775 -1.6187 0.9797
4.8686 -0.0994 -1.6187 0.9797
4.8690 0.0776 -1.6187 0.9797
4.8064 0.7820 -1.6187 0.9797
4.7748 0.9561 -1.6187 0.9797
4.6424 1.4700 -1.6187 0.9797
4.1232 2.5909 -1.6187 0.9797
4.0263 2.7390 -1.6187 0.9797
3.9241 2.8835 -1.6187 0.9797
4.2559 -1.5413 -1.6187 0.9810
4.3091 -1.3857 -1.6187 0.9810
4.4644 -0.7469 -1.6187 0.9810
4.4885 -0.5842 -1.6187 0.9810
4.5191 -0.2567 -1.6187 0.9810
4.5258 0.0721 -1.6187 0.9810
4.5203 0.2365 -1.6187 0.9810
4.5087 0.4006 -1.6187 0.9810
4.4911 0.5641 -1.6187 0.9810
4.4383 0.8887 -1.6187 0.9810
4.2047 1.6761 -1.6187 0.9810
3.9973 2.1236 -1.6187 0.9810
3.8326 2.4083 -1.6187 0.9810
3.9715 -1.4383 -1.6187 0.9821
4.0211 -1.2931 -1.6187 0.9821
4.1044 -0.9977 -1.6187 0.9821
4.1379 -0.8479 -1.6187 0.9821
4.1660 -0.6970 -1.6187 0.9821
4.1886 -0.5452 -1.6187 0.9821
4.2056 -0.3926 -1.6187 0.9821
4.2171 -0.2396 -1.6187 0.9821
4.2234 0.0673 -1.6187 0.9821
4.2182 0.2207 -1.6187 0.9821
4.1910 0.5264 -1.6187 0.9821
4.0705 1.1279 -1.6187 0.9821
4.0269 1.2750 -1.6187 0.9821
3.9779 1.4205 -1.6187 0.9821
3.7302 1.9817 -1.6187 0.9821
3.6557 2.1159 -1.6187 0.9821
3.5765 2.2474 -1.6187 0.9821
3.4038 2.5011 -1.6187 0.9821
3.7651 -1.2107 -1.6187 0.9831
3.8066 -1.0732 -1.6187 0.9831
3.9008 -0.6526 -1.6187 0.9831
3.9545 0.0630 -1.6187 0.9831
3.9496 0.2066 -1.6187 0.9831
3.9037 0.6351 -1.6187 0.9831
3.8472 0.9169 -1.6187 0.9831
3.6739 1.4645 -1.6187 0.9831
3.4230 1.9812 -1.6187 0.9831
3.1871 2.3419 -1.6187 0.9831
3.6091 -0.8773 -1.6187 0.9839
3.6385 -0.7455 -1.6187 0.9839
3.6981 -0.3453 -1.6187 0.9839
3.7082 -0.2107 -1.6187 0.9839
3.7134 -0.0758 -1.6187 0.9839
3.7091 0.1940 -1.6187 0.9839
3.6659 0.5964 -1.6187 0.9839
3.6419 0.7292 -1.6187 0.9839
3.5793 0.9918 -1.6187 0.9839
3.4501 1.3753 -1.6187 0.9839
3.2800 1.7426 -1.6187 0.9839
3.1448 1.9761 -1.6187 0.9839
3.2880 -1.1908 -1.6187 0.9847
3.3291 -1.0705 -1.6187 0.9847
3.3658 -0.9489 -1.6187 0.9847
3.3980 -0.8260 -1.6187 0.9847
3.4258 -0.7020 -1.6187 0.9847
3.4913 -0.1983 -1.6187 0.9847
3.4965 0.0557 -1.6187 0.9847
3.4832 0.3095 -1.6187 0.9847
3.4697 0.4358 -1.6187 0.9847
3.4516 0.5616 -1.6187 0.9847
3.3338 1.0556 -1.6187 0.9847
3.2933 1.1760 -1.6187 0.9847
3.1992 1.4121 -1.6187 0.9847
3.0882 1.6406 -1.6187 0.9847
3.0265 1.7518 -1.6187 0.9847
2.9609 1.8606 -1.6187 0.9847
2.8914 1.9669 -1.6187 0.9847
2.8180 2.0707 -1.6187 0.9847
3.1027 -1.1237 -1.6187 0.9854
3.1761 -0.8954 -1.6187 0.9854
3.2066 -0.7794 -1.6187 0.9854
3.2856 -0.3067 -1.6187 0.9854
3.2946 -0.1872 -1.6187 0.9854
3.2870 0.2920 -1.6187 0.9854
3.2571 0.5299 -1.6187 0.9854
3.2357 0.6479 -1.6187 0.9854
3.1801 0.8812 -1.6187 0.9854
3.1077 1.1098 -1.6187 0.9854
3.0653 1.2219 -1.6187 0.9854
3.0189 1.3325 -1.6187 0.9854
2.9685 1.4413 -1.6187 0.9854
2.8560 1.6531 -1.6187 0.9854
2.6592 1.9540 -1.6187 0.9854
2.9704 -0.9552 -1.6187 0.9860
3.0031 -0.8466 -1.6187 0.9860
3.0319 -0.7370 -1.6187 0.9860
3.0567 -0.6263 -1.6187 0.9860
3.0774 -0.5149 -1.6187 0.9860
3.0941 -0.4027 -1.6187 0.9860
3.1195 -0.0637 -1.6187 0.9860
3.1159 0.1630 -1.6187 0.9860
3.1080 0.2761 -1.6187 0.9860
3.0959 0.3888 -1.6187 0.9860
3.0797 0.5011 -1.6187 0.9860
3.0595 0.6126 -1.6187 0.9860
3.0352 0.7234 -1.6187 0.9860
2.9746 0.9419 -1.6187 0.9860
2.9385 1.0493 -1.6187 0.9860
2.8069 1.3628 -1.6187 0.9860
2.7555 1.4639 -1.6187 0.9860
2.7005 1.5630 -1.6187 0.9860
2.8135 -0.9047 -1.6187 0.9866
2.9149 -0.4877 -1.6187 0.9866
2.9426 -0.2747 -1.6187 0.9866
2.9514 0.1544 -1.6187 0.9866
2.9438 0.2615 -1.6187 0.9866
2.9324 0.3683 -1.6187 0.9866
2.9171 0.4746 -1.6187 0.9866
2.8979 0.5803 -1.6187 0.9866
2.8749 0.6852 -1.6187 0.9866
2.8481 0.7892 -1.6187 0.9866
2.6100 1.3866 -1.6187 0.9866
2.5024 1.5725 -1.6187 0.9866
2.4436 1.6623 -1.6187 0.9866
2.3816 1.7500 -1.6187 0.9866
2.7243 -0.6622 -1.6187 0.9871
2.7466 -0.5628 -1.6187 0.9871
2.8031 -0.0572 -1.6187 0.9871
2.8033 0.0447 -1.6187 0.9871
2.7998 0.1465 -1.6187 0.9871
2.6729 0.8463 -1.6187 0.9871
2.6404 0.9429 -1.6187 0.9871
2.5649 1.1321 -1.6187 0.9871
2.5221 1.2246 -1.6187 0.9871
2.3181 1.5770 -1.6187 0.9871
2.2593 1.6601 -1.6187 0.9871
