ply
format ascii 1.0
element vertex 618
property float32 x
property float32 y
property float32 z
property float32 I
end_header
-16.2102 -39.8203 7.5809 0.8398
-13.8734 -42.5421 7.8901 0.8338
-9.2563 -43.8168 7.8966 0.8337
-7.3396 -42.1236 7.5394 0.8406
-1.3058 -43.8350 7.7327 0.8368
6.9136 -46.1727 8.2322 0.8273
-16.2102 -39.8203 6.5863 0.8403
-15.3828 -42.0218 6.8553 0.8344
-10.7969 -43.3915 6.8500 0.8345
-9.2563 -43.8168 6.8606 0.8342
-5.8562 -42.5332 6.5773 0.8405
-2.8522 -43.5082 6.6795 0.8382
1.8890 -45.4010 6.9612 0.8320
5.1489 -45.3930 6.9985 0.8312
6.8687 -45.8737 7.1059 0.8289
10.4838 -46.8841 7.3598 0.8233
-16.1002 -39.5499 5.5606 0.8418
-14.6268 -39.9566 5.5409 0.8423
-10.2433 -41.1668 5.5242 0.8427
-8.7818 -41.5703 5.5328 0.8425
-2.8364 -43.2669 5.6463 0.8395
-1.3037 -43.7639 5.7015 0.8381
3.4781 -44.9260 5.8678 0.8338
5.1489 -45.3930 5.9490 0.8317
13.6436 -45.4953 6.1851 0.8256
-16.2102 -39.8202 4.6167 0.8412
-13.2085 -40.5032 4.5747 0.8425
-10.2794 -41.3118 4.5714 0.8426
-8.8218 -41.7599 4.5832 0.8422
-5.8561 -42.5320 4.6102 0.8414
3.4781 -44.9260 4.8387 0.8342
6.8687 -45.8737 4.9809 0.8298
8.6445 -46.3700 5.0651 0.8272
10.4838 -46.8841 5.1588 0.8243
-11.6002 -40.4089 3.5589 0.8447
-8.8016 -41.6644 3.6048 0.8429
-7.3302 -42.0695 3.6150 0.8425
-5.8487 -42.4785 3.6299 0.8419
-2.3577 -23.2304 1.9766 0.9105
-1.3009 -43.6714 3.6985 0.8391
3.4781 -44.9260 3.8145 0.8345
5.1489 -45.3930 3.8673 0.8324
6.8687 -45.8737 3.9266 0.8301
8.6445 -46.3700 3.9930 0.8275
10.4838 -46.8841 4.0669 0.8246
12.0619 -46.1444 4.0375 0.8258
12.9133 -43.0603 3.8056 0.8349
18.1342 -43.0833 3.9570 0.8289
13.8559 -29.8895 2.7889 0.8761
10.3837 -11.8502 1.3338 0.9387
-16.2102 -39.8202 2.6660 0.8417
-14.5888 -39.8526 2.6317 0.8436
-11.6304 -40.5139 2.6138 0.8446
-8.8218 -41.7598 2.6467 0.8428
-7.3394 -42.1224 2.6514 0.8425
-5.8561 -42.5320 2.6623 0.8419
-4.3586 -42.9454 2.6767 0.8411
-2.8457 -43.4087 2.6976 0.8400
-1.3087 -43.9331 2.7255 0.8385
5.1489 -45.3930 2.8329 0.8327
6.8687 -45.8737 2.8764 0.8304
12.0619 -46.1444 2.9576 0.8260
13.6732 -40.3080 2.6394 0.8432
21.5014 -42.3531 2.9454 0.8267
-16.2102 -39.8202 1.6953 0.8419
-13.2085 -40.5032 1.6799 0.8432
-10.2794 -41.3118 1.6786 0.8433
-8.8418 -41.8545 1.6868 0.8426
-7.3394 -42.1225 1.6860 0.8427
-5.8561 -42.5320 1.6929 0.8421
-2.8521 -43.5070 1.7192 0.8398
-1.3087 -43.9331 1.7331 0.8387
5.1489 -45.3930 1.8014 0.8329
10.4837 -46.8841 1.8943 0.8250
12.9134 -43.0603 1.7726 0.8353
18.3007 -39.4776 1.7158 0.8401
20.3254 -40.0366 1.7705 0.8355
10.3765 -11.8419 0.6208 0.9389
-13.7237 -37.4894 0.6744 0.8524
-12.3494 -37.8689 0.6728 0.8527
-8.8218 -41.7599 0.7210 0.8430
-5.8561 -42.5320 0.7252 0.8422
-4.3502 -42.8628 0.7277 0.8417
3.4781 -44.9260 0.7612 0.8350
5.1489 -45.3930 0.7717 0.8330
6.8687 -45.8737 0.7835 0.8306
8.6446 -46.3700 0.7968 0.8280
12.0619 -46.1444 0.8057 0.8263
12.9134 -43.0603 0.7594 0.8354
13.6732 -40.3080 0.7190 0.8434
15.6046 -37.0734 0.6795 0.8514
17.4183 -37.5742 0.6996 0.8473
19.3454 -38.1062 0.7219 0.8428
23.6076 -39.2829 0.7742 0.8325
25.9853 -39.9393 0.8049 0.8264
10.3728 -11.8378 0.2659 0.9390
-16.2102 -39.8202 -0.2421 0.8420
-14.5888 -39.8526 -0.2389 0.8439
-10.2794 -41.3118 -0.2397 0.8434
-7.3394 -42.1225 -0.2407 0.8428
-4.3502 -42.8628 -0.2426 0.8417
-1.3087 -43.9331 -0.2475 0.8388
5.1489 -45.3930 -0.2572 0.8330
8.6446 -46.3700 -0.2656 0.8281
10.4838 -46.8841 -0.2705 0.8252
12.0619 -46.1444 -0.2685 0.8263
12.9134 -43.0603 -0.2531 0.8354
13.6732 -40.3080 -0.2396 0.8434
14.9775 -35.5837 -0.2174 0.8569
16.5359 -35.6707 -0.2214 0.8545
20.3178 -36.7148 -0.2362 0.8455
22.4117 -37.2929 -0.2450 0.8403
-5.9614 -14.6442 -0.4452 0.9387
-14.5702 -39.8019 -1.1935 0.8440
-13.2521 -40.6369 -1.2035 0.8428
-8.8127 -41.7167 -1.2006 0.8431
-7.3394 -42.1225 -1.2039 0.8427
-1.8328 -13.3114 -0.3784 0.9477
-0.9231 -14.0807 -0.3973 0.9451
5.1489 -45.3930 -1.2864 0.8329
7.8773 -30.1357 -0.8771 0.8828
12.9134 -43.0603 -1.2658 0.8354
14.3572 -37.8307 -1.1394 0.8505
17.5814 -34.6314 -1.0936 0.8561
19.4504 -35.1474 -1.1311 0.8515
21.4549 -35.7008 -1.1728 0.8465
23.3525 -35.8928 -1.2057 0.8425
25.6688 -36.5323 -1.2572 0.8364
28.1951 -37.2297 -1.3150 0.8295
10.3666 -11.8306 -0.4430 0.9390
12.3765 -12.2410 -0.4902 0.9327
13.9578 -10.3308 -0.4890 0.9329
15.2579 -10.4719 -0.5211 0.9286
-5.3899 -14.7238 -0.7952 0.9391
-9.3772 -28.7545 -1.5338 0.8859
-3.4295 -13.7829 -0.7203 0.9447
-2.3147 -13.2849 -0.6839 0.9474
-0.4117 -13.8195 -0.7012 0.9461
1.2348 -29.6776 -1.5064 0.8878
2.2903 -29.5854 -1.5049 0.8879
5.4406 -29.1837 -1.5055 0.8879
6.4720 -28.9419 -1.5040 0.8880
9.5048 -28.0194 -1.5005 0.8882
10.5080 -27.6885 -1.5019 0.8882
13.3714 -26.3387 -1.4980 0.8884
14.3113 -25.8610 -1.4989 0.8884
15.2105 -25.3102 -1.4975 0.8885
16.9666 -24.1470 -1.4967 0.8885
17.7994 -23.5030 -1.4952 0.8886
17.1480 -18.2156 -1.2687 0.9047
12.7007 -11.6954 -0.8756 0.9332
14.9947 -11.0983 -0.9461 0.9280
15.0906 -10.3570 -0.9282 0.9293
-5.6475 -13.8729 -1.0982 0.9417
-5.3485 -14.6106 -1.1408 0.9395
-6.2003 -19.0131 -1.4663 0.9229
-3.3506 -13.4655 -1.0174 0.9459
-2.3011 -13.2062 -0.9829 0.9477
-1.8020 -13.0878 -0.9687 0.9484
-1.3162 -12.9682 -0.9557 0.9491
0.0744 -12.6115 -0.9247 0.9507
0.8313 -19.9809 -1.4663 0.9229
2.9613 -19.7776 -1.4663 0.9229
3.6650 -19.6594 -1.4663 0.9229
7.0956 -18.6968 -1.4663 0.9229
8.4107 -18.1432 -1.4663 0.9229
9.0526 -17.8316 -1.4663 0.9229
9.6829 -17.4973 -1.4663 0.9229
10.3009 -17.1407 -1.4663 0.9229
10.9058 -16.7623 -1.4663 0.9229
11.4969 -16.3625 -1.4663 0.9229
12.6343 -15.5011 -1.4663 0.9229
13.7074 -14.5608 -1.4663 0.9229
12.6642 -12.5256 -1.3060 0.9311
15.1846 -13.0128 -1.4663 0.9229
13.9976 -10.3604 -1.2769 0.9325
-6.2432 -15.3363 -1.5897 0.9356
-5.7507 -15.7093 -1.6060 0.9350
-3.3606 -13.5059 -1.3362 0.9456
-2.8328 -13.4097 -1.3158 0.9464
-2.3126 -13.2723 -1.2934 0.9473
-1.8091 -13.1390 -1.2733 0.9481
-1.3174 -12.9809 -1.2526 0.9489
-0.8443 -12.8794 -1.2391 0.9495
-0.3787 -12.7142 -1.2212 0.9502
0.0774 -13.1073 -1.2584 0.9487
0.6349 -15.2601 -1.4663 0.9405
1.7214 -15.1760 -1.4663 0.9405
2.2617 -15.1049 -1.4663 0.9405
2.7991 -15.0146 -1.4663 0.9405
3.3330 -14.9052 -1.4663 0.9405
3.8626 -14.7767 -1.4663 0.9405
4.3872 -14.6295 -1.4663 0.9405
4.9064 -14.4637 -1.4663 0.9405
5.4192 -14.2794 -1.4663 0.9405
5.9252 -14.0770 -1.4663 0.9405
7.3952 -13.3634 -1.4663 0.9405
8.3292 -12.8020 -1.4663 0.9405
9.6493 -11.8388 -1.4663 0.9405
10.0655 -11.4870 -1.4663 0.9405
10.5171 -11.1719 -1.4730 0.9402
12.1344 -10.3989 -1.5342 0.9378
12.6856 -10.1091 -1.5573 0.9369
-5.1380 -12.6216 -1.6187 0.9466
-4.6845 -12.7969 -1.6187 0.9466
-4.2250 -12.9558 -1.6187 0.9466
-2.8166 -13.3330 -1.6187 0.9466
-1.8587 -13.4999 -1.6187 0.9466
-0.8402 -12.8168 -1.5257 0.9496
0.0804 -13.6269 -1.6187 0.9466
0.5665 -13.6154 -1.6187 0.9466
1.0519 -13.5865 -1.6187 0.9466
1.5359 -13.5403 -1.6187 0.9466
2.4974 -13.3963 -1.6187 0.9466
3.9144 -13.0528 -1.6187 0.9466
4.3776 -12.9048 -1.6187 0.9466
4.8351 -12.7404 -1.6187 0.9466
5.2866 -12.5598 -1.6187 0.9466
6.1687 -12.1509 -1.6187 0.9466
7.0193 -11.6801 -1.6187 0.9466
7.8343 -11.1499 -1.6187 0.9466
8.2271 -10.8633 -1.6187 0.9466
9.6886 -9.5825 -1.6187 0.9466
10.3472 -8.8673 -1.6187 0.9466
10.6569 -8.4925 -1.6187 0.9466
-4.3075 -10.5814 -1.6187 0.9549
-3.9273 -10.7283 -1.6187 0.9549
-3.5421 -10.8616 -1.6187 0.9549
-3.1523 -10.9810 -1.6187 0.9549
-2.7586 -11.0865 -1.6187 0.9549
-2.3613 -11.1778 -1.6187 0.9549
-0.7473 -11.4000 -1.6187 0.9549
0.0674 -11.4243 -1.6187 0.9549
0.4750 -11.4146 -1.6187 0.9549
2.0938 -11.2309 -1.6187 0.9549
2.4931 -11.1491 -1.6187 0.9549
2.8892 -11.0530 -1.6187 0.9549
3.2817 -10.9429 -1.6187 0.9549
4.0536 -10.6810 -1.6187 0.9549
4.8048 -10.3648 -1.6187 0.9549
5.1715 -10.1868 -1.6187 0.9549
5.5316 -9.9958 -1.6187 0.9549
6.5679 -9.3476 -1.6187 0.9549
7.5290 -8.5923 -1.6187 0.9549
7.8308 -8.3183 -1.6187 0.9549
8.4039 -7.7387 -1.6187 0.9549
8.9343 -7.1198 -1.6187 0.9549
9.4193 -6.4646 -1.6187 0.9549
-3.7048 -9.1009 -1.6187 0.9609
-3.3778 -9.2272 -1.6187 0.9609
-2.7113 -9.4446 -1.6187 0.9609
-2.0309 -9.6138 -1.6187 0.9609
-1.3403 -9.7342 -1.6187 0.9609
-0.6428 -9.8049 -1.6187 0.9609
-0.2926 -9.8216 -1.6187 0.9609
1.1075 -9.7633 -1.6187 0.9609
2.8225 -9.4118 -1.6187 0.9609
3.4864 -9.1866 -1.6187 0.9609
4.7577 -8.5972 -1.6187 0.9609
5.3586 -8.2361 -1.6187 0.9609
6.2079 -7.6165 -1.6187 0.9609
6.4756 -7.3901 -1.6187 0.9609
6.7351 -7.1544 -1.6187 0.9609
6.9861 -6.9096 -1.6187 0.9609
7.2281 -6.6560 -1.6187 0.9609
7.8979 -5.8456 -1.6187 0.9609
8.1014 -5.5601 -1.6187 0.9609
-2.9605 -8.0872 -1.6187 0.9656
-2.3763 -8.2777 -1.6187 0.9656
-2.0795 -8.3572 -1.6187 0.9656
-1.7800 -8.4261 -1.6187 0.9656
-1.4783 -8.4842 -1.6187 0.9656
-0.2564 -8.6082 -1.6187 0.9656
0.0508 -8.6119 -1.6187 0.9656
0.3580 -8.6046 -1.6187 0.9656
0.6647 -8.5863 -1.6187 0.9656
1.8793 -8.4044 -1.6187 0.9656
3.0557 -8.0517 -1.6187 0.9656
3.3409 -7.9375 -1.6187 0.9656
3.6220 -7.8133 -1.6187 0.9656
4.1699 -7.5351 -1.6187 0.9656
4.6965 -7.2186 -1.6187 0.9656
5.6756 -6.4771 -1.6187 0.9656
5.9030 -6.2705 -1.6187 0.9656
-2.1130 -7.3606 -1.6187 0.9692
-1.8491 -7.4313 -1.6187 0.9692
-1.3145 -7.5442 -1.6187 0.9692
-0.7732 -7.6188 -1.6187 0.9692
-0.2280 -7.6545 -1.6187 0.9692
0.0452 -7.6578 -1.6187 0.9692
0.3183 -7.6513 -1.6187 0.9692
1.9367 -7.4089 -1.6187 0.9692
2.4600 -7.2520 -1.6187 0.9692
2.9708 -7.0581 -1.6187 0.9692
3.4665 -6.8283 -1.6187 0.9692
3.7079 -6.7003 -1.6187 0.9692
3.9446 -6.5638 -1.6187 0.9692
4.1762 -6.4189 -1.6187 0.9692
4.4026 -6.2658 -1.6187 0.9692
5.0468 -5.7595 -1.6187 0.9692
5.2490 -5.5758 -1.6187 0.9692
5.6333 -5.1874 -1.6187 0.9692
5.8147 -4.9831 -1.6187 0.9692
5.9888 -4.7725 -1.6187 0.9692
6.1552 -4.5558 -1.6187 0.9692
6.3138 -4.3333 -1.6187 0.9692
-2.1354 -6.5482 -1.6187 0.9721
-1.9005 -6.6202 -1.6187 0.9721
-1.6631 -6.6838 -1.6187 0.9721
-0.9395 -6.8232 -1.6187 0.9721
-0.6955 -6.8523 -1.6187 0.9721
1.0199 -6.8116 -1.6187 0.9721
1.5030 -6.7215 -1.6187 0.9721
1.7418 -6.6636 -1.6187 0.9721
2.2125 -6.5224 -1.6187 0.9721
2.4438 -6.4393 -1.6187 0.9721
2.6720 -6.3481 -1.6187 0.9721
3.1178 -6.1414 -1.6187 0.9721
3.3349 -6.0263 -1.6187 0.9721
3.5478 -5.9035 -1.6187 0.9721
3.9597 -5.6354 -1.6187 0.9721
4.3514 -5.3388 -1.6187 0.9721
4.5391 -5.1801 -1.6187 0.9721
4.7210 -5.0149 -1.6187 0.9721
4.8969 -4.8433 -1.6187 0.9721
5.2298 -4.4818 -1.6187 0.9721
-2.1492 -5.8709 -1.6187 0.9745
-1.5096 -6.0669 -1.6187 0.9745
-0.8528 -6.1935 -1.6187 0.9745
-0.4090 -6.2385 -1.6187 0.9745
-0.1862 -6.2491 -1.6187 0.9745
0.4825 -6.2332 -1.6187 0.9745
0.7046 -6.2120 -1.6187 0.9745
0.9258 -6.1830 -1.6187 0.9745
1.1458 -6.1460 -1.6187 0.9745
1.3643 -6.1012 -1.6187 0.9745
1.7959 -5.9884 -1.6187 0.9745
2.0083 -5.9205 -1.6187 0.9745
2.2183 -5.8451 -1.6187 0.9745
2.4254 -5.7622 -1.6187 0.9745
2.6294 -5.6720 -1.6187 0.9745
2.8301 -5.5746 -1.6187 0.9745
3.0271 -5.4701 -1.6187 0.9745
3.2203 -5.3587 -1.6187 0.9745
3.4094 -5.2404 -1.6187 0.9745
4.1202 -4.7021 -1.6187 0.9745
4.2853 -4.5521 -1.6187 0.9745
4.4450 -4.3963 -1.6187 0.9745
4.5990 -4.2350 -1.6187 0.9745
4.7471 -4.0682 -1.6187 0.9745
4.8892 -3.8963 -1.6187 0.9745
-2.1559 -5.2960 -1.6187 0.9765
-1.9656 -5.3696 -1.6187 0.9765
-1.5778 -5.4960 -1.6187 0.9765
-1.3807 -5.5488 -1.6187 0.9765
-1.1818 -5.5946 -1.6187 0.9765
-0.9815 -5.6332 -1.6187 0.9765
-0.5774 -5.6888 -1.6187 0.9765
-0.3741 -5.7058 -1.6187 0.9765
-0.1703 -5.7155 -1.6187 0.9765
0.0337 -5.7179 -1.6187 0.9765
0.2377 -5.7131 -1.6187 0.9765
0.6445 -5.6816 -1.6187 0.9765
1.0479 -5.6211 -1.6187 0.9765
1.6425 -5.4770 -1.6187 0.9765
2.0288 -5.3459 -1.6187 0.9765
2.2183 -5.2702 -1.6187 0.9765
2.4049 -5.1877 -1.6187 0.9765
2.5884 -5.0986 -1.6187 0.9765
3.1183 -4.7928 -1.6187 0.9765
4.0654 -4.0209 -1.6187 0.9765
4.2062 -3.8733 -1.6187 0.9765
4.3418 -3.7208 -1.6187 0.9765
4.4717 -3.5635 -1.6187 0.9765
4.7144 -3.2356 -1.6187 0.9765
-1.9843 -4.8744 -1.6187 0.9782
-1.8092 -4.9421 -1.6187 0.9782
-1.0877 -5.1492 -1.6187 0.9782
-0.9034 -5.1847 -1.6187 0.9782
-0.3443 -5.2516 -1.6187 0.9782
-0.1567 -5.2605 -1.6187 0.9782
0.5932 -5.2293 -1.6187 0.9782
0.7793 -5.2048 -1.6187 0.9782
0.9645 -5.1737 -1.6187 0.9782
1.1484 -5.1360 -1.6187 0.9782
1.3310 -5.0917 -1.6187 0.9782
2.8701 -4.4113 -1.6187 0.9782
3.0256 -4.3061 -1.6187 0.9782
3.3250 -4.0794 -1.6187 0.9782
3.6074 -3.8320 -1.6187 0.9782
3.8714 -3.5650 -1.6187 0.9782
3.9961 -3.4246 -1.6187 0.9782
4.2301 -3.1309 -1.6187 0.9782
4.3391 -2.9780 -1.6187 0.9782
-1.8361 -4.5104 -1.6187 0.9797
-1.6740 -4.5730 -1.6187 0.9797
-1.5098 -4.6298 -1.6187 0.9797
-1.3437 -4.6807 -1.6187 0.9797
-1.0065 -4.7646 -1.6187 0.9797
-0.6642 -4.8242 -1.6187 0.9797
-0.4917 -4.8449 -1.6187 0.9797
-0.3186 -4.8593 -1.6187 0.9797
-0.1450 -4.8676 -1.6187 0.9797
0.3758 -4.8552 -1.6187 0.9797
0.5488 -4.8387 -1.6187 0.9797
0.7211 -4.8161 -1.6187 0.9797
0.8925 -4.7873 -1.6187 0.9797
1.5643 -4.6116 -1.6187 0.9797
1.8892 -4.4883 -1.6187 0.9797
2.0481 -4.4181 -1.6187 0.9797
2.3579 -4.2608 -1.6187 0.9797
2.6557 -4.0818 -1.6187 0.9797
2.7996 -3.9845 -1.6187 0.9797
2.9400 -3.8821 -1.6187 0.9797
3.0766 -3.7747 -1.6187 0.9797
3.2093 -3.6625 -1.6187 0.9797
3.3379 -3.5458 -1.6187 0.9797
3.9142 -2.8971 -1.6187 0.9797
4.0151 -2.7556 -1.6187 0.9797
-1.7067 -4.1925 -1.6187 0.9810
-1.5560 -4.2507 -1.6187 0.9810
-1.2490 -4.3508 -1.6187 0.9810
-1.0930 -4.3926 -1.6187 0.9810
-0.9356 -4.4288 -1.6187 0.9810
-0.6174 -4.4842 -1.6187 0.9810
-0.4571 -4.5034 -1.6187 0.9810
-0.2961 -4.5169 -1.6187 0.9810
0.0267 -4.5265 -1.6187 0.9810
0.3494 -4.5131 -1.6187 0.9810
0.5102 -4.4977 -1.6187 0.9810
1.1447 -4.3794 -1.6187 0.9810
1.6061 -4.2320 -1.6187 0.9810
1.9038 -4.1067 -1.6187 0.9810
2.0491 -4.0362 -1.6187 0.9810
2.3316 -3.8798 -1.6187 0.9810
2.6023 -3.7037 -1.6187 0.9810
2.7328 -3.6085 -1.6187 0.9810
2.8598 -3.5087 -1.6187 0.9810
3.1027 -3.2959 -1.6187 0.9810
3.3298 -3.0662 -1.6187 0.9810
3.4371 -2.9455 -1.6187 0.9810
3.6383 -2.6929 -1.6187 0.9810
-1.5927 -3.9123 -1.6187 0.9821
-1.0199 -4.0991 -1.6187 0.9821
-0.8731 -4.1328 -1.6187 0.9821
-0.4265 -4.2025 -1.6187 0.9821
-0.2763 -4.2150 -1.6187 0.9821
-0.1258 -4.2222 -1.6187 0.9821
0.1756 -4.2204 -1.6187 0.9821
0.6255 -4.1775 -1.6187 0.9821
0.7741 -4.1525 -1.6187 0.9821
1.0682 -4.0867 -1.6187 0.9821
1.2134 -4.0460 -1.6187 0.9821
1.3569 -4.0001 -1.6187 0.9821
1.4988 -3.9492 -1.6187 0.9821
1.9121 -3.7665 -1.6187 0.9821
2.1758 -3.6205 -1.6187 0.9821
2.5502 -3.3673 -1.6187 0.9821
2.7838 -3.1769 -1.6187 0.9821
2.8953 -3.0756 -1.6187 0.9821
3.0032 -2.9703 -1.6187 0.9821
3.1073 -2.8613 -1.6187 0.9821
3.2074 -2.7487 -1.6187 0.9821
3.4827 -2.3902 -1.6187 0.9821
-1.3596 -3.7141 -1.6187 0.9831
-1.0913 -3.8016 -1.6187 0.9831
-0.9550 -3.8381 -1.6187 0.9831
-0.3994 -3.9349 -1.6187 0.9831
-0.1178 -3.9534 -1.6187 0.9831
0.0233 -3.9550 -1.6187 0.9831
0.1644 -3.9517 -1.6187 0.9831
0.3053 -3.9433 -1.6187 0.9831
0.4458 -3.9299 -1.6187 0.9831
0.5857 -3.9115 -1.6187 0.9831
1.0002 -3.8265 -1.6187 0.9831
1.1361 -3.7884 -1.6187 0.9831
1.4033 -3.6978 -1.6187 0.9831
1.6634 -3.5883 -1.6187 0.9831
1.7904 -3.5267 -1.6187 0.9831
1.9151 -3.4605 -1.6187 0.9831
2.0373 -3.3900 -1.6187 0.9831
2.1569 -3.3152 -1.6187 0.9831
2.2738 -3.2361 -1.6187 0.9831
2.4988 -3.0658 -1.6187 0.9831
2.6065 -2.9747 -1.6187 0.9831
2.7110 -2.8798 -1.6187 0.9831
2.8120 -2.7812 -1.6187 0.9831
3.1790 -2.3530 -1.6187 0.9831
3.2610 -2.2381 -1.6187 0.9831
-1.4004 -3.4401 -1.6187 0.9839
-1.1516 -3.5312 -1.6187 0.9839
-1.0249 -3.5701 -1.6187 0.9839
-0.8969 -3.6044 -1.6187 0.9839
-0.5066 -3.6795 -1.6187 0.9839
-0.2430 -3.7063 -1.6187 0.9839
0.2867 -3.7032 -1.6187 0.9839
1.0669 -3.5577 -1.6187 0.9839
1.1932 -3.5174 -1.6187 0.9839
1.6813 -3.3119 -1.6187 0.9839
1.7984 -3.2498 -1.6187 0.9839
1.9132 -3.1836 -1.6187 0.9839
2.1353 -3.0390 -1.6187 0.9839
2.3466 -2.8791 -1.6187 0.9839
2.5459 -2.7044 -1.6187 0.9839
2.8203 -2.4169 -1.6187 0.9839
2.9047 -2.3148 -1.6187 0.9839
-0.9649 -3.3613 -1.6187 0.9847
-0.7228 -3.4215 -1.6187 0.9847
-0.4770 -3.4644 -1.6187 0.9847
-0.3531 -3.4792 -1.6187 0.9847
-0.1041 -3.4955 -1.6187 0.9847
0.0206 -3.4970 -1.6187 0.9847
0.1454 -3.4940 -1.6187 0.9847
0.2699 -3.4866 -1.6187 0.9847
0.3941 -3.4748 -1.6187 0.9847
0.6409 -3.4378 -1.6187 0.9847
0.7631 -3.4128 -1.6187 0.9847
1.0045 -3.3497 -1.6187 0.9847
1.1234 -3.3117 -1.6187 0.9847
1.3567 -3.2232 -1.6187 0.9847
1.4708 -3.1727 -1.6187 0.9847
1.6933 -3.0598 -1.6187 0.9847
1.9071 -2.9312 -1.6187 0.9847
2.0105 -2.8613 -1.6187 0.9847
2.3047 -2.6302 -1.6187 0.9847
2.7349 -2.1794 -1.6187 0.9847
2.8108 -2.0805 -1.6187 0.9847
2.8833 -1.9789 -1.6187 0.9847
-1.2443 -3.0565 -1.6187 0.9854
-1.1344 -3.0989 -1.6187 0.9854
-1.0231 -3.1374 -1.6187 0.9854
-0.7968 -3.2024 -1.6187 0.9854
-0.5665 -3.2510 -1.6187 0.9854
-0.3332 -3.2831 -1.6187 0.9854
0.0195 -3.2999 -1.6187 0.9854
0.2547 -3.2902 -1.6187 0.9854
0.3719 -3.2790 -1.6187 0.9854
0.4887 -3.2636 -1.6187 0.9854
0.7201 -3.2205 -1.6187 0.9854
1.1709 -3.0853 -1.6187 0.9854
1.3879 -2.9939 -1.6187 0.9854
1.5979 -2.8874 -1.6187 0.9854
1.7996 -2.7661 -1.6187 0.9854
1.8972 -2.7001 -1.6187 0.9854
2.1748 -2.4820 -1.6187 0.9854
2.2620 -2.4028 -1.6187 0.9854
2.3463 -2.3206 -1.6187 0.9854
2.4275 -2.2354 -1.6187 0.9854
2.5058 -2.1474 -1.6187 0.9854
2.5807 -2.0566 -1.6187 0.9854
2.6525 -1.9632 -1.6187 0.9854
2.7208 -1.8674 -1.6187 0.9854
-1.1765 -2.8900 -1.6187 0.9860
-0.9674 -2.9665 -1.6187 0.9860
-0.7534 -3.0279 -1.6187 0.9860
-0.6449 -3.0529 -1.6187 0.9860
-0.4256 -3.0911 -1.6187 0.9860
-0.2041 -3.1136 -1.6187 0.9860
-0.0929 -3.1189 -1.6187 0.9860
0.0184 -3.1202 -1.6187 0.9860
0.1297 -3.1176 -1.6187 0.9860
0.2408 -3.1109 -1.6187 0.9860
0.4621 -3.0859 -1.6187 0.9860
0.6809 -3.0451 -1.6187 0.9860
0.7891 -3.0188 -1.6187 0.9860
0.8963 -2.9888 -1.6187 0.9860
1.1071 -2.9172 -1.6187 0.9860
1.2105 -2.8759 -1.6187 0.9860
1.4125 -2.7823 -1.6187 0.9860
1.6073 -2.6745 -1.6187 0.9860
1.7939 -2.5531 -1.6187 0.9860
1.8838 -2.4874 -1.6187 0.9860
1.9713 -2.4186 -1.6187 0.9860
2.1388 -2.2719 -1.6187 0.9860
2.2953 -2.1136 -1.6187 0.9860
2.5080 -1.8563 -1.6187 0.9860
-1.1143 -2.7374 -1.6187 0.9866
-0.9163 -2.8099 -1.6187 0.9866
-0.8155 -2.8408 -1.6187 0.9866
-0.7137 -2.8680 -1.6187 0.9866
-0.4032 -2.9279 -1.6187 0.9866
-0.0880 -2.9542 -1.6187 0.9866
0.2281 -2.9467 -1.6187 0.9866
0.4376 -2.9229 -1.6187 0.9866
0.7474 -2.8594 -1.6187 0.9866
0.9494 -2.7988 -1.6187 0.9866
1.0487 -2.7632 -1.6187 0.9866
1.1466 -2.7240 -1.6187 0.9866
1.3379 -2.6353 -1.6187 0.9866
1.4310 -2.5859 -1.6187 0.9866
1.5224 -2.5332 -1.6187 0.9866
1.6118 -2.4773 -1.6187 0.9866
1.6991 -2.4182 -1.6187 0.9866
1.8672 -2.2909 -1.6187 0.9866
1.9478 -2.2229 -1.6187 0.9866
2.0258 -2.1519 -1.6187 0.9866
2.3756 -1.7583 -1.6187 0.9866
2.4368 -1.6724 -1.6187 0.9866
-0.9638 -2.6329 -1.6187 0.9871
-0.8693 -2.6656 -1.6187 0.9871
-0.5795 -2.7432 -1.6187 0.9871
-0.3824 -2.7775 -1.6187 0.9871
-0.2831 -2.7894 -1.6187 0.9871
-0.0835 -2.8025 -1.6187 0.9871
0.2164 -2.7954 -1.6187 0.9871
0.4152 -2.7728 -1.6187 0.9871
0.6118 -2.7362 -1.6187 0.9871
1.0877 -2.5841 -1.6187 0.9871
1.1792 -2.5437 -1.6187 0.9871
1.2692 -2.5000 -1.6187 0.9871
1.3575 -2.4531 -1.6187 0.9871
1.5290 -2.3501 -1.6187 0.9871
1.7714 -2.1733 -1.6187 0.9871
1.8477 -2.1087 -1.6187 0.9871
1.9934 -1.9716 -1.6187 0.9871
2.1289 -1.8244 -1.6187 0.9871
2.1926 -1.7473 -1.6187 0.9871
2.3116 -1.5865 -1.6187 0.9871
