ply
format ascii 1.0
element vertex 504
property float32 x
property float32 y
property float32 z
property float32 I
end_header
-9.1854 29.9848 5.5296 0.8804
-10.1069 29.2018 5.4487 0.8820
-9.8082 25.3522 4.7931 0.8955
-11.8204 22.8739 4.5400 0.9007
-12.3253 21.8849 4.4288 0.9030
-12.4947 20.4318 4.2229 0.9073
-13.0840 18.2986 3.9665 0.9127
-12.3709 16.0494 3.5731 0.9210
-13.5304 15.1629 3.5833 0.9208
-14.0661 14.6665 3.5832 0.9208
-14.3208 13.8961 3.5185 0.9221
-14.5342 13.1226 3.4528 0.9235
-15.0621 10.9032 3.2787 0.9273
-15.3214 10.2727 3.2526 0.9278
-15.6852 8.9548 3.1847 0.9293
-19.9222 9.5467 3.8953 0.9142
-25.3484 11.0451 4.8755 0.8938
-37.1403 14.6187 7.0379 0.8503
-8.3072 31.0628 4.9259 0.8780
-9.1942 30.0135 4.8088 0.8807
-10.1069 29.2018 4.7339 0.8825
-10.6980 24.9487 4.1586 0.8960
-11.8204 22.8739 3.9444 0.9011
-12.1698 21.6088 3.7992 0.9045
-12.4947 20.4318 3.6689 0.9076
-12.7619 19.2765 3.5416 0.9107
-13.0840 18.2986 3.4461 0.9130
-13.0658 16.9510 3.2787 0.9170
-14.3619 13.9359 3.0657 0.9222
-14.5342 13.1226 2.9998 0.9238
-15.5053 9.6068 2.7943 0.9288
-15.6852 8.9548 2.7669 0.9295
-16.3128 8.5509 2.8215 0.9282
-19.9261 9.5485 3.3850 0.9145
-8.2967 31.0237 4.1819 0.8785
-9.1434 29.8479 4.0651 0.8817
-10.1293 29.2665 4.0329 0.8826
-10.6608 24.8619 3.5226 0.8966
-12.1700 21.6091 3.2295 0.9048
-12.4949 20.4322 3.1188 0.9079
-12.7987 19.3320 3.0191 0.9107
-13.6236 16.4189 2.7783 0.9175
-13.9067 15.5846 2.7199 0.9192
-14.7763 14.3381 2.6812 0.9203
-14.5342 13.1226 2.5500 0.9241
-15.3213 10.2726 2.4021 0.9283
-25.0221 10.9029 3.5543 0.8957
-10.1294 29.2667 3.3256 0.8829
-10.5958 27.3880 3.1534 0.8886
-11.4568 24.2709 2.8820 0.8977
-12.4949 20.4322 2.5718 0.9081
-13.4050 17.3910 2.3579 0.9155
-13.6492 16.4496 2.2953 0.9176
-13.9067 15.5846 2.2429 0.9194
-14.8245 14.3849 2.2181 0.9203
-14.5342 13.1226 2.1027 0.9242
-14.8277 12.4503 2.0791 0.9251
-15.1045 11.7838 2.0572 0.9258
-15.3213 10.2726 1.9808 0.9285
-16.0344 9.9346 2.0255 0.9269
-14.6590 7.6841 1.7773 0.9356
-19.9261 9.5485 2.3727 0.9149
-8.9180 33.3468 2.9221 0.8706
-9.5499 31.1746 2.7601 0.8773
-8.7858 22.7096 2.0613 0.9069
-11.0456 25.7593 2.3726 0.8936
-9.5580 20.2485 1.8955 0.9140
-11.8207 22.8743 2.1796 0.9018
-12.4949 20.4322 2.0274 0.9083
-13.0840 18.2986 1.9043 0.9137
-13.4069 17.3935 1.8590 0.9156
-13.6629 16.4662 1.8113 0.9177
-13.9067 15.5846 1.7682 0.9196
-14.8507 14.4102 1.7517 0.9203
-14.7968 12.4243 1.6356 0.9254
-14.9243 11.6432 1.6024 0.9268
-15.1329 10.9545 1.5814 0.9277
-16.0344 9.9346 1.5968 0.9271
-16.2206 9.2604 1.5811 0.9278
-14.6590 7.6841 1.4011 0.9357
-25.3486 11.0452 2.3407 0.8949
-11.0455 25.7591 1.7380 0.8938
-9.5580 20.2485 1.3885 0.9142
-11.8207 22.8743 1.5966 0.9020
-12.4949 20.4322 1.4851 0.9085
-12.9524 19.5642 1.4550 0.9103
-13.6629 16.4662 1.3268 0.9178
-14.8507 14.4102 1.2832 0.9204
-14.5342 13.1226 1.2143 0.9245
-14.8351 12.4564 1.2012 0.9253
-15.1301 11.8038 1.1900 0.9260
-15.1328 10.9544 1.1584 0.9279
-23.3291 10.1652 1.5780 0.9030
-8.9180 33.3468 1.3611 0.8709
-10.1382 29.2920 1.2222 0.8833
-11.0455 25.7591 1.1051 0.8939
-9.6648 18.7024 0.8301 0.9192
-10.0121 17.7775 0.8045 0.9216
-10.2816 16.8130 0.7771 0.9241
-11.1397 13.4253 0.6879 0.9325
-12.2990 9.5951 0.6151 0.9395
-12.6165 8.4591 0.5990 0.9410
-12.6938 7.8649 0.5888 0.9420
-13.7944 7.2308 0.6141 0.9396
-23.3292 10.1653 1.0034 0.9031
-8.6974 22.4812 0.4072 0.9081
-9.0693 21.1505 0.3887 0.9120
-9.4094 19.9337 0.3723 0.9156
-10.0121 17.7775 0.3446 0.9216
-10.2816 16.8130 0.3329 0.9242
-10.5338 15.9110 0.3223 0.9265
-10.9943 14.2634 0.3042 0.9305
-11.1397 13.4253 0.2947 0.9326
-11.6002 12.0954 0.2831 0.9352
-12.2990 9.5951 0.2635 0.9395
-12.4599 9.0196 0.2598 0.9403
-12.6165 8.4591 0.2566 0.9410
-12.6938 7.8649 0.2522 0.9420
-13.7943 7.2308 0.2631 0.9396
-16.8497 8.0743 0.3156 0.9280
-7.3252 27.3909 -0.1596 0.8928
-8.2879 23.9463 -0.1427 0.9036
-8.6974 22.4812 -0.1357 0.9081
-9.4094 19.9337 -0.1241 0.9156
-9.6648 18.7024 -0.1185 0.9192
-10.2817 16.8130 -0.1110 0.9242
-10.5338 15.9110 -0.1074 0.9265
-10.9943 14.2634 -0.1014 0.9305
-11.3401 12.7083 -0.0959 0.9341
-11.6002 12.0954 -0.0944 0.9352
-12.2990 9.5951 -0.0878 0.9395
-12.6165 8.4591 -0.0855 0.9410
-12.6938 7.8649 -0.0841 0.9420
-12.8465 7.3341 -0.0833 0.9425
-13.7944 7.2308 -0.0877 0.9396
-16.8497 8.0743 -0.1052 0.9280
-21.4371 9.3408 -0.1317 0.9107
-7.8336 25.5719 -0.7531 0.8985
-9.4094 19.9337 -0.6207 0.9156
-10.0121 17.7775 -0.5745 0.9216
-10.2817 16.8130 -0.5549 0.9242
-10.7707 15.0634 -0.5214 0.9286
-11.6002 12.0954 -0.4719 0.9351
-11.7847 11.4352 -0.4624 0.9364
-11.9622 10.8004 -0.4538 0.9375
-12.1334 10.1879 -0.4461 0.9386
-12.2990 9.5951 -0.4392 0.9395
-12.6938 7.8649 -0.4205 0.9420
-12.8465 7.3341 -0.4165 0.9425
-13.7944 7.2308 -0.4385 0.9396
-16.8497 8.0743 -0.5261 0.9280
-29.1208 11.4621 -0.8812 0.8823
-7.3252 27.3908 -1.4379 0.8927
-7.8336 25.5719 -1.3563 0.8984
-9.4094 19.9337 -1.1179 0.9155
-10.0121 17.7775 -1.0347 0.9215
-10.5338 15.9110 -0.9677 0.9264
-10.7707 15.0634 -0.9391 0.9285
-11.1397 13.4253 -0.8847 0.9325
-11.3401 12.7083 -0.8638 0.9341
-11.6002 12.0954 -0.8499 0.9351
-11.9622 10.8004 -0.8173 0.9375
-12.1334 10.1879 -0.8035 0.9385
-12.2990 9.5951 -0.7911 0.9394
-12.6165 8.4591 -0.7703 0.9410
-12.8465 7.3341 -0.7502 0.9425
-16.8497 8.0743 -0.9476 0.9279
-21.4371 9.3408 -1.1859 0.9106
-5.8577 19.1220 -1.4664 0.9229
-6.5411 18.8992 -1.4664 0.9229
-7.2160 18.6520 -1.4664 0.9229
-7.8816 18.3807 -1.4664 0.9229
-8.5371 18.0856 -1.4664 0.9229
-9.1815 17.7672 -1.4664 0.9229
-10.5338 15.9110 -1.3991 0.9263
-11.1397 13.4253 -1.2791 0.9324
-11.6002 12.0954 -1.2288 0.9350
-11.7847 11.4352 -1.2040 0.9363
-12.1334 10.1879 -1.1617 0.9384
-12.2990 9.5951 -1.1438 0.9394
-16.8498 8.0743 -1.3700 0.9278
-18.3352 7.9892 -1.4665 0.9229
-18.6104 7.3252 -1.4665 0.9229
-18.8617 6.6517 -1.4665 0.9229
-3.9460 14.7552 -1.4664 0.9405
-4.4737 14.6039 -1.4664 0.9405
-7.4952 13.3085 -1.4664 0.9405
-8.8840 12.4247 -1.4664 0.9405
-9.3247 12.0975 -1.4664 0.9405
-9.7534 11.7546 -1.4664 0.9405
-10.1696 11.3965 -1.4664 0.9405
-10.5725 11.0238 -1.4664 0.9405
-11.3370 10.2360 -1.4664 0.9405
-12.0430 9.3953 -1.4664 0.9405
-12.6165 8.4591 -1.4583 0.9408
-13.7746 6.6007 -1.4664 0.9405
-14.0029 6.1015 -1.4664 0.9405
-10.5166 4.1394 -1.0850 0.9556
-14.4050 5.0800 -1.4664 0.9405
-3.6157 11.8031 -1.4664 0.9515
-4.0375 11.6656 -1.4664 0.9515
-4.8649 11.3455 -1.4664 0.9515
-5.6673 10.9668 -1.4664 0.9515
-6.0577 10.7561 -1.4664 0.9515
-6.4403 10.5315 -1.4664 0.9515
-6.8146 10.2933 -1.4664 0.9515
-7.8828 9.5002 -1.4664 0.9515
-8.5448 8.9095 -1.4664 0.9515
-8.8595 8.5967 -1.4664 0.9515
-9.1627 8.2728 -1.4664 0.9515
-9.4540 7.9382 -1.4664 0.9515
-9.7332 7.5934 -1.4664 0.9515
-9.9998 7.2387 -1.4664 0.9515
-10.2534 6.8747 -1.4664 0.9515
-10.7208 6.1205 -1.4664 0.9515
-4.0785 9.5115 -1.4664 0.9591
-4.7512 9.1940 -1.4664 0.9591
-5.3992 8.8291 -1.4664 0.9591
-6.0195 8.4185 -1.4664 0.9591
-6.6085 7.9645 -1.4664 0.9591
-6.8905 7.7219 -1.4664 0.9591
-7.4273 7.2070 -1.4664 0.9591
-7.9258 6.6550 -1.4664 0.9591
-8.3833 6.0686 -1.4664 0.9591
-8.7975 5.4508 -1.4664 0.9591
-8.9877 5.1311 -1.4664 0.9591
-9.1663 4.8049 -1.4664 0.9591
-9.3331 4.4724 -1.4664 0.9591
-9.6302 3.7905 -1.4664 0.9591
-1.9799 0.6982 -0.2975 0.9916
-2.2996 8.5988 -1.4663 0.9646
-2.6071 8.5106 -1.4663 0.9646
-2.9112 8.4114 -1.4663 0.9646
-4.3679 7.7557 -1.4664 0.9646
-4.6438 7.5937 -1.4664 0.9646
-4.9136 7.4219 -1.4664 0.9646
-5.1772 7.2406 -1.4664 0.9646
-5.4340 7.0499 -1.4664 0.9646
-5.6839 6.8500 -1.4664 0.9646
-5.9264 6.6414 -1.4664 0.9646
-6.8168 5.7238 -1.4664 0.9646
-7.2103 5.2194 -1.4664 0.9646
-7.7301 4.4132 -1.4664 0.9646
-8.0271 3.8466 -1.4664 0.9646
-8.1602 3.5556 -1.4664 0.9646
-1.8782 0.6624 -0.3281 0.9920
-2.0155 7.5364 -1.4663 0.9687
-2.2850 7.4592 -1.4663 0.9687
-2.5516 7.3722 -1.4663 0.9687
-3.0745 7.1700 -1.4663 0.9687
-3.5815 6.9306 -1.4663 0.9687
-4.0700 6.6555 -1.4663 0.9687
-4.3066 6.5050 -1.4663 0.9687
-4.7627 6.1789 -1.4664 0.9687
-4.9816 6.0037 -1.4664 0.9687
-5.1942 5.8209 -1.4664 0.9687
-5.4000 5.6305 -1.4664 0.9687
-5.7904 5.2281 -1.4664 0.9687
-6.6317 4.1089 -1.4664 0.9687
-7.3052 3.1831 -1.4978 0.9681
-1.7940 0.7061 -0.3624 0.9922
-1.7858 0.6298 -0.3559 0.9923
-2.2689 6.5554 -1.4663 0.9720
-2.5030 6.4697 -1.4663 0.9720
-2.7339 6.3756 -1.4663 0.9720
-3.6191 5.9181 -1.4663 0.9720
-4.0348 5.6429 -1.4663 0.9720
-4.2350 5.4943 -1.4663 0.9720
-4.6187 5.1759 -1.4664 0.9720
-4.8017 5.0066 -1.4664 0.9720
-5.1489 4.6488 -1.4664 0.9720
-5.4695 4.2670 -1.4664 0.9720
-5.6193 4.0677 -1.4664 0.9720
-5.7618 3.8632 -1.4664 0.9720
-5.8969 3.6536 -1.4664 0.9720
-6.3582 3.3329 -1.5175 0.9711
-6.7721 3.2452 -1.5874 0.9698
-1.7077 0.6721 -0.3879 0.9925
-1.7037 0.6008 -0.3819 0.9926
-1.8274 5.9655 -1.4663 0.9747
-2.0406 5.8960 -1.4663 0.9747
-2.4588 5.7342 -1.4663 0.9747
-2.6633 5.6421 -1.4663 0.9747
-3.6289 5.0752 -1.4663 0.9747
-3.8089 4.9415 -1.4663 0.9747
-3.9841 4.8015 -1.4663 0.9747
-4.1540 4.6552 -1.4663 0.9747
-4.6309 4.1812 -1.4663 0.9747
-4.9193 3.8378 -1.4664 0.9747
-5.2783 3.5390 -1.4935 0.9742
-5.9427 3.3927 -1.6083 0.9723
-6.0828 3.1885 -1.6141 0.9722
-6.2058 2.9738 -1.6173 0.9721
-1.6339 0.7120 -0.4189 0.9927
-1.4631 5.4710 -1.4663 0.9769
-1.6588 5.4149 -1.4663 0.9769
-2.0434 5.2818 -1.4663 0.9769
-2.2319 5.2050 -1.4663 0.9769
-2.4175 5.1214 -1.4663 0.9769
-2.7791 4.9346 -1.4663 0.9769
-2.9546 4.8315 -1.4663 0.9769
-3.1263 4.7222 -1.4663 0.9769
-3.2940 4.6068 -1.4663 0.9769
-3.6164 4.3584 -1.4663 0.9769
-3.7707 4.2256 -1.4663 0.9769
-3.9201 4.0874 -1.4663 0.9769
-4.0644 3.9439 -1.4663 0.9769
-4.4368 3.7254 -1.5000 0.9763
-4.6923 3.6607 -1.5409 0.9757
-4.9620 3.5919 -1.5860 0.9750
-5.1722 3.4679 -1.6123 0.9746
-5.4258 3.0976 -1.6176 0.9745
-5.5374 2.9026 -1.6188 0.9745
-5.6381 2.7017 -1.6188 0.9745
-1.5666 0.6166 -0.4359 0.9931
-1.5621 0.5509 -0.4289 0.9932
-1.3382 5.0038 -1.4663 0.9787
-1.5171 4.9525 -1.4663 0.9787
-2.0413 4.7605 -1.4663 0.9787
-2.2110 4.6841 -1.4663 0.9787
-2.8594 4.3190 -1.4663 0.9787
-3.0127 4.2134 -1.4663 0.9787
-3.5211 3.9459 -1.4971 0.9783
-3.7276 3.8867 -1.5245 0.9779
-3.9422 3.8253 -1.5550 0.9774
-4.4956 3.5073 -1.6142 0.9766
-4.6250 3.3479 -1.6163 0.9765
-1.6313 0.9313 -0.5318 0.9922
-1.5129 0.7249 -0.4749 0.9931
-1.5083 0.5937 -0.4589 0.9933
-1.5049 0.5307 -0.4517 0.9934
-1.2323 4.6077 -1.4670 0.9802
-1.5605 4.5086 -1.4675 0.9802
-1.8882 4.4034 -1.4737 0.9801
-2.0544 4.3522 -1.4803 0.9801
-2.3919 4.2471 -1.4992 0.9798
-2.5643 4.1932 -1.5118 0.9796
-3.6298 3.7847 -1.6129 0.9783
-3.7670 3.6553 -1.6145 0.9783
-4.0285 3.3826 -1.6180 0.9782
-4.1495 3.2372 -1.6187 0.9782
-4.3713 2.9308 -1.6187 0.9782
-4.6613 2.4434 -1.6187 0.9782
-1.4560 0.6977 -0.4966 0.9933
-1.4552 0.6341 -0.4882 0.9934
-1.4510 0.5117 -0.4732 0.9936
-1.2255 4.5827 -1.5768 0.9802
-1.8800 4.3842 -1.5857 0.9801
-2.2124 4.2812 -1.6019 0.9799
-2.6783 4.0455 -1.6127 0.9798
-2.8236 3.9490 -1.6137 0.9797
-2.9656 3.8475 -1.6148 0.9797
-3.2391 3.6299 -1.6172 0.9797
-3.4949 3.3912 -1.6187 0.9797
-3.6145 3.2635 -1.6187 0.9797
-1.5795 0.9017 -0.6046 0.9924
-1.4026 0.6721 -0.5170 0.9935
-1.4018 0.5518 -0.5008 0.9937
-1.4002 0.4938 -0.4935 0.9938
-1.1667 4.3624 -1.6149 0.9810
-1.3226 4.3176 -1.6148 0.9810
-1.9286 4.0856 -1.6156 0.9810
-2.4976 3.7726 -1.6180 0.9810
-2.6328 3.6821 -1.6187 0.9810
-2.7634 3.5852 -1.6187 0.9810
-3.0138 3.3774 -1.6187 0.9810
-3.1332 3.2670 -1.6187 0.9810
-3.5690 2.7843 -1.6187 0.9810
-3.6667 2.6543 -1.6187 0.9810
-3.7597 2.5208 -1.6187 0.9810
-1.3505 0.7079 -0.5453 0.9935
-1.3523 0.6480 -0.5362 0.9937
-1.3531 0.5326 -0.5200 0.9938
-1.3526 0.4770 -0.5129 0.9939
-1.2372 4.0388 -1.6187 0.9821
-1.6647 3.8822 -1.6187 0.9821
-1.8031 3.8199 -1.6187 0.9821
-1.9392 3.7526 -1.6187 0.9821
-2.0728 3.6805 -1.6187 0.9821
-2.2037 3.6036 -1.6187 0.9821
-3.1352 2.8308 -1.6187 0.9821
-3.2349 2.7162 -1.6187 0.9821
-3.4217 2.4769 -1.6187 0.9821
-1.2987 0.7414 -0.5731 0.9936
-1.3022 0.6826 -0.5634 0.9937
-1.3047 0.6252 -0.5544 0.9938
-1.3074 0.5146 -0.5384 0.9940
-1.3075 0.4611 -0.5313 0.9941
-1.0218 3.8208 -1.6187 0.9831
-1.2936 3.7376 -1.6187 0.9831
-1.5587 3.6350 -1.6187 0.9831
-1.6883 3.5767 -1.6187 0.9831
-2.0634 3.3742 -1.6187 0.9831
-2.1833 3.2979 -1.6187 0.9831
-2.4146 3.1326 -1.6187 0.9831
-2.5256 3.0438 -1.6187 0.9831
-2.6333 2.9510 -1.6187 0.9831
-2.8385 2.7543 -1.6187 0.9831
-2.9356 2.6505 -1.6187 0.9831
-3.0290 2.5433 -1.6187 0.9831
-1.2623 0.5500 -0.5635 0.9941
-1.2639 0.4975 -0.5559 0.9941
-0.9596 3.5881 -1.6187 0.9839
-1.0879 3.5513 -1.6187 0.9839
-1.2148 3.5100 -1.6187 0.9839
-1.5855 3.3588 -1.6187 0.9839
-1.9378 3.1687 -1.6187 0.9839
-2.0504 3.0970 -1.6187 0.9839
-2.1603 3.0214 -1.6187 0.9839
-2.2675 2.9418 -1.6187 0.9839
-2.6656 2.5866 -1.6187 0.9839
-2.7568 2.4891 -1.6187 0.9839
-2.8445 2.3884 -1.6187 0.9839
-2.9285 2.2847 -1.6187 0.9839
-3.0850 2.0684 -1.6187 0.9839
-1.2027 0.7452 -0.6166 0.9938
-1.2084 0.6899 -0.6064 0.9939
-1.2134 0.6360 -0.5970 0.9940
-1.2174 0.5834 -0.5883 0.9941
-1.2203 0.5317 -0.5801 0.9942
-1.2225 0.4812 -0.5725 0.9943
-0.9034 3.3783 -1.6187 0.9847
-1.0243 3.3437 -1.6187 0.9847
-1.1438 3.3047 -1.6187 0.9847
-1.3782 3.2140 -1.6187 0.9847
-1.4928 3.1624 -1.6187 0.9847
-1.8244 2.9834 -1.6187 0.9847
-1.9305 2.9159 -1.6187 0.9847
-2.0340 2.8447 -1.6187 0.9847
-2.2331 2.6912 -1.6187 0.9847
-2.3283 2.6093 -1.6187 0.9847
-2.4206 2.5239 -1.6187 0.9847
-2.5956 2.3435 -1.6187 0.9847
-2.6781 2.2487 -1.6187 0.9847
-2.8328 2.0506 -1.6187 0.9847
-1.1532 0.7732 -0.6427 0.9939
-1.1829 0.4656 -0.5884 0.9944
-1.1845 0.4177 -0.5814 0.9945
-0.9666 3.1553 -1.6187 0.9854
-1.0793 3.1185 -1.6187 0.9854
-1.6194 2.8754 -1.6187 0.9854
-2.0146 2.6137 -1.6187 0.9854
-2.1072 2.5396 -1.6187 0.9854
-2.1971 2.4622 -1.6187 0.9854
-2.2842 2.3817 -1.6187 0.9854
-2.5273 2.1220 -1.6187 0.9854
-2.6019 2.0298 -1.6187 0.9854
-1.1385 0.8242 -0.6894 0.9938
-1.1208 0.6944 -0.6467 0.9941
-1.1383 0.5455 -0.6192 0.9944
-1.1422 0.4977 -0.6111 0.9945
-1.1451 0.4507 -0.6036 0.9945
-0.8061 3.0143 -1.6187 0.9860
-1.0205 2.9487 -1.6187 0.9860
-1.1258 2.9101 -1.6187 0.9860
-1.3319 2.8217 -1.6187 0.9860
-1.4325 2.7720 -1.6187 0.9860
-1.8148 2.5382 -1.6187 0.9860
-1.9049 2.4713 -1.6187 0.9860
-2.0775 2.3281 -1.6187 0.9860
-2.3896 2.0065 -1.6187 0.9860
-1.0597 0.8267 -0.6972 0.9940
-1.0689 0.7167 -0.6676 0.9942
-1.0829 0.6709 -0.6609 0.9943
-1.0901 0.6223 -0.6512 0.9944
-1.0962 0.5746 -0.6421 0.9944
-1.1056 0.4817 -0.6256 0.9946
-1.1088 0.4364 -0.6182 0.9946
-1.1113 0.3919 -0.6113 0.9947
-0.7636 2.8551 -1.6187 0.9866
-0.8657 2.8259 -1.6187 0.9866
-0.9667 2.7929 -1.6187 0.9866
-1.0664 2.7564 -1.6187 0.9866
-1.1647 2.7163 -1.6187 0.9866
-1.3568 2.6256 -1.6187 0.9866
-1.6315 2.4644 -1.6187 0.9866
-1.7190 2.4041 -1.6187 0.9866
-1.8043 2.3408 -1.6187 0.9866
-1.8872 2.2745 -1.6187 0.9866
-2.1936 1.9806 -1.6187 0.9866
-0.9971 0.8372 -0.7131 0.9941
-0.9785 0.7634 -0.6797 0.9944
-0.9995 0.7235 -0.6758 0.9944
-1.0373 0.6427 -0.6684 0.9944
-1.0705 0.4664 -0.6396 0.9947
-1.0741 0.4228 -0.6322 0.9947
-0.7243 2.7085 -1.6187 0.9871
-0.8212 2.6807 -1.6187 0.9871
-1.0116 2.6149 -1.6187 0.9871
-1.1049 2.5768 -1.6187 0.9871
-1.1968 2.5354 -1.6187 0.9871
-1.2872 2.4908 -1.6187 0.9871
-1.4627 2.3919 -1.6187 0.9871
-1.5477 2.3378 -1.6187 0.9871
-1.6308 2.2807 -1.6187 0.9871
-1.7903 2.1577 -1.6187 0.9871
-1.9407 2.0235 -1.6187 0.9871
-0.9271 0.8371 -0.7212 0.9942
-0.9159 0.7691 -0.6905 0.9945
-0.9537 0.6904 -0.6798 0.9946
-0.9727 0.6522 -0.6761 0.9946
-0.9904 0.6136 -0.6726 0.9946
-1.0406 0.4096 -0.6456 0.9948
-1.0455 0.3687 -0.6401 0.9949
