ply
format ascii 1.0
element vertex 419
property float32 x
property float32 y
property float32 z
property float32 I
end_header
40.3828 27.6605 0.8268 0.8222
39.4439 24.9745 -0.2625 0.8297
35.4316 14.3123 -1.0760 0.8582
28.3675 -5.5690 -1.4661 0.8907
28.9064 -0.3846 -1.4661 0.8907
28.9589 3.8194 -1.4813 0.8896
29.7939 5.0298 -1.5324 0.8860
30.6207 6.3141 -1.5856 0.8823
30.9706 7.5614 -1.6168 0.8801
30.3764 9.7868 -1.6185 0.8800
30.0034 10.8771 -1.6185 0.8800
29.5913 11.9532 -1.6185 0.8800
29.1404 13.0137 -1.6185 0.8800
28.6518 14.0573 -1.6185 0.8800
26.3304 18.0352 -1.6185 0.8800
24.9606 19.8882 -1.6185 0.8800
23.4607 21.6376 -1.6186 0.8800
22.6643 22.4706 -1.6186 0.8800
20.9840 24.0475 -1.6186 0.8800
17.3872 23.0985 -1.4662 0.8907
20.0090 -5.4531 -1.5206 0.9202
20.7468 -4.8568 -1.5623 0.9181
21.9937 -1.8855 -1.6185 0.9153
22.0725 -0.2937 -1.6185 0.9153
22.0687 0.5034 -1.6185 0.9153
22.0362 1.2998 -1.6185 0.9153
21.9749 2.0945 -1.6185 0.9153
21.7666 3.6747 -1.6186 0.9153
21.2418 6.0065 -1.6186 0.9153
21.0111 6.7694 -1.6186 0.9153
20.7531 7.5236 -1.6186 0.9153
20.4680 8.2679 -1.6186 0.9153
18.2123 12.4747 -1.6186 0.9153
16.2273 14.9663 -1.6186 0.9153
12.5952 15.5321 -1.4662 0.9229
16.4156 -3.8429 -1.6186 0.9345
16.5436 -3.2478 -1.6186 0.9345
16.7348 -2.0456 -1.6186 0.9345
16.7978 -1.4401 -1.6186 0.9345
16.8579 -0.2243 -1.6186 0.9345
16.8550 0.3845 -1.6186 0.9345
16.7834 1.5996 -1.6186 0.9345
16.7147 2.2045 -1.6186 0.9345
16.5121 3.4049 -1.6186 0.9345
16.3784 3.9987 -1.6186 0.9345
16.2234 4.5874 -1.6186 0.9345
15.6324 6.3146 -1.6186 0.9345
14.8581 7.9677 -1.6186 0.9345
14.2445 9.0191 -1.6186 0.9345
13.9096 9.5275 -1.6186 0.9345
12.3935 11.4304 -1.6186 0.9345
9.6195 11.8625 -1.4663 0.9405
9.1850 12.2021 -1.4663 0.9405
13.2676 -3.1060 -1.6186 0.9466
13.4571 -2.1405 -1.6186 0.9466
13.5256 -1.6533 -1.6186 0.9466
13.6251 -0.1813 -1.6186 0.9466
13.6027 0.8023 -1.6186 0.9466
13.2375 3.2319 -1.6186 0.9466
12.8105 4.6442 -1.6186 0.9466
12.6345 5.1036 -1.6186 0.9466
12.4421 5.5564 -1.6186 0.9466
12.2334 6.0020 -1.6186 0.9466
11.7684 6.8691 -1.6186 0.9466
11.5128 7.2895 -1.6186 0.9466
10.3438 8.8707 -1.6186 0.9466
10.0168 9.2384 -1.6186 0.9466
9.6767 9.5940 -1.6186 0.9466
9.3026 9.9142 -1.6149 0.9467
7.7747 9.5876 -1.4663 0.9515
7.4236 9.8620 -1.4663 0.9515
11.0218 -3.0038 -1.6186 0.9549
11.1231 -2.6039 -1.6186 0.9549
11.2820 -1.7945 -1.6186 0.9549
11.3394 -1.3861 -1.6186 0.9549
11.3820 -0.9758 -1.6186 0.9549
11.4098 -0.5642 -1.6186 0.9549
11.4228 -0.1520 -1.6186 0.9549
11.4040 0.6726 -1.6186 0.9549
11.3722 1.0839 -1.6186 0.9549
11.3257 1.4937 -1.6186 0.9549
11.2644 1.9017 -1.6186 0.9549
11.1884 2.3071 -1.6186 0.9549
10.9928 3.1084 -1.6186 0.9549
10.8734 3.5032 -1.6186 0.9549
10.5923 4.2787 -1.6186 0.9549
10.0677 5.3988 -1.6186 0.9549
9.8662 5.7588 -1.6186 0.9549
9.6519 6.1112 -1.6186 0.9549
9.4250 6.4557 -1.6186 0.9549
9.1858 6.7918 -1.6186 0.9549
8.6718 7.4369 -1.6187 0.9549
8.3977 7.7451 -1.6187 0.9549
7.8169 8.3309 -1.6187 0.9549
7.4893 8.5827 -1.6140 0.9550
6.7248 8.2929 -1.5128 0.9578
6.2236 8.2679 -1.4663 0.9591
9.4797 -2.5835 -1.6186 0.9610
9.5668 -2.2396 -1.6186 0.9610
9.6414 -1.8928 -1.6186 0.9610
9.7035 -1.5435 -1.6186 0.9610
9.8135 -0.4853 -1.6186 0.9610
9.8246 -0.1307 -1.6186 0.9610
9.8229 0.2241 -1.6186 0.9610
9.6884 1.6356 -1.6186 0.9610
9.6230 1.9843 -1.6186 0.9610
9.5451 2.3304 -1.6186 0.9610
9.4548 2.6735 -1.6186 0.9610
8.9715 4.0065 -1.6186 0.9610
8.8210 4.3279 -1.6186 0.9610
8.3015 5.2562 -1.6187 0.9610
8.1063 5.5525 -1.6187 0.9610
7.9006 5.8415 -1.6187 0.9610
7.4585 6.3964 -1.6187 0.9610
7.2227 6.6615 -1.6187 0.9610
6.7233 7.1653 -1.6187 0.9610
6.1761 7.6162 -1.6154 0.9610
8.4503 -1.6589 -1.6186 0.9656
8.5047 -1.3528 -1.6186 0.9656
8.5480 -1.0449 -1.6186 0.9656
8.5622 -0.1139 -1.6095 0.9657
8.5967 0.5071 -1.6186 0.9656
8.5377 1.1261 -1.6186 0.9656
8.4915 1.4335 -1.6186 0.9656
8.4342 1.7392 -1.6186 0.9656
8.3659 2.0425 -1.6187 0.9656
8.0961 2.9350 -1.6187 0.9656
7.9849 3.2254 -1.6187 0.9656
7.7313 3.7932 -1.6187 0.9656
7.4375 4.3412 -1.6187 0.9656
7.2759 4.6068 -1.6187 0.9656
6.7352 5.3665 -1.6187 0.9656
6.5371 5.6061 -1.6187 0.9656
6.3304 5.8385 -1.6187 0.9656
6.1155 6.0632 -1.6187 0.9656
5.6621 6.4887 -1.6187 0.9656
5.4242 6.6889 -1.6187 0.9656
7.5625 -1.2029 -1.6187 0.9692
7.6010 -0.9291 -1.6187 0.9692
7.6296 -0.6541 -1.6187 0.9692
7.6569 -0.1019 -1.6187 0.9692
7.6443 0.4509 -1.6187 0.9692
7.6230 0.7266 -1.6187 0.9692
7.5918 1.0013 -1.6187 0.9692
7.5507 1.2747 -1.6187 0.9692
7.4998 1.5465 -1.6187 0.9692
7.3687 2.0836 -1.6187 0.9692
7.2886 2.3483 -1.6187 0.9692
7.1002 2.8681 -1.6187 0.9692
6.9920 3.1225 -1.6187 0.9692
6.8748 3.3729 -1.6187 0.9692
6.4698 4.0965 -1.6187 0.9692
6.1574 4.5526 -1.6187 0.9692
5.9890 4.7720 -1.6187 0.9692
5.8128 4.9850 -1.6187 0.9692
5.4380 5.3915 -1.6187 0.9692
5.2398 5.5843 -1.6187 0.9692
4.8232 5.9478 -1.6187 0.9692
6.7060 -1.5699 -1.6187 0.9721
6.7582 -1.3267 -1.6187 0.9721
6.8017 -1.0819 -1.6187 0.9721
6.8621 -0.5883 -1.6187 0.9721
6.8866 -0.0916 -1.6187 0.9721
6.8855 0.1570 -1.6187 0.9721
6.8562 0.6535 -1.6187 0.9721
6.8281 0.9006 -1.6187 0.9721
6.7453 1.3909 -1.6187 0.9721
6.6907 1.6335 -1.6187 0.9721
6.5554 2.1121 -1.6187 0.9721
6.4749 2.3473 -1.6187 0.9721
6.3859 2.5796 -1.6187 0.9721
6.2887 2.8084 -1.6187 0.9721
5.8189 3.6844 -1.6187 0.9721
5.6821 3.8920 -1.6187 0.9721
5.5380 4.0946 -1.6187 0.9721
5.0628 4.6694 -1.6187 0.9721
4.8909 4.8491 -1.6187 0.9721
4.5283 5.1894 -1.6187 0.9721
4.3380 5.3496 -1.6187 0.9721
4.1421 5.5026 -1.6187 0.9721
6.0871 -1.4250 -1.6187 0.9745
6.1346 -1.2043 -1.6187 0.9745
6.2440 -0.3088 -1.6187 0.9745
6.2511 -0.0832 -1.6187 0.9745
6.2408 0.3681 -1.6187 0.9745
6.2235 0.5932 -1.6187 0.9745
6.1980 0.8175 -1.6187 0.9745
6.1228 1.2626 -1.6187 0.9745
6.0733 1.4828 -1.6187 0.9745
6.0158 1.7011 -1.6187 0.9745
5.9505 1.9171 -1.6187 0.9745
5.8774 2.1307 -1.6187 0.9745
5.5095 2.9545 -1.6187 0.9745
5.2820 3.3443 -1.6187 0.9745
5.1578 3.5329 -1.6187 0.9745
5.0269 3.7168 -1.6187 0.9745
4.7456 4.0698 -1.6187 0.9745
4.1104 4.7105 -1.6187 0.9745
3.7598 4.9948 -1.6187 0.9745
5.6107 -1.1015 -1.6187 0.9765
5.6468 -0.8982 -1.6187 0.9765
5.6969 -0.4884 -1.6187 0.9765
5.7108 -0.2824 -1.6187 0.9765
5.7163 0.1304 -1.6187 0.9765
5.6920 0.5425 -1.6187 0.9765
5.6687 0.7476 -1.6187 0.9765
5.6380 0.9518 -1.6187 0.9765
5.5547 1.3562 -1.6187 0.9765
5.5021 1.5558 -1.6187 0.9765
5.4423 1.7534 -1.6187 0.9765
5.3016 2.1416 -1.6187 0.9765
5.0390 2.7022 -1.6187 0.9765
4.8309 3.0588 -1.6187 0.9765
4.5976 3.3994 -1.6187 0.9765
4.3403 3.7223 -1.6187 0.9765
4.2032 3.8765 -1.6187 0.9765
4.0605 4.0257 -1.6187 0.9765
3.9125 4.1697 -1.6187 0.9765
3.7594 4.3083 -1.6187 0.9765
3.4387 4.5683 -1.6187 0.9765
5.1641 -1.0138 -1.6187 0.9782
5.2238 -0.6385 -1.6187 0.9782
5.2562 -0.2599 -1.6187 0.9782
5.2389 0.4993 -1.6187 0.9782
5.1125 1.2482 -1.6187 0.9782
5.0091 1.6139 -1.6187 0.9782
4.8796 1.9711 -1.6187 0.9782
4.8053 2.1459 -1.6187 0.9782
4.6379 2.4871 -1.6187 0.9782
4.5451 2.6529 -1.6187 0.9782
4.4463 2.8153 -1.6187 0.9782
4.3418 2.9739 -1.6187 0.9782
4.2316 3.1288 -1.6187 0.9782
4.1159 3.2795 -1.6187 0.9782
3.9948 3.4259 -1.6187 0.9782
3.8686 3.5679 -1.6187 0.9782
3.7372 3.7053 -1.6187 0.9782
3.4601 3.9653 -1.6187 0.9782
3.3147 4.0876 -1.6187 0.9782
4.7414 -1.1100 -1.6187 0.9797
4.7784 -0.9381 -1.6187 0.9797
4.8091 -0.7650 -1.6187 0.9797
4.8336 -0.5908 -1.6187 0.9797
4.8518 -0.4159 -1.6187 0.9797
4.8636 -0.2405 -1.6187 0.9797
4.8611 0.2867 -1.6187 0.9797
4.8476 0.4620 -1.6187 0.9797
4.8278 0.6367 -1.6187 0.9797
4.8016 0.8106 -1.6187 0.9797
4.7693 0.9834 -1.6187 0.9797
4.6350 1.4933 -1.6187 0.9797
4.2056 2.4548 -1.6187 0.9797
4.1143 2.6050 -1.6187 0.9797
3.5796 3.3015 -1.6187 0.9797
3.4581 3.4285 -1.6187 0.9797
3.3321 3.5512 -1.6187 0.9797
2.9286 3.8906 -1.6187 0.9797
4.4930 -0.5492 -1.6187 0.9810
4.5099 -0.3866 -1.6187 0.9810
4.5260 -0.0602 -1.6187 0.9810
4.5252 0.1032 -1.6187 0.9810
4.5186 0.2665 -1.6187 0.9810
4.5060 0.4295 -1.6187 0.9810
4.4875 0.5919 -1.6187 0.9810
4.4633 0.7535 -1.6187 0.9810
4.2554 1.5427 -1.6187 0.9810
3.9891 2.1392 -1.6187 0.9810
3.8243 2.4214 -1.6187 0.9810
3.7344 2.5579 -1.6187 0.9810
3.4360 2.9467 -1.6187 0.9810
3.3273 3.0688 -1.6187 0.9810
3.2144 3.1869 -1.6187 0.9810
2.8510 3.5158 -1.6187 0.9810
4.1127 -0.9628 -1.6187 0.9821
4.1927 -0.5125 -1.6187 0.9821
4.2085 -0.3608 -1.6187 0.9821
4.2188 -0.2086 -1.6187 0.9821
4.2236 -0.0562 -1.6187 0.9821
4.2228 0.0963 -1.6187 0.9821
4.2166 0.2487 -1.6187 0.9821
4.1650 0.7031 -1.6187 0.9821
4.1369 0.8530 -1.6187 0.9821
4.1034 1.0018 -1.6187 0.9821
4.0204 1.2953 -1.6187 0.9821
3.9165 1.5820 -1.6187 0.9821
3.8568 1.7224 -1.6187 0.9821
3.7921 1.8605 -1.6187 0.9821
3.7225 1.9962 -1.6187 0.9821
3.3964 2.5112 -1.6187 0.9821
3.1050 2.8637 -1.6187 0.9821
2.7772 3.1826 -1.6187 0.9821
2.5403 3.3747 -1.6187 0.9821
3.8809 -0.7619 -1.6187 0.9831
3.9059 -0.6213 -1.6187 0.9831
3.9540 0.0902 -1.6187 0.9831
3.9372 0.3753 -1.6187 0.9831
3.9210 0.5171 -1.6187 0.9831
3.8998 0.6584 -1.6187 0.9831
3.8735 0.7987 -1.6187 0.9831
3.8422 0.9380 -1.6187 0.9831
3.7182 1.3480 -1.6187 0.9831
3.6113 1.6127 -1.6187 0.9831
3.2630 2.2350 -1.6187 0.9831
3.1802 2.3513 -1.6187 0.9831
3.0022 2.5747 -1.6187 0.9831
2.8086 2.7846 -1.6187 0.9831
2.7062 2.8842 -1.6187 0.9831
2.6004 2.9800 -1.6187 0.9831
3.5834 -0.9766 -1.6187 0.9839
3.6680 -0.5834 -1.6187 0.9839
3.7006 -0.3172 -1.6187 0.9839
3.7096 -0.1835 -1.6187 0.9839
3.6974 0.3524 -1.6187 0.9839
3.6822 0.4857 -1.6187 0.9839
3.6623 0.6183 -1.6187 0.9839
3.6082 0.8809 -1.6187 0.9839
3.5740 1.0106 -1.6187 0.9839
3.5352 1.1390 -1.6187 0.9839
3.4438 1.3911 -1.6187 0.9839
3.3344 1.6360 -1.6187 0.9839
3.2732 1.7553 -1.6187 0.9839
3.1380 1.9869 -1.6187 0.9839
2.9865 2.2081 -1.6187 0.9839
2.7302 2.5181 -1.6187 0.9839
3.3739 -0.9195 -1.6187 0.9847
3.4049 -0.7971 -1.6187 0.9847
3.4711 -0.4243 -1.6187 0.9847
3.4842 -0.2987 -1.6187 0.9847
3.4927 -0.1727 -1.6187 0.9847
3.4966 -0.0465 -1.6187 0.9847
3.4961 0.0798 -1.6187 0.9847
3.4669 0.4573 -1.6187 0.9847
3.4249 0.7062 -1.6187 0.9847
3.3972 0.8294 -1.6187 0.9847
3.3650 0.9515 -1.6187 0.9847
3.3285 1.0724 -1.6187 0.9847
3.2876 1.1918 -1.6187 0.9847
3.2424 1.3098 -1.6187 0.9847
3.1395 1.5403 -1.6187 0.9847
3.0818 1.6526 -1.6187 0.9847
2.9545 1.8707 -1.6187 0.9847
2.8118 2.0790 -1.6187 0.9847
2.6545 2.2765 -1.6187 0.9847
2.4833 2.4621 -1.6187 0.9847
2.2992 2.6349 -1.6187 0.9847
2.2026 2.7162 -1.6187 0.9847
2.1031 2.7939 -1.6187 0.9847
3.1838 -0.8677 -1.6187 0.9854
3.2589 -0.5184 -1.6187 0.9854
3.2755 -0.4004 -1.6187 0.9854
3.2959 -0.1630 -1.6187 0.9854
3.2990 0.0753 -1.6187 0.9854
3.2850 0.3131 -1.6187 0.9854
3.2319 0.6664 -1.6187 0.9854
3.2058 0.7827 -1.6187 0.9854
3.1024 1.1247 -1.6187 0.9854
3.0131 1.3456 -1.6187 0.9854
2.9082 1.5595 -1.6187 0.9854
2.7881 1.7653 -1.6187 0.9854
2.7225 1.8648 -1.6187 0.9854
2.6534 1.9619 -1.6187 0.9854
2.4258 2.2373 -1.6187 0.9854
2.2580 2.4065 -1.6187 0.9854
2.1696 2.4864 -1.6187 0.9854
2.0785 2.5631 -1.6187 0.9854
1.9846 2.6365 -1.6187 0.9854
3.0815 -0.4901 -1.6187 0.9860
3.0971 -0.3786 -1.6187 0.9860
3.1199 -0.0415 -1.6187 0.9860
3.1061 0.2960 -1.6187 0.9860
3.0311 0.7400 -1.6187 0.9860
3.0025 0.8490 -1.6187 0.9860
2.9698 0.9568 -1.6187 0.9860
2.8931 1.1686 -1.6187 0.9860
2.8490 1.2723 -1.6187 0.9860
2.8012 1.3743 -1.6187 0.9860
2.5742 1.7632 -1.6187 0.9860
2.4403 1.9444 -1.6187 0.9860
2.3685 2.0312 -1.6187 0.9860
2.1350 2.2754 -1.6187 0.9860
2.0515 2.3510 -1.6187 0.9860
1.8765 2.4929 -1.6187 0.9860
2.9001 -0.5693 -1.6187 0.9866
2.9551 -0.0393 -1.6187 0.9866
2.9546 0.0674 -1.6187 0.9866
2.9142 0.4920 -1.6187 0.9866
2.8711 0.7010 -1.6187 0.9866
2.8439 0.8042 -1.6187 0.9866
2.8130 0.9063 -1.6187 0.9866
2.7785 1.0073 -1.6187 0.9866
2.7403 1.1069 -1.6187 0.9866
2.6985 1.2051 -1.6187 0.9866
2.6533 1.3018 -1.6187 0.9866
2.6046 1.3967 -1.6187 0.9866
2.4970 1.5810 -1.6187 0.9866
2.4383 1.6701 -1.6187 0.9866
2.3764 1.7571 -1.6187 0.9866
2.3114 1.8417 -1.6187 0.9866
2.2434 1.9240 -1.6187 0.9866
2.0988 2.0808 -1.6187 0.9866
2.7829 -0.3402 -1.6187 0.9871
2.7934 -0.2395 -1.6187 0.9871
2.8002 -0.1385 -1.6187 0.9871
2.8034 -0.0373 -1.6187 0.9871
2.8029 0.0639 -1.6187 0.9871
2.7988 0.1651 -1.6187 0.9871
2.7910 0.2660 -1.6187 0.9871
2.7459 0.5662 -1.6187 0.9871
2.7237 0.6650 -1.6187 0.9871
2.6979 0.7629 -1.6187 0.9871
2.6358 0.9556 -1.6187 0.9871
2.4708 1.3250 -1.6187 0.9871
2.4214 1.4133 -1.6187 0.9871
2.3688 1.4998 -1.6187 0.9871
2.3131 1.5844 -1.6187 0.9871
2.0610 1.9008 -1.6187 0.9871
1.9184 2.0446 -1.6187 0.9871
1.8434 2.1125 -1.6187 0.9871
1.7659 2.1777 -1.6187 0.9871
