ply
format ascii 1.0
element vertex 581
property float32 x
property float32 y
property float32 z
property float32 I
end_header
-35.8987 -28.2852 8.0587 0.8306
-23.0759 -37.7795 7.8059 0.8354
-21.5146 -38.2105 7.7321 0.8368
-20.0014 -38.6739 7.6773 0.8379
-16.9771 -39.4632 7.5750 0.8399
-15.4991 -39.8713 7.5429 0.8405
-14.7845 -42.4367 7.9239 0.8332
-13.2042 -42.7273 7.8855 0.8339
-8.1942 -41.8880 7.5260 0.8408
-3.7450 -43.1164 7.6312 0.8388
-2.2277 -43.5353 7.6865 0.8377
-32.6561 -36.7934 7.5364 0.8195
-23.0758 -37.7795 6.7818 0.8360
-16.9771 -39.4632 6.5812 0.8404
-15.4991 -39.8713 6.5533 0.8410
-3.7040 -15.9126 2.5030 0.9360
-6.7464 -42.4335 6.5822 0.8404
-2.2277 -43.5353 6.6781 0.8383
4.1127 -45.1037 6.9383 0.8325
5.7935 -45.5735 7.0378 0.8304
9.3153 -46.5579 7.2738 0.8252
-16.9175 -39.3247 5.5746 0.8414
-13.9826 -40.1349 5.5345 0.8425
-12.5272 -40.5367 5.5250 0.8427
-8.1654 -41.7409 5.5386 0.8423
-6.7004 -42.1443 5.5570 0.8419
-5.2274 -42.5811 5.5866 0.8411
-1.1249 -21.9840 2.8665 0.9150
2.5043 -45.1427 5.8876 0.8333
4.1127 -45.1037 5.8978 0.8330
5.7935 -45.5735 5.9824 0.8308
7.5254 -46.0576 6.0772 0.8284
9.3154 -46.5579 6.1830 0.8257
11.1712 -47.0766 6.3006 0.8227
14.4478 -46.0496 6.2848 0.8231
-23.0758 -37.7794 4.7537 0.8369
-21.5146 -38.2105 4.7088 0.8383
-18.4886 -39.0914 4.6435 0.8403
-14.0318 -40.2763 4.5799 0.8423
-12.5844 -40.7215 4.5768 0.8424
-11.1141 -41.0818 4.5700 0.8426
-6.7310 -42.3364 4.6033 0.8416
-5.2596 -42.8428 4.6351 0.8406
-1.1219 -21.9251 2.3574 0.9155
2.5042 -45.1428 4.8550 0.8337
5.7934 -45.5735 4.9332 0.8313
7.5254 -46.0576 5.0113 0.8288
11.1712 -47.0766 5.1955 0.8231
13.6496 -43.5054 4.8962 0.8324
-23.0037 -37.6614 3.7358 0.8376
-19.9332 -38.5423 3.6732 0.8401
-18.4464 -39.0021 3.6523 0.8410
-16.9557 -39.4136 3.6321 0.8418
-15.3102 -39.3851 3.5771 0.8440
-12.5556 -40.6284 3.5998 0.8431
-8.1839 -41.8353 3.6086 0.8427
-6.7155 -42.2396 3.6206 0.8422
-3.7401 -43.0611 3.6590 0.8407
-0.6843 -43.8353 3.7112 0.8386
2.5043 -45.1428 3.8273 0.8340
11.1712 -47.0766 4.0958 0.8235
-23.9657 -23.4196 2.0779 0.8743
-27.4259 -33.2043 2.6706 0.8415
-16.9771 -39.4632 2.6640 0.8418
-15.3500 -39.4875 2.6271 0.8438
-12.4946 -40.4312 2.6241 0.8440
-8.1942 -41.8879 2.6467 0.8428
-3.7448 -43.1152 2.6837 0.8408
2.5043 -45.1428 2.8036 0.8343
5.7935 -45.5735 2.8488 0.8318
9.3154 -46.5579 2.9443 0.8267
12.4696 -35.3036 2.3217 0.8607
-27.4357 -33.2161 1.6987 0.8416
-23.0758 -37.7795 1.7456 0.8376
-21.5146 -38.2105 1.7291 0.8390
-19.9807 -38.6340 1.7150 0.8402
-16.9771 -39.4632 1.6940 0.8420
-15.3500 -39.4875 1.6705 0.8440
-12.4946 -40.4312 1.6686 0.8442
-11.1141 -41.0818 1.6781 0.8434
-5.2596 -42.8428 1.7020 0.8413
-2.2276 -43.5341 1.7188 0.8399
-0.6863 -43.9596 1.7336 0.8386
4.1127 -45.1037 1.7859 0.8342
5.7935 -45.5735 1.8115 0.8320
7.5254 -46.0576 1.8402 0.8296
9.3154 -46.5579 1.8722 0.8269
11.1711 -47.0766 1.9078 0.8239
12.3790 -44.9906 1.8400 0.8296
13.1918 -42.0465 1.7376 0.8383
-27.4357 -33.2161 0.7277 0.8417
-21.5146 -38.2105 0.7407 0.8391
-19.9807 -38.6340 0.7347 0.8403
-16.9771 -39.4632 0.7257 0.8421
-11.7537 -38.0337 0.6724 0.8528
-11.1141 -41.0818 0.7189 0.8434
-2.2276 -43.5341 0.7363 0.8400
-0.6863 -43.9596 0.7427 0.8387
2.5043 -45.1428 0.7637 0.8345
4.1127 -45.1037 0.7650 0.8343
5.7934 -45.5735 0.7760 0.8321
7.5254 -46.0576 0.7883 0.8297
9.3154 -46.5579 0.8020 0.8270
11.1712 -47.0766 0.8173 0.8240
12.3790 -44.9906 0.7882 0.8297
-33.0906 -26.0727 -0.2372 0.8449
-33.8043 -28.6377 -0.2494 0.8376
-35.4877 -34.6789 -0.2794 0.8200
-27.4356 -33.2161 -0.2426 0.8417
-23.0757 -37.7795 -0.2492 0.8377
-21.5146 -38.2105 -0.2469 0.8391
-19.9806 -38.6340 -0.2449 0.8403
-14.0781 -40.4092 -0.2409 0.8427
-11.8219 -38.2544 -0.2254 0.8520
-3.7008 -15.8989 -0.0919 0.9368
-5.2525 -42.7855 -0.2427 0.8416
-2.2276 -43.5341 -0.2454 0.8400
2.5043 -45.1428 -0.2545 0.8346
9.3154 -46.5579 -0.2673 0.8270
12.3791 -44.9906 -0.2627 0.8297
13.9199 -39.4096 -0.2353 0.8460
-23.7079 -21.5762 -0.9026 0.8796
-35.6551 -34.8425 -1.4037 0.8191
-25.3823 -26.6303 -1.0359 0.8631
-26.5034 -29.8613 -1.1242 0.8523
-27.4006 -33.1736 -1.2115 0.8418
-7.9208 -14.0676 -0.4546 0.9374
-6.6352 -14.0292 -0.4370 0.9398
-14.0781 -40.4092 -1.2049 0.8426
-2.1288 -13.3896 -0.3818 0.9472
-1.6280 -13.2609 -0.3762 0.9479
-1.1560 -13.3097 -0.3762 0.9479
-2.2276 -43.5341 -1.2274 0.8399
2.5043 -45.1429 -1.2731 0.8345
4.1127 -45.1037 -1.2753 0.8342
9.3154 -46.5579 -1.3370 0.8270
13.1918 -42.0466 -1.2408 0.8383
13.9199 -39.4096 -1.1769 0.8460
-22.0631 -18.6911 -1.4665 0.8906
-18.4277 -22.3106 -1.4675 0.8906
-17.6805 -23.0242 -1.4722 0.8902
-16.9091 -23.7176 -1.4772 0.8899
-7.8098 -13.8705 -0.8073 0.9382
-6.5238 -13.7935 -0.7738 0.9407
-5.9357 -13.7975 -0.7617 0.9416
-5.5025 -14.1550 -0.7702 0.9410
-9.9462 -28.5491 -1.5332 0.8860
-7.9916 -25.8598 -1.3727 0.8973
-3.7576 -13.8897 -0.7297 0.9440
-2.1032 -13.2289 -0.6793 0.9478
-1.6086 -13.1035 -0.6695 0.9485
-0.6729 -13.1517 -0.6679 0.9486
2.6936 -29.5406 -1.5043 0.8880
4.7869 -29.2973 -1.5055 0.8879
6.8447 -28.8448 -1.5035 0.8880
7.8579 -28.5589 -1.5022 0.8881
8.8600 -28.2396 -1.5010 0.8882
9.8577 -27.9089 -1.5011 0.8882
-17.3419 -13.6640 -1.6188 0.9153
-16.3284 -14.8602 -1.6188 0.9153
-15.7904 -15.4305 -1.6188 0.9153
-14.3547 -16.1734 -1.5856 0.9169
-12.4371 -16.1960 -1.4973 0.9214
-9.2536 -14.0064 -1.2309 0.9349
-7.8103 -13.8713 -1.1672 0.9381
-5.9275 -13.7784 -1.0998 0.9416
-6.5794 -18.8853 -1.4663 0.9229
-4.2536 -13.7641 -1.0563 0.9439
-3.6667 -13.5534 -1.0295 0.9452
-2.0917 -13.1566 -0.9768 0.9480
-1.1162 -12.8515 -0.9458 0.9496
-0.6512 -12.7271 -0.9344 0.9502
0.2690 -13.5101 -0.9908 0.9472
1.1077 -19.9671 -1.4663 0.9229
1.8159 -19.9151 -1.4663 0.9229
2.5219 -19.8380 -1.4663 0.9229
3.9234 -19.6089 -1.4663 0.9229
5.3051 -19.2808 -1.4663 0.9229
5.9863 -19.0802 -1.4662 0.9229
6.6600 -18.8556 -1.4662 0.9229
-13.2444 -10.4355 -1.6188 0.9345
-12.0595 -11.7847 -1.6188 0.9345
-11.6334 -12.2054 -1.6188 0.9345
-11.1927 -12.6108 -1.6188 0.9345
-9.7881 -13.7294 -1.6188 0.9345
-9.2636 -14.0215 -1.6134 0.9347
-8.7891 -14.3894 -1.6188 0.9345
-8.2725 -14.6923 -1.6188 0.9345
-7.7456 -14.9767 -1.6188 0.9345
-6.5135 -13.7718 -1.4626 0.9406
-3.6844 -13.6189 -1.3545 0.9449
-1.1195 -12.8890 -1.2421 0.9493
0.8460 -15.2496 -1.4663 0.9405
1.3869 -15.2099 -1.4663 0.9405
2.4628 -15.0731 -1.4663 0.9405
3.5263 -14.8602 -1.4663 0.9405
4.0517 -14.7256 -1.4663 0.9405
4.5720 -14.5724 -1.4663 0.9405
5.0865 -14.4008 -1.4663 0.9405
-10.3980 -8.8088 -1.6188 0.9466
-10.0787 -9.1724 -1.6188 0.9466
-9.7466 -9.5245 -1.6188 0.9466
-8.2999 -10.8084 -1.6188 0.9466
-7.9109 -11.0963 -1.6188 0.9466
-7.5119 -11.3701 -1.6188 0.9466
-7.1034 -11.6297 -1.6188 0.9466
-6.2601 -12.1044 -1.6187 0.9466
-5.8264 -12.3190 -1.6187 0.9466
-4.9374 -12.7014 -1.6187 0.9466
-2.6162 -13.3737 -1.6187 0.9466
-2.1397 -13.4581 -1.6187 0.9466
-1.6605 -13.5255 -1.6187 0.9466
-1.1792 -13.5760 -1.6187 0.9466
-0.2127 -13.6254 -1.6187 0.9466
0.7548 -13.6060 -1.6187 0.9466
1.7185 -13.5181 -1.6187 0.9466
2.1974 -13.4485 -1.6187 0.9466
2.6735 -13.3620 -1.6187 0.9466
3.6150 -13.1385 -1.6187 0.9466
4.5383 -12.8488 -1.6187 0.9466
-7.8824 -8.2700 -1.6188 0.9549
-7.5838 -8.5446 -1.6188 0.9549
-7.2756 -8.8085 -1.6188 0.9549
-6.9582 -9.0612 -1.6188 0.9549
-6.6321 -9.3026 -1.6188 0.9549
-5.6052 -9.9550 -1.6187 0.9549
-4.5148 -10.4946 -1.6187 0.9549
-4.1393 -10.6483 -1.6187 0.9549
-3.7586 -10.7885 -1.6187 0.9549
-3.3731 -10.9151 -1.6187 0.9549
-2.5900 -11.1270 -1.6187 0.9549
-1.7938 -11.2827 -1.6187 0.9549
-0.9885 -11.3815 -1.6187 0.9549
-0.5838 -11.4094 -1.6187 0.9549
0.6328 -11.4067 -1.6187 0.9549
1.0374 -11.3770 -1.6187 0.9549
1.4407 -11.3330 -1.6187 0.9549
1.8422 -11.2747 -1.6187 0.9549
3.0307 -11.0148 -1.6187 0.9549
3.8047 -10.7719 -1.6187 0.9549
-7.7183 -6.0813 -1.6188 0.9609
-7.4974 -6.3515 -1.6188 0.9609
-7.2672 -6.6138 -1.6188 0.9609
-5.9846 -7.7934 -1.6187 0.9609
-4.5139 -8.7279 -1.6187 0.9609
-4.2011 -8.8826 -1.6187 0.9609
-3.8831 -9.0262 -1.6187 0.9609
-3.5601 -9.1584 -1.6187 0.9609
-3.2327 -9.2790 -1.6187 0.9609
-2.9012 -9.3879 -1.6187 0.9609
-1.5428 -9.7040 -1.6187 0.9609
-1.1973 -9.7527 -1.6187 0.9609
-0.8502 -9.7890 -1.6187 0.9609
-0.1534 -9.8246 -1.6187 0.9609
0.5443 -9.8107 -1.6187 0.9609
0.8922 -9.7852 -1.6187 0.9609
1.2391 -9.7473 -1.6187 0.9610
1.9278 -9.6348 -1.6187 0.9610
2.2686 -9.5602 -1.6187 0.9610
2.6067 -9.4737 -1.6187 0.9610
3.2724 -9.2647 -1.6187 0.9610
-6.5712 -5.5668 -1.6188 0.9656
-5.9419 -6.2340 -1.6187 0.9656
-5.7168 -6.4411 -1.6187 0.9656
-4.7473 -7.1855 -1.6187 0.9656
-3.6821 -7.7852 -1.6187 0.9656
-3.4033 -7.9110 -1.6187 0.9656
-3.1203 -8.0269 -1.6187 0.9656
-2.8333 -8.1326 -1.6187 0.9656
-2.5427 -8.2281 -1.6187 0.9656
-1.0494 -8.5478 -1.6187 0.9656
-0.7452 -8.5796 -1.6187 0.9656
-0.4401 -8.6007 -1.6187 0.9656
-0.1344 -8.6109 -1.6187 0.9656
0.1714 -8.6102 -1.6187 0.9656
1.0860 -8.5431 -1.6187 0.9656
1.3887 -8.4992 -1.6187 0.9656
1.6896 -8.4445 -1.6187 0.9656
1.9883 -8.3791 -1.6187 0.9656
2.5780 -8.2169 -1.6187 0.9656
2.8681 -8.1202 -1.6187 0.9656
-6.0152 -4.7395 -1.6188 0.9692
-5.6637 -5.1544 -1.6187 0.9692
-5.2836 -5.5434 -1.6187 0.9692
-4.4455 -6.2355 -1.6187 0.9692
-4.2213 -6.3894 -1.6187 0.9692
-3.9918 -6.5353 -1.6187 0.9692
-3.7572 -6.6729 -1.6187 0.9692
-3.2741 -6.9227 -1.6187 0.9692
-3.0263 -7.0346 -1.6187 0.9692
-2.7746 -7.1376 -1.6187 0.9692
-2.5194 -7.2316 -1.6187 0.9692
-1.9998 -7.3921 -1.6187 0.9692
-1.7361 -7.4585 -1.6187 0.9692
-1.4702 -7.5154 -1.6187 0.9692
-0.9331 -7.6008 -1.6187 0.9692
-0.6626 -7.6291 -1.6187 0.9692
-0.3913 -7.6478 -1.6187 0.9692
1.5024 -7.5089 -1.6187 0.9692
1.7681 -7.4508 -1.6187 0.9692
-5.4101 -4.2627 -1.6187 0.9721
-5.0939 -4.6359 -1.6187 0.9721
-4.9261 -4.8138 -1.6187 0.9721
-4.7520 -4.9857 -1.6187 0.9721
-4.5720 -5.1513 -1.6187 0.9721
-4.1949 -5.4627 -1.6187 0.9721
-3.9983 -5.6082 -1.6187 0.9721
-3.7966 -5.7466 -1.6187 0.9721
-3.5902 -5.8778 -1.6187 0.9721
-3.3792 -6.0016 -1.6187 0.9721
-3.1640 -6.1178 -1.6187 0.9721
-2.2659 -6.5041 -1.6187 0.9721
-1.3223 -6.7593 -1.6187 0.9721
-0.8392 -6.8361 -1.6187 0.9721
-0.5960 -6.8616 -1.6187 0.9721
0.1371 -6.8860 -1.6187 0.9721
0.3815 -6.8768 -1.6187 0.9721
0.6254 -6.8590 -1.6187 0.9721
1.1106 -6.7973 -1.6187 0.9721
1.3512 -6.7535 -1.6187 0.9721
1.5902 -6.7013 -1.6187 0.9721
2.0618 -6.5715 -1.6187 0.9721
2.2938 -6.4942 -1.6187 0.9721
-4.4714 -4.3696 -1.6187 0.9745
-4.3135 -4.5256 -1.6187 0.9745
-3.9814 -4.8203 -1.6187 0.9745
-3.8078 -4.9586 -1.6187 0.9745
-3.6293 -5.0906 -1.6187 0.9745
-3.4462 -5.2163 -1.6187 0.9745
-3.2589 -5.3354 -1.6187 0.9745
-3.0674 -5.4477 -1.6187 0.9745
-2.8720 -5.5532 -1.6187 0.9745
-2.6730 -5.6516 -1.6187 0.9745
-2.4707 -5.7430 -1.6187 0.9745
-1.6326 -6.0349 -1.6187 0.9745
-1.4173 -6.0891 -1.6187 0.9745
-1.2003 -6.1355 -1.6187 0.9745
-0.7618 -6.2052 -1.6187 0.9745
-0.3195 -6.2436 -1.6187 0.9745
-0.0976 -6.2510 -1.6187 0.9745
0.5677 -6.2259 -1.6187 0.9745
0.7884 -6.2019 -1.6187 0.9745
1.4434 -6.0828 -1.6187 0.9745
1.8715 -5.9651 -1.6187 0.9745
-4.3629 -3.6961 -1.6187 0.9765
-4.2289 -3.8487 -1.6187 0.9765
-4.0896 -3.9964 -1.6187 0.9765
-3.9451 -4.1391 -1.6187 0.9765
-3.6414 -4.4086 -1.6187 0.9765
-3.4826 -4.5351 -1.6187 0.9765
-3.3193 -4.6559 -1.6187 0.9765
-2.6267 -5.0789 -1.6187 0.9765
-1.6883 -5.4631 -1.6187 0.9765
-1.4932 -5.5195 -1.6187 0.9765
-1.2963 -5.5691 -1.6187 0.9765
-0.4948 -5.6965 -1.6187 0.9765
-0.2922 -5.7105 -1.6187 0.9765
0.9220 -5.6431 -1.6187 0.9765
1.1218 -5.6067 -1.6187 0.9765
1.3202 -5.5634 -1.6187 0.9765
1.5169 -5.5130 -1.6187 0.9765
1.7117 -5.4557 -1.6187 0.9765
1.9043 -5.3914 -1.6187 0.9765
-4.1338 -3.2571 -1.6187 0.9782
-3.8922 -3.5423 -1.6187 0.9782
-3.7640 -3.6782 -1.6187 0.9782
-3.6311 -3.8096 -1.6187 0.9782
-3.4935 -3.9361 -1.6187 0.9782
-3.3515 -4.0576 -1.6187 0.9782
-3.2053 -4.1741 -1.6187 0.9782
-3.0551 -4.2853 -1.6187 0.9782
-2.7433 -4.4913 -1.6187 0.9782
-2.4176 -4.6746 -1.6187 0.9782
-2.2501 -4.7575 -1.6187 0.9782
-2.0798 -4.8344 -1.6187 0.9782
-1.9068 -4.9052 -1.6187 0.9782
-1.7314 -4.9698 -1.6187 0.9782
-1.5539 -5.0281 -1.6187 0.9782
-0.8263 -5.1975 -1.6187 0.9782
-0.6413 -5.2235 -1.6187 0.9782
-0.2689 -5.2559 -1.6187 0.9782
-0.0822 -5.2621 -1.6187 0.9782
0.1047 -5.2617 -1.6187 0.9782
0.4779 -5.2410 -1.6187 0.9782
0.6637 -5.2207 -1.6187 0.9782
0.8486 -5.1938 -1.6187 0.9782
1.0325 -5.1604 -1.6187 0.9782
1.2151 -5.1205 -1.6187 0.9782
1.3961 -5.0741 -1.6187 0.9782
1.5754 -5.0214 -1.6187 0.9782
1.7527 -4.9623 -1.6187 0.9782
-3.8251 -3.0138 -1.6187 0.9797
-3.7157 -3.1477 -1.6187 0.9797
-3.6016 -3.2777 -1.6187 0.9797
-3.3598 -3.5250 -1.6187 0.9797
-3.2326 -3.6421 -1.6187 0.9797
-2.9659 -3.8623 -1.6187 0.9797
-2.6843 -4.0631 -1.6187 0.9797
-2.5384 -4.1558 -1.6187 0.9797
-2.0821 -4.4022 -1.6187 0.9797
-1.9244 -4.4733 -1.6187 0.9797
-1.6021 -4.5986 -1.6187 0.9797
-1.4378 -4.6526 -1.6187 0.9797
-1.2717 -4.7007 -1.6187 0.9797
-1.1040 -4.7429 -1.6187 0.9797
-0.9349 -4.7791 -1.6187 0.9797
-0.7646 -4.8093 -1.6187 0.9797
-0.5934 -4.8334 -1.6187 0.9797
-0.4214 -4.8514 -1.6187 0.9797
-0.2489 -4.8633 -1.6187 0.9797
-0.0760 -4.8691 -1.6187 0.9797
0.6141 -4.8308 -1.6187 0.9797
0.9554 -4.7750 -1.6187 0.9797
1.2919 -4.6952 -1.6187 0.9797
1.4578 -4.6463 -1.6187 0.9797
1.6218 -4.5916 -1.6187 0.9797
-3.5555 -2.8015 -1.6187 0.9810
-3.4538 -2.9259 -1.6187 0.9810
-3.0047 -3.3854 -1.6187 0.9810
-2.7569 -3.5901 -1.6187 0.9810
-2.6277 -3.6858 -1.6187 0.9810
-2.4951 -3.7767 -1.6187 0.9810
-1.9353 -4.0919 -1.6187 0.9810
-1.6400 -4.2190 -1.6187 0.9810
-1.4892 -4.2745 -1.6187 0.9810
-1.3365 -4.3247 -1.6187 0.9810
-1.0262 -4.4086 -1.6187 0.9810
-0.8690 -4.4423 -1.6187 0.9810
-0.5516 -4.4928 -1.6187 0.9810
-0.3917 -4.5095 -1.6187 0.9810
-0.2313 -4.5206 -1.6187 0.9810
-0.0706 -4.5259 -1.6187 0.9810
0.0901 -4.5256 -1.6187 0.9810
0.2507 -4.5195 -1.6187 0.9810
0.7299 -4.4672 -1.6187 0.9810
0.8881 -4.4385 -1.6187 0.9810
1.0451 -4.4042 -1.6187 0.9810
1.3550 -4.3189 -1.6187 0.9810
1.5075 -4.2680 -1.6187 0.9810
-3.1240 -2.8431 -1.6187 0.9821
-3.0211 -2.9522 -1.6187 0.9821
-2.5727 -3.3502 -1.6187 0.9821
-2.4521 -3.4394 -1.6187 0.9821
-2.2018 -3.6048 -1.6187 0.9821
-1.8060 -3.8185 -1.6187 0.9821
-1.5304 -3.9370 -1.6187 0.9821
-1.3897 -3.9888 -1.6187 0.9821
-0.6632 -4.1716 -1.6187 0.9821
-0.3655 -4.2081 -1.6187 0.9821
-0.2158 -4.2184 -1.6187 0.9821
-0.0660 -4.2235 -1.6187 0.9821
0.0841 -4.2231 -1.6187 0.9821
0.3836 -4.2065 -1.6187 0.9821
0.5327 -4.1903 -1.6187 0.9821
0.6811 -4.1687 -1.6187 0.9821
-3.1067 -2.4478 -1.6187 0.9831
-2.8287 -2.7643 -1.6187 0.9831
-2.7288 -2.8629 -1.6187 0.9831
-2.4089 -3.1369 -1.6187 0.9831
-2.2960 -3.2205 -1.6187 0.9831
-2.1802 -3.3000 -1.6187 0.9831
-2.0616 -3.3753 -1.6187 0.9831
-1.9405 -3.4463 -1.6187 0.9831
-1.6910 -3.5754 -1.6187 0.9831
-1.1678 -3.7787 -1.6187 0.9831
-1.0329 -3.8178 -1.6187 0.9831
-0.7593 -3.8815 -1.6187 0.9831
-0.3422 -3.9402 -1.6187 0.9831
0.3592 -3.9387 -1.6187 0.9831
0.4988 -3.9235 -1.6187 0.9831
0.6377 -3.9033 -1.6187 0.9831
0.7760 -3.8782 -1.6187 0.9831
1.1840 -3.7737 -1.6187 0.9831
1.3172 -3.7292 -1.6187 0.9831
-2.9174 -2.2987 -1.6187 0.9839
-2.8340 -2.4008 -1.6187 0.9839
-2.2622 -2.9459 -1.6187 0.9839
-2.0474 -3.0990 -1.6187 0.9839
-1.9361 -3.1697 -1.6187 0.9839
-1.7062 -3.2991 -1.6187 0.9839
-1.5880 -3.3576 -1.6187 0.9839
-1.4678 -3.4119 -1.6187 0.9839
-1.3457 -3.4618 -1.6187 0.9839
-0.9700 -3.5853 -1.6187 0.9839
-0.8421 -3.6175 -1.6187 0.9839
-0.5832 -3.6681 -1.6187 0.9839
-0.1898 -3.7093 -1.6187 0.9839
0.0739 -3.7134 -1.6187 0.9839
0.2057 -3.7085 -1.6187 0.9839
0.5989 -3.6656 -1.6187 0.9839
0.8576 -3.6138 -1.6187 0.9839
1.1119 -3.5438 -1.6187 0.9839
-2.7468 -2.1643 -1.6187 0.9847
-2.6683 -2.2604 -1.6187 0.9847
-2.4128 -2.5314 -1.6187 0.9847
-2.3213 -2.6154 -1.6187 0.9847
-2.1299 -2.7736 -1.6187 0.9847
-2.0300 -2.8475 -1.6187 0.9847
-1.7157 -3.0472 -1.6187 0.9847
-1.4951 -3.1613 -1.6187 0.9847
-1.2670 -3.2594 -1.6187 0.9847
-0.7928 -3.4059 -1.6187 0.9847
-0.5491 -3.4536 -1.6187 0.9847
-0.0546 -3.4966 -1.6187 0.9847
0.0696 -3.4963 -1.6187 0.9847
0.3175 -3.4825 -1.6187 0.9847
0.4410 -3.4691 -1.6187 0.9847
0.5639 -3.4512 -1.6187 0.9847
0.8074 -3.4025 -1.6187 0.9847
1.0468 -3.3366 -1.6187 0.9847
1.1647 -3.2973 -1.6187 0.9847
-2.5921 -2.0423 -1.6187 0.9854
-2.4406 -2.2211 -1.6187 0.9854
-2.3602 -2.3064 -1.6187 0.9854
-2.2768 -2.3887 -1.6187 0.9854
-2.1906 -2.4681 -1.6187 0.9854
-2.0099 -2.6173 -1.6187 0.9854
-1.8191 -2.7533 -1.6187 0.9854
-1.7201 -2.8162 -1.6187 0.9854
-1.5160 -2.9312 -1.6187 0.9854
-1.4109 -2.9832 -1.6187 0.9854
-1.3041 -3.0314 -1.6187 0.9854
-0.9743 -3.1528 -1.6187 0.9854
-0.7481 -3.2140 -1.6187 0.9854
-0.0515 -3.2995 -1.6187 0.9854
0.1828 -3.2949 -1.6187 0.9854
0.4162 -3.2736 -1.6187 0.9854
0.7619 -3.2108 -1.6187 0.9854
0.8754 -3.1817 -1.6187 0.9854
1.0990 -3.1115 -1.6187 0.9854
-1.0639 -0.8382 -0.7026 0.9939
-2.2316 -2.1808 -1.6187 0.9860
-2.1528 -2.2586 -1.6187 0.9860
-1.7200 -2.6034 -1.6187 0.9860
-1.6264 -2.6628 -1.6187 0.9860
-1.3341 -2.8207 -1.6187 0.9860
-1.1305 -2.9082 -1.6187 0.9860
-0.9213 -2.9811 -1.6187 0.9860
-0.8148 -3.0120 -1.6187 0.9860
-0.7074 -3.0390 -1.6187 0.9860
-0.5990 -3.0622 -1.6187 0.9860
-0.4899 -3.0815 -1.6187 0.9860
-0.1595 -3.1161 -1.6187 0.9860
0.0621 -3.1196 -1.6187 0.9860
0.1728 -3.1154 -1.6187 0.9860
0.2833 -3.1073 -1.6187 0.9860
0.9341 -2.9771 -1.6187 0.9860
-1.0001 -0.8472 -0.7179 0.9940
-2.1138 -2.0656 -1.6187 0.9866
-1.9619 -2.2104 -1.6187 0.9866
-1.7157 -2.4065 -1.6187 0.9866
-1.4500 -2.5753 -1.6187 0.9866
-1.3577 -2.6252 -1.6187 0.9866
-0.8726 -2.8237 -1.6187 0.9866
-0.7718 -2.8529 -1.6187 0.9866
-0.6700 -2.8785 -1.6187 0.9866
-0.5674 -2.9005 -1.6187 0.9866
-0.4640 -2.9188 -1.6187 0.9866
-0.2557 -2.9443 -1.6187 0.9866
-0.0461 -2.9551 -1.6187 0.9866
0.2684 -2.9432 -1.6187 0.9866
0.3727 -2.9318 -1.6187 0.9866
0.4766 -2.9168 -1.6187 0.9866
0.5798 -2.8980 -1.6187 0.9866
0.9843 -2.7867 -1.6187 0.9866
-0.9306 -0.7333 -0.6841 0.9945
-2.0052 -1.9595 -1.6187 0.9871
-1.9344 -2.0295 -1.6187 0.9871
-1.6276 -2.2829 -1.6187 0.9871
-1.5455 -2.3393 -1.6187 0.9871
-1.4614 -2.3927 -1.6187 0.9871
-1.3756 -2.4430 -1.6187 0.9871
-1.2880 -2.4903 -1.6187 0.9871
-1.1987 -2.5345 -1.6187 0.9871
-0.8278 -2.6787 -1.6187 0.9871
-0.5383 -2.7515 -1.6187 0.9871
-0.2426 -2.7932 -1.6187 0.9871
-0.1433 -2.8000 -1.6187 0.9871
-0.0438 -2.8033 -1.6187 0.9871
0.0558 -2.8031 -1.6187 0.9871
0.1553 -2.7994 -1.6187 0.9871
