ply
format ascii 1.0
element vertex 338
property float32 x
property float32 y
property float32 z
property float32 I
end_header
34.7238 14.6458 5.7733 0.8586
38.4017 25.2476 0.7763 0.8321
39.8173 28.3116 -0.2751 0.8225
38.4017 25.2476 -1.2941 0.8320
28.5869 -4.2691 -1.4658 0.8907
28.7236 -3.2233 -1.4658 0.8907
28.8221 -2.1732 -1.4658 0.8907
28.9039 -0.0657 -1.4658 0.8907
28.8870 0.9889 -1.4658 0.8907
28.8318 2.0421 -1.4658 0.8907
29.2547 4.2330 -1.4991 0.8884
30.0912 5.4815 -1.5512 0.8847
30.2266 10.2238 -1.6182 0.8800
28.4187 14.5118 -1.6183 0.8800
27.8704 15.5390 -1.6183 0.8800
27.2851 16.5456 -1.6183 0.8800
26.6634 17.5301 -1.6183 0.8800
26.0063 18.4915 -1.6183 0.8800
25.3144 19.4280 -1.6183 0.8800
24.5890 20.3388 -1.6183 0.8800
22.2201 22.9042 -1.6184 0.8800
21.6085 -4.0379 -1.6118 0.9156
21.8295 -3.2600 -1.6183 0.9153
22.0550 -0.8554 -1.6183 0.9153
21.7144 3.9555 -1.6183 0.9153
21.1524 6.3044 -1.6184 0.9153
20.9083 7.0720 -1.6184 0.9153
20.3371 8.5778 -1.6184 0.9153
19.6576 10.0380 -1.6184 0.9153
19.2784 10.7486 -1.6184 0.9153
18.8734 11.4448 -1.6184 0.9153
17.5102 13.4385 -1.6184 0.9153
17.0084 14.0685 -1.6184 0.9153
16.4839 14.6798 -1.6184 0.9153
15.9374 15.2714 -1.6184 0.9153
15.3697 15.8428 -1.6184 0.9153
16.7525 -1.8799 -1.6184 0.9345
16.8575 -0.0383 -1.6184 0.9345
16.8477 0.5767 -1.6184 0.9345
16.8155 1.1910 -1.6184 0.9345
16.6839 2.4140 -1.6184 0.9345
16.1555 4.8151 -1.6184 0.9345
15.9691 5.4013 -1.6184 0.9345
15.7614 5.9804 -1.6184 0.9345
15.2834 7.1138 -1.6184 0.9345
15.0138 7.6667 -1.6184 0.9345
14.4148 8.7411 -1.6185 0.9345
13.7392 9.7690 -1.6185 0.9345
10.2266 11.3415 -1.4661 0.9405
13.4756 -2.0124 -1.6185 0.9466
13.5400 -1.5194 -1.6185 0.9466
13.5864 -1.0244 -1.6185 0.9466
13.6250 -0.0310 -1.6185 0.9466
13.5910 0.9626 -1.6185 0.9466
13.5468 1.4579 -1.6185 0.9466
13.4846 1.9511 -1.6185 0.9466
13.4045 2.4418 -1.6185 0.9466
13.3065 2.9292 -1.6185 0.9466
13.1908 3.4128 -1.6185 0.9466
13.0575 3.8917 -1.6185 0.9466
12.5542 5.2951 -1.6185 0.9466
12.3527 5.7496 -1.6185 0.9466
12.1347 6.1965 -1.6185 0.9466
11.6506 7.0649 -1.6185 0.9466
11.3851 7.4852 -1.6185 0.9466
10.1754 9.0617 -1.6185 0.9466
9.8381 9.4270 -1.6185 0.9466
8.9364 9.9108 -1.5852 0.9477
11.2285 -2.0982 -1.6185 0.9549
11.2976 -1.6872 -1.6185 0.9549
11.3051 1.6357 -1.6185 0.9549
10.9470 3.2627 -1.6185 0.9549
10.5250 4.4392 -1.6185 0.9549
10.3561 4.8203 -1.6185 0.9549
10.1733 5.1949 -1.6185 0.9549
9.7675 5.9230 -1.6185 0.9549
9.5449 6.2754 -1.6185 0.9549
9.3096 6.6195 -1.6185 0.9549
9.0619 6.9548 -1.6185 0.9549
8.8022 7.2808 -1.6185 0.9549
8.2479 7.9033 -1.6185 0.9549
7.9541 8.1989 -1.6185 0.9549
9.6576 -1.8047 -1.6185 0.9610
9.7969 -0.7387 -1.6185 0.9610
9.8002 0.6941 -1.6185 0.9610
9.7235 1.4069 -1.6185 0.9610
9.5950 2.1122 -1.6185 0.9610
9.4155 2.8062 -1.6185 0.9610
9.3068 3.1479 -1.6185 0.9610
9.1858 3.4854 -1.6185 0.9610
9.0525 3.8182 -1.6185 0.9610
8.9072 4.1459 -1.6185 0.9610
7.5707 6.2621 -1.6186 0.9610
7.3372 6.5342 -1.6186 0.9610
6.8412 7.0518 -1.6186 0.9610
6.5794 7.2967 -1.6186 0.9610
8.4645 -1.5817 -1.6185 0.9656
8.5166 -1.2719 -1.6185 0.9656
8.5573 -0.9603 -1.6185 0.9656
8.6110 -0.0196 -1.6185 0.9656
8.6060 0.2946 -1.6185 0.9656
8.5223 1.2331 -1.6185 0.9656
8.4097 1.8513 -1.6185 0.9656
8.3365 2.1569 -1.6185 0.9656
8.2523 2.4596 -1.6185 0.9656
8.1571 2.7590 -1.6185 0.9656
8.0510 3.0548 -1.6185 0.9656
7.9342 3.3465 -1.6185 0.9656
7.8068 3.6337 -1.6185 0.9656
7.5211 4.1933 -1.6186 0.9656
6.8312 5.2428 -1.6186 0.9656
6.6354 5.4885 -1.6186 0.9656
6.4308 5.7269 -1.6186 0.9656
6.2176 5.9578 -1.6186 0.9656
5.9961 6.1806 -1.6186 0.9656
7.5268 -1.4065 -1.6185 0.9692
7.5731 -1.1310 -1.6185 0.9692
7.6093 -0.8539 -1.6185 0.9692
7.6354 -0.5757 -1.6185 0.9692
7.6513 -0.2968 -1.6185 0.9692
7.6131 0.8193 -1.6185 0.9692
7.5331 1.3722 -1.6185 0.9692
7.4780 1.6462 -1.6185 0.9692
7.4130 1.9179 -1.6185 0.9692
7.1591 2.7164 -1.6186 0.9692
7.0552 2.9758 -1.6186 0.9692
6.8195 3.4823 -1.6186 0.9692
6.5474 3.9703 -1.6186 0.9692
6.2405 4.4372 -1.6186 0.9692
6.0745 4.6619 -1.6186 0.9692
5.7183 5.0925 -1.6186 0.9692
5.5287 5.2977 -1.6186 0.9692
5.3318 5.4959 -1.6186 0.9692
5.1277 5.6868 -1.6186 0.9692
6.7697 -1.2650 -1.6186 0.9721
6.8439 -0.7680 -1.6186 0.9721
6.8816 -0.2669 -1.6186 0.9721
6.8868 -0.0156 -1.6186 0.9721
6.8473 0.7369 -1.6186 0.9721
6.8158 0.9862 -1.6186 0.9721
6.7753 1.2342 -1.6186 0.9721
6.7258 1.4806 -1.6186 0.9721
6.4389 2.4431 -1.6186 0.9721
6.3455 2.6764 -1.6186 0.9721
6.0151 3.3537 -1.6186 0.9721
5.6127 3.9908 -1.6186 0.9721
6.1827 -0.9233 -1.6186 0.9745
6.2123 -0.6971 -1.6186 0.9745
6.1868 0.8952 -1.6186 0.9745
6.1051 1.3440 -1.6186 0.9745
5.9909 1.7855 -1.6186 0.9745
5.7599 2.4294 -1.6186 0.9745
5.4600 3.0442 -1.6186 0.9745
5.3454 3.2414 -1.6186 0.9745
5.2235 3.4342 -1.6186 0.9745
4.6685 4.1575 -1.6186 0.9745
4.1863 4.6427 -1.6186 0.9745
5.6202 -1.0502 -1.6186 0.9765
5.6548 -0.8445 -1.6186 0.9765
5.7013 -0.4299 -1.6186 0.9765
5.7132 -0.2216 -1.6186 0.9765
5.7175 -0.0130 -1.6186 0.9765
5.5838 1.2292 -1.6186 0.9765
5.4793 1.6331 -1.6186 0.9765
5.3456 2.0283 -1.6186 0.9765
5.1835 2.4127 -1.6186 0.9765
4.9938 2.7842 -1.6186 0.9765
4.7775 3.1410 -1.6186 0.9765
4.2698 3.8025 -1.6186 0.9765
3.9812 4.1037 -1.6186 0.9765
5.2046 -0.7772 -1.6186 0.9782
5.2475 -0.3957 -1.6186 0.9782
5.2081 0.7536 -1.6186 0.9782
5.1393 1.1313 -1.6186 0.9782
5.0946 1.3181 -1.6186 0.9782
5.0431 1.5031 -1.6186 0.9782
4.9849 1.6861 -1.6186 0.9782
4.9201 1.8668 -1.6186 0.9782
4.8487 2.0451 -1.6186 0.9782
4.5963 2.5626 -1.6186 0.9782
4.3972 2.8909 -1.6186 0.9782
3.7996 3.6408 -1.6186 0.9782
3.5240 3.9083 -1.6186 0.9782
4.8555 -0.3661 -1.6186 0.9797
4.8657 -0.1887 -1.6186 0.9797
4.7141 1.2196 -1.6186 0.9797
4.6126 1.5602 -1.6186 0.9797
4.4866 1.8923 -1.6186 0.9797
4.3367 2.2145 -1.6186 0.9797
4.2530 2.3712 -1.6186 0.9797
3.8629 2.9646 -1.6186 0.9797
3.7521 3.1036 -1.6186 0.9797
3.5159 3.3689 -1.6186 0.9797
3.3906 3.4949 -1.6186 0.9797
3.2608 3.6163 -1.6186 0.9797
4.4492 -0.8314 -1.6186 0.9810
4.5228 -0.1754 -1.6186 0.9810
4.5235 0.1548 -1.6186 0.9810
4.5149 0.3198 -1.6186 0.9810
4.4795 0.6481 -1.6186 0.9810
4.4529 0.8112 -1.6186 0.9810
4.4204 0.9731 -1.6186 0.9810
4.3819 1.1337 -1.6186 0.9810
4.2876 1.4502 -1.6186 0.9810
4.2318 1.6057 -1.6186 0.9810
4.1704 1.7590 -1.6186 0.9810
3.6888 2.6229 -1.6186 0.9810
3.5907 2.7557 -1.6186 0.9810
3.4877 2.8849 -1.6186 0.9810
3.3802 3.0102 -1.6186 0.9810
3.1517 3.2487 -1.6186 0.9810
3.0310 3.3615 -1.6186 0.9810
4.1518 -0.7758 -1.6186 0.9821
4.2118 -0.3176 -1.6186 0.9821
4.2132 0.2984 -1.6186 0.9821
4.1553 0.7569 -1.6186 0.9821
4.1250 0.9080 -1.6186 0.9821
4.0891 1.0579 -1.6186 0.9821
4.0010 1.3533 -1.6186 0.9821
3.9490 1.4984 -1.6186 0.9821
3.8917 1.6414 -1.6186 0.9821
3.6891 2.0568 -1.6186 0.9821
3.6116 2.1900 -1.6186 0.9821
3.5293 2.3204 -1.6186 0.9821
3.3507 2.5715 -1.6186 0.9821
3.0497 2.9222 -1.6186 0.9821
2.9410 3.0316 -1.6186 0.9821
2.8285 3.1368 -1.6186 0.9821
3.9301 -0.4410 -1.6186 0.9831
3.9436 -0.2973 -1.6186 0.9831
3.9525 0.1353 -1.6186 0.9831
3.9321 0.4232 -1.6186 0.9831
3.9141 0.5663 -1.6186 0.9831
3.8623 0.8502 -1.6186 0.9831
3.8287 0.9906 -1.6186 0.9831
3.6440 1.5369 -1.6186 0.9831
3.5855 1.6689 -1.6186 0.9831
3.2231 2.2917 -1.6186 0.9831
3.1374 2.4078 -1.6186 0.9831
2.7538 2.8386 -1.6186 0.9831
2.6484 2.9371 -1.6186 0.9831
3.7112 -0.1439 -1.6186 0.9839
3.7140 -0.0084 -1.6186 0.9839
3.7118 0.1271 -1.6186 0.9839
3.6757 0.5318 -1.6186 0.9839
3.6538 0.6656 -1.6186 0.9839
3.5956 0.9303 -1.6186 0.9839
3.5593 1.0608 -1.6186 0.9839
3.4724 1.3175 -1.6186 0.9839
3.4220 1.4433 -1.6186 0.9839
3.3671 1.5672 -1.6186 0.9839
3.2439 1.8086 -1.6186 0.9839
3.0268 2.1522 -1.6186 0.9839
2.9463 2.2612 -1.6186 0.9839
2.7736 2.4700 -1.6186 0.9839
2.6816 2.5696 -1.6186 0.9839
2.4871 2.7583 -1.6186 0.9839
3.4373 -0.6423 -1.6186 0.9847
3.4750 -0.3900 -1.6186 0.9847
3.4869 -0.2629 -1.6186 0.9847
3.4942 -0.1355 -1.6186 0.9847
3.4947 0.1196 -1.6186 0.9847
3.4881 0.2470 -1.6186 0.9847
3.4767 0.3741 -1.6186 0.9847
3.4608 0.5007 -1.6186 0.9847
3.4402 0.6267 -1.6186 0.9847
3.3853 0.8758 -1.6186 0.9847
3.3125 1.1204 -1.6186 0.9847
3.1702 1.4756 -1.6186 0.9847
2.9900 1.8131 -1.6186 0.9847
2.6945 2.2287 -1.6186 0.9847
2.6114 2.3256 -1.6186 0.9847
2.5248 2.4193 -1.6186 0.9847
3.2436 -0.6061 -1.6186 0.9854
3.2636 -0.4874 -1.6186 0.9854
3.2792 -0.3680 -1.6186 0.9854
3.2904 -0.2481 -1.6186 0.9854
3.2973 -0.1279 -1.6186 0.9854
3.2808 0.3531 -1.6186 0.9854
3.2464 0.5914 -1.6186 0.9854
3.2226 0.7094 -1.6186 0.9854
3.1946 0.8265 -1.6186 0.9854
2.9916 1.3924 -1.6186 0.9854
2.6177 2.0090 -1.6186 0.9854
2.4643 2.1945 -1.6186 0.9854
3.1006 -0.3480 -1.6186 0.9860
3.1177 -0.1209 -1.6186 0.9860
3.1200 -0.0071 -1.6186 0.9860
3.1182 0.1067 -1.6186 0.9860
3.1021 0.3338 -1.6186 0.9860
3.0879 0.4468 -1.6186 0.9860
3.0695 0.5592 -1.6186 0.9860
3.0471 0.6708 -1.6186 0.9860
3.0206 0.7815 -1.6186 0.9860
2.9555 0.9997 -1.6186 0.9860
2.8748 1.2125 -1.6186 0.9860
2.8287 1.3166 -1.6186 0.9860
2.7787 1.4189 -1.6186 0.9860
2.7251 1.5194 -1.6186 0.9860
2.6679 1.6178 -1.6186 0.9860
2.6071 1.7140 -1.6186 0.9860
2.4752 1.8996 -1.6186 0.9860
2.4042 1.9886 -1.6186 0.9860
2.3300 2.0750 -1.6186 0.9860
2.2528 2.1586 -1.6186 0.9860
2.1725 2.2394 -1.6186 0.9860
2.0894 2.3172 -1.6186 0.9860
2.9050 -0.5429 -1.6186 0.9866
2.9369 -0.3296 -1.6186 0.9866
2.9469 -0.2222 -1.6186 0.9866
2.9531 -0.1145 -1.6186 0.9866
2.9553 -0.0067 -1.6186 0.9866
2.9075 0.5296 -1.6186 0.9866
2.8611 0.7402 -1.6186 0.9866
2.7631 1.0484 -1.6186 0.9866
2.7230 1.1485 -1.6186 0.9866
2.6320 1.3440 -1.6186 0.9866
2.5812 1.4391 -1.6186 0.9866
2.5270 1.5324 -1.6186 0.9866
2.4694 1.6235 -1.6186 0.9866
2.4085 1.7125 -1.6186 0.9866
2.3445 1.7993 -1.6186 0.9866
2.2773 1.8836 -1.6186 0.9866
2.0578 2.1211 -1.6186 0.9866
2.7558 -0.5150 -1.6186 0.9871
2.7728 -0.4141 -1.6186 0.9871
2.7861 -0.3126 -1.6186 0.9871
2.7965 0.1981 -1.6186 0.9871
2.7874 0.3000 -1.6186 0.9871
2.7142 0.7022 -1.6186 0.9871
2.6558 0.8983 -1.6186 0.9871
2.5832 1.0895 -1.6186 0.9871
2.4487 1.3652 -1.6186 0.9871
2.3426 1.5401 -1.6186 0.9871
2.2849 1.6246 -1.6186 0.9871
2.2241 1.7069 -1.6186 0.9871
2.1603 1.7869 -1.6186 0.9871
2.0242 1.9397 -1.6186 0.9871
