ply
format ascii 1.0
element vertex 514
property float32 x
property float32 y
property float32 z
property float32 I
end_header
-8.6106 34.2693 6.2304 0.8663
-8.6709 29.9190 5.4926 0.8812
-9.7558 29.6371 5.5017 0.8810
-9.7051 26.2670 4.9376 0.8925
-12.0165 22.1222 4.4391 0.9028
-12.3589 20.9242 4.2850 0.9060
-12.6712 19.7935 4.1440 0.9090
-12.2582 16.4203 3.6131 0.9201
-13.2141 15.2772 3.5616 0.9212
-14.2261 14.2390 3.5491 0.9215
-14.0525 12.1769 3.2787 0.9273
-15.4258 9.8947 3.2314 0.9283
-15.6072 9.2374 3.1979 0.9290
-17.9473 8.9497 3.5362 0.9218
-29.7902 12.2712 5.6810 0.8773
-10.6558 3.9480 2.0038 0.9549
-8.6357 34.3692 5.4288 0.8664
-9.7508 29.6217 4.7774 0.8814
-9.6209 26.0392 4.2526 0.8937
-10.2938 25.0537 4.1494 0.8962
-11.2283 24.7592 4.1648 0.8958
-12.0242 22.1363 3.8592 0.9031
-12.9362 18.6933 3.4825 0.9121
-13.4107 16.6795 3.2787 0.9170
-13.8032 15.9583 3.2323 0.9182
-14.0404 15.1006 3.1588 0.9199
-14.8109 11.9304 2.9135 0.9259
-15.2401 10.5668 2.8410 0.9277
-15.6072 9.2374 2.7783 0.9292
-10.6537 3.9472 1.7405 0.9551
-8.6709 29.9190 4.0564 0.8819
-9.5808 25.9305 3.5998 0.8945
-11.6777 23.4708 3.4138 0.8997
-12.0243 22.1366 3.2805 0.9034
-12.3590 20.9244 3.1646 0.9066
-12.6713 19.7935 3.0604 0.9096
-12.9639 18.7333 2.9666 0.9122
-14.0403 15.1006 2.6851 0.9202
-12.3523 9.9499 2.0655 0.9380
-12.7092 8.8120 2.0139 0.9395
-15.4775 9.9279 2.3945 0.9285
-13.5787 7.3917 2.0132 0.9395
-18.1832 9.0673 2.6459 0.9213
-29.7903 12.2713 4.1955 0.8781
-11.2865 24.8876 2.9344 0.8959
-11.6777 23.4708 2.8150 0.8999
-10.7689 15.5614 2.0321 0.9267
-13.2929 17.8064 2.3861 0.9145
-11.2282 13.9650 1.9242 0.9304
-14.7265 14.7398 2.2374 0.9196
-14.6477 12.6926 2.0813 0.9250
-14.9925 12.0766 2.0673 0.9255
-15.0496 11.2560 2.0181 0.9272
-15.2400 10.5668 1.9914 0.9281
-15.4775 9.9279 1.9745 0.9287
-12.9849 7.6853 1.6203 0.9411
-13.6547 7.4330 1.6694 0.9394
-8.2077 24.9342 2.2222 0.9000
-8.6335 23.3668 2.1088 0.9048
-11.2864 24.8875 2.3133 0.8961
-12.1045 24.3287 2.3003 0.8967
-12.0243 22.1367 2.1325 0.9038
-12.3539 20.9158 2.0564 0.9071
-11.2282 13.9650 1.5169 0.9306
-14.0403 15.1006 1.7455 0.9206
-14.4845 13.4918 1.6757 0.9236
-15.0435 12.1177 1.6352 0.9254
-15.2400 10.5667 1.5699 0.9283
-13.6548 7.4330 1.3161 0.9395
-29.7914 12.2717 2.7275 0.8787
-10.6474 3.9449 0.9612 0.9554
-8.7009 34.6290 2.2141 0.8667
-7.6963 26.5563 1.7145 0.8951
-8.6335 23.3668 1.5447 0.9050
-10.9799 26.7237 1.7916 0.8907
-12.0762 24.2718 1.6811 0.8970
-12.0243 22.1366 1.5621 0.9040
-12.3539 20.9158 1.5063 0.9072
-10.7689 15.5614 1.1735 0.9270
-11.2282 13.9650 1.1112 0.9307
-14.0403 15.1006 1.2786 0.9207
-14.7525 14.7658 1.2943 0.9198
-14.4845 13.4918 1.2275 0.9237
-14.6519 12.6963 1.2022 0.9252
-15.4775 9.9279 1.1402 0.9290
-12.7782 7.5630 0.9208 0.9422
-12.9284 7.0376 0.9128 0.9427
-16.2247 8.0907 1.1242 0.9299
-10.6453 3.9441 0.7040 0.9555
-8.7009 34.6290 1.4079 0.8668
-7.6963 26.5563 1.0902 0.8952
-8.2077 24.9342 1.0351 0.9002
-8.6335 23.3667 0.9823 0.9051
-10.9985 26.7690 1.1411 0.8906
-9.2685 20.4379 0.8849 0.9141
-9.5354 19.1651 0.8441 0.9179
-9.8913 18.2098 0.8171 0.9204
-10.1689 17.2165 0.7884 0.9231
-10.8999 14.6009 0.7185 0.9297
-11.5184 12.3882 0.6670 0.9345
-11.8863 11.0717 0.6405 0.9370
-12.3907 9.2673 0.6101 0.9399
-12.7782 7.5630 0.5855 0.9423
-12.9284 7.0376 0.5804 0.9428
-15.3760 7.6675 0.6775 0.9335
-7.0919 28.2254 0.4916 0.8901
-8.5290 23.0838 0.4157 0.9062
-8.9158 21.6999 0.3963 0.9104
-9.5354 19.1651 0.3616 0.9179
-9.8913 18.2097 0.3500 0.9204
-10.4280 16.2894 0.3267 0.9255
-10.8999 14.6009 0.3078 0.9297
-11.1165 13.8261 0.2997 0.9315
-11.2551 13.0124 0.2906 0.9335
-11.5184 12.3883 0.2857 0.9346
-11.7061 11.7167 0.2798 0.9359
-12.0600 10.4504 0.2696 0.9382
-12.2279 9.8497 0.2652 0.9391
-12.3907 9.2673 0.2614 0.9400
-12.5490 8.7009 0.2579 0.9407
-12.9284 7.0376 0.2486 0.9428
-18.6977 8.4997 0.3469 0.9211
-24.5699 10.1209 0.4489 0.8991
-10.6411 3.9425 0.1917 0.9556
-7.0919 28.2254 -0.1639 0.8901
-8.5290 23.0838 -0.1386 0.9063
-8.9158 21.6999 -0.1321 0.9104
-9.5354 19.1651 -0.1205 0.9179
-10.6710 15.4200 -0.1056 0.9277
-10.8999 14.6009 -0.1026 0.9297
-11.1165 13.8261 -0.0999 0.9315
-11.2551 13.0124 -0.0969 0.9335
-11.8863 11.0717 -0.0915 0.9371
-12.7034 8.1485 -0.0850 0.9414
-15.3760 7.6675 -0.0967 0.9336
-24.5700 10.1209 -0.1496 0.8992
-10.6398 3.9421 -0.0639 0.9556
-7.6261 26.3141 -0.7714 0.8962
-8.0537 24.4664 -0.7253 0.9021
-8.5290 23.0838 -0.6929 0.9062
-9.2685 20.4379 -0.6319 0.9141
-9.5354 19.1651 -0.6027 0.9179
-10.1689 17.2165 -0.5630 0.9231
-10.4280 16.2894 -0.5446 0.9255
-11.2551 13.0124 -0.4844 0.9335
-11.5184 12.3882 -0.4763 0.9346
-11.7061 11.7166 -0.4664 0.9359
-11.8863 11.0717 -0.4574 0.9371
-12.0600 10.4503 -0.4493 0.9381
-12.7034 8.1485 -0.4250 0.9414
-12.7782 7.5630 -0.4181 0.9423
-15.3760 7.6675 -0.4838 0.9336
-24.5700 10.1209 -0.7483 0.8991
-7.0461 28.0432 -1.4664 0.8906
-7.6261 26.3141 -1.3894 0.8961
-8.0537 24.4664 -1.3063 0.9020
-9.5354 19.1651 -1.0856 0.9178
-10.1689 17.2165 -1.0140 0.9230
-10.8999 14.6009 -0.9241 0.9296
-11.1165 13.8261 -0.8997 0.9314
-11.5183 12.3882 -0.8579 0.9345
-11.7061 11.7166 -0.8399 0.9358
-11.8863 11.0717 -0.8238 0.9370
-12.0600 10.4503 -0.8093 0.9381
-12.2279 9.8497 -0.7963 0.9390
-12.3906 9.2673 -0.7847 0.9399
-12.5490 8.7009 -0.7744 0.9407
-12.9284 7.0376 -0.7465 0.9427
-18.6978 8.4997 -1.0416 0.9210
-27.4594 9.0664 -1.4665 0.8906
-5.5669 19.2086 -1.4664 0.9229
-6.2531 18.9963 -1.4664 0.9229
-9.5460 17.5741 -1.4664 0.9229
-10.6710 15.4200 -1.3750 0.9275
-11.1165 13.8261 -1.3008 0.9313
-11.5184 12.3882 -1.2403 0.9344
-12.0600 10.4503 -1.1701 0.9380
-12.3907 9.2673 -1.1345 0.9398
-12.5490 8.7009 -1.1197 0.9406
-12.9284 7.0376 -1.0793 0.9427
-15.3759 7.6675 -1.2598 0.9334
-18.2072 8.2767 -1.4665 0.9229
-18.4927 7.6175 -1.4665 0.9229
-10.5301 3.9015 -0.8234 0.9560
-18.9918 6.2706 -1.4665 0.9229
-3.7220 14.8133 -1.4664 0.9405
-4.7757 14.5080 -1.4664 0.9405
-5.2936 14.3272 -1.4664 0.9405
-5.8047 14.1279 -1.4664 0.9405
-6.3083 13.9104 -1.4664 0.9405
-6.8038 13.6748 -1.4664 0.9405
-7.7678 13.1513 -1.4664 0.9405
-8.2351 12.8639 -1.4664 0.9405
-9.5709 11.9037 -1.4664 0.9405
-10.4006 11.1861 -1.4664 0.9405
-10.7957 10.8054 -1.4664 0.9405
-12.2316 9.1483 -1.4664 0.9405
-12.5490 8.7009 -1.4660 0.9405
-12.7033 8.1485 -1.4489 0.9412
-12.7782 7.5630 -1.4255 0.9421
-13.9051 6.3210 -1.4664 0.9405
-10.4960 3.8888 -1.0746 0.9560
-14.5043 4.7889 -1.4664 0.9405
-3.0082 11.9723 -1.4663 0.9515
-3.4362 11.8566 -1.4663 0.9515
-5.8923 10.8476 -1.4664 0.9515
-6.6557 10.3967 -1.4664 0.9515
-7.0248 10.1510 -1.4664 0.9515
-7.7353 9.6207 -1.4664 0.9515
-8.0758 9.3367 -1.4664 0.9515
-8.7251 8.7330 -1.4664 0.9515
-9.0331 8.4141 -1.4664 0.9515
-9.3295 8.0842 -1.4664 0.9515
-10.1449 7.0340 -1.4664 0.9515
-10.8425 5.9022 -1.4664 0.9515
-10.4643 3.8771 -1.3256 0.9560
-2.0834 0.6879 -0.2606 0.9912
-2.5219 10.0370 -1.4663 0.9591
-2.8807 9.9400 -1.4663 0.9591
-3.2358 9.8301 -1.4663 0.9591
-3.5868 9.7076 -1.4663 0.9591
-4.2743 9.4252 -1.4664 0.9591
-4.6100 9.2656 -1.4664 0.9591
-5.5798 8.7161 -1.4664 0.9591
-6.1910 8.2931 -1.4664 0.9591
-6.4849 8.0655 -1.4664 0.9591
-6.7703 7.8274 -1.4664 0.9591
-7.0471 7.5792 -1.4664 0.9591
-7.3147 7.3213 -1.4664 0.9591
-7.8213 6.7774 -1.4664 0.9591
-8.5049 5.8969 -1.4664 0.9591
-8.7112 5.5877 -1.4664 0.9591
-8.9062 5.2713 -1.4664 0.9591
-9.0898 4.9481 -1.4664 0.9591
-9.2616 4.6185 -1.4664 0.9591
-9.5693 3.9418 -1.4664 0.9591
-2.7831 8.4547 -1.4663 0.9646
-3.0849 8.3493 -1.4663 0.9646
-3.6762 8.1064 -1.4663 0.9646
-3.9650 7.9692 -1.4663 0.9646
-4.7991 7.4965 -1.4664 0.9646
-5.0652 7.3194 -1.4664 0.9646
-5.3248 7.1328 -1.4664 0.9646
-5.5775 6.9369 -1.4664 0.9646
-5.8230 6.7322 -1.4664 0.9646
-6.2912 6.2969 -1.4664 0.9646
-6.5133 6.0669 -1.4664 0.9646
-6.7270 5.8291 -1.4664 0.9646
-6.9320 5.5838 -1.4664 0.9646
-7.4923 4.8059 -1.4664 0.9646
-7.6600 4.5337 -1.4664 0.9646
-7.9657 3.9722 -1.4664 0.9646
-1.8828 0.6976 -0.3308 0.9919
-1.8721 0.6181 -0.3248 0.9920
-2.1715 7.4930 -1.4663 0.9687
-2.7038 7.3178 -1.4663 0.9687
-3.2220 7.1049 -1.4663 0.9687
-3.4751 6.9846 -1.4663 0.9687
-3.7237 6.8553 -1.4663 0.9687
-4.2062 6.5704 -1.4663 0.9687
-4.4394 6.4151 -1.4664 0.9687
-4.6669 6.2515 -1.4664 0.9687
-5.3122 5.7133 -1.4664 0.9687
-5.5139 5.5189 -1.4664 0.9687
-5.8958 5.1089 -1.4664 0.9687
-6.5666 4.2121 -1.4664 0.9687
-6.8520 3.7299 -1.4664 0.9687
-7.6001 3.1306 -1.5450 0.9671
-1.7813 0.5882 -0.3526 0.9924
-2.1690 6.5892 -1.4663 0.9720
-2.6363 6.4165 -1.4663 0.9720
-2.8650 6.3177 -1.4663 0.9720
-3.0901 6.2107 -1.4663 0.9720
-3.3111 6.0958 -1.4663 0.9720
-3.5279 5.9729 -1.4663 0.9720
-3.9475 5.7043 -1.4663 0.9720
-4.1498 5.5589 -1.4663 0.9720
-4.3468 5.4063 -1.4663 0.9720
-4.5381 5.2467 -1.4664 0.9720
-4.9030 4.9075 -1.4664 0.9720
-5.0761 4.7282 -1.4664 0.9720
-5.2426 4.5429 -1.4664 0.9720
-5.5552 4.1549 -1.4664 0.9720
-5.8390 3.7454 -1.4664 0.9720
-6.5851 3.2837 -1.5554 0.9704
-1.7055 0.6319 -0.3845 0.9926
-1.7011 0.5617 -0.3787 0.9927
-1.5204 6.0510 -1.4663 0.9747
-1.7367 5.9925 -1.4663 0.9747
-2.1623 5.8524 -1.4663 0.9747
-2.3711 5.7710 -1.4663 0.9747
-2.5768 5.6821 -1.4663 0.9747
-2.7792 5.5859 -1.4663 0.9747
-3.1730 5.3721 -1.4663 0.9747
-3.3639 5.2546 -1.4663 0.9747
-3.5504 5.1305 -1.4663 0.9747
-3.9095 4.8624 -1.4663 0.9747
-4.2484 4.5692 -1.4663 0.9747
-4.5654 4.2525 -1.4663 0.9747
-4.9963 3.7369 -1.4664 0.9747
-5.4550 3.4991 -1.5231 0.9737
-6.0269 3.2808 -1.6127 0.9722
-6.1529 3.0682 -1.6159 0.9721
-1.6326 0.6725 -0.4150 0.9928
-1.6303 0.6040 -0.4086 0.9929
-1.3801 5.4926 -1.4663 0.9769
-1.5764 5.4395 -1.4663 0.9769
-2.1523 5.2384 -1.4663 0.9769
-2.3390 5.1577 -1.4663 0.9769
-2.7032 4.9765 -1.4663 0.9769
-3.0534 4.7697 -1.4663 0.9769
-3.2227 4.6570 -1.4663 0.9769
-3.3879 4.5382 -1.4663 0.9769
-3.5487 4.4137 -1.4663 0.9769
-3.8563 4.1476 -1.4663 0.9769
-4.0028 4.0064 -1.4663 0.9769
-4.1441 3.8601 -1.4663 0.9769
-5.1140 3.5459 -1.6113 0.9746
-5.5950 2.7900 -1.6188 0.9745
-1.5719 0.7145 -0.4471 0.9929
-1.5593 0.5148 -0.4252 0.9932
-1.2622 5.0235 -1.4663 0.9787
-1.6195 4.9200 -1.4663 0.9787
-1.7952 4.8587 -1.4663 0.9787
-2.1393 4.7173 -1.4663 0.9787
-2.6342 4.4599 -1.4663 0.9787
-2.7927 4.3624 -1.4663 0.9787
-3.0986 4.1507 -1.4663 0.9787
-3.4344 3.9707 -1.4862 0.9784
-3.6378 3.9125 -1.5124 0.9780
-3.8484 3.8519 -1.5414 0.9776
-4.4380 3.5749 -1.6133 0.9766
-4.5695 3.4177 -1.6154 0.9766
-4.6957 3.2558 -1.6176 0.9765
-4.8130 3.0873 -1.6187 0.9765
-1.6499 0.9765 -0.5428 0.9921
-5.0222 2.7338 -1.6188 0.9765
-5.1171 2.5517 -1.6188 0.9765
-1.5119 0.6873 -0.4702 0.9931
-1.3272 4.5797 -1.4666 0.9802
-1.9836 4.3741 -1.4772 0.9801
-2.4903 4.2162 -1.5061 0.9797
-2.6662 4.1648 -1.5210 0.9795
-3.0322 4.0618 -1.5591 0.9790
-3.2224 4.0078 -1.5818 0.9787
-3.7084 3.7117 -1.6138 0.9783
-3.8430 3.5797 -1.6154 0.9783
-4.0986 3.3014 -1.6187 0.9782
-4.2145 3.1521 -1.6187 0.9782
-4.4298 2.8415 -1.6187 0.9782
-1.5283 0.9045 -0.5462 0.9926
-4.6224 2.5162 -1.6187 0.9782
-1.4561 0.7261 -0.5005 0.9932
-1.4556 0.6617 -0.4918 0.9933
-1.1569 4.6043 -1.5781 0.9802
-1.3199 4.5544 -1.5762 0.9802
-1.8101 4.4057 -1.5833 0.9801
-2.6152 4.0852 -1.6124 0.9798
-2.9052 3.8916 -1.6143 0.9797
-3.1815 3.6783 -1.6166 0.9797
-3.3142 3.5645 -1.6179 0.9797
-3.5634 3.3192 -1.6187 0.9797
-3.7925 3.0549 -1.6187 0.9797
-4.0019 2.7748 -1.6187 0.9797
-4.0990 2.6293 -1.6187 0.9797
-1.5283 0.9045 -0.5903 0.9925
-4.2771 2.3283 -1.6187 0.9797
-1.4023 0.6993 -0.5209 0.9934
-1.4023 0.5776 -0.5041 0.9936
-1.4010 0.5191 -0.4966 0.9937
-1.4119 4.2893 -1.6149 0.9810
-1.8658 4.1142 -1.6155 0.9810
-2.0128 4.0455 -1.6159 0.9810
-2.1574 3.9718 -1.6164 0.9810
-2.4389 3.8097 -1.6176 0.9810
-2.7079 3.6273 -1.6187 0.9810
-2.9612 3.4236 -1.6187 0.9810
-3.0823 3.3150 -1.6187 0.9810
-3.1993 3.2022 -1.6187 0.9810
-3.4209 2.9643 -1.6187 0.9810
-3.5252 2.8396 -1.6187 0.9810
-3.6249 2.7111 -1.6187 0.9810
-3.8101 2.4440 -1.6187 0.9810
-1.5086 0.8929 -0.6269 0.9926
-1.3494 0.7346 -0.5494 0.9935
-1.3516 0.6740 -0.5401 0.9936
-1.3529 0.5013 -0.5160 0.9939
-1.0293 4.0967 -1.6187 0.9821
-1.1758 4.0571 -1.6187 0.9821
-1.7446 3.8469 -1.6187 0.9821
-1.8816 3.7818 -1.6187 0.9821
-2.0162 3.7118 -1.6187 0.9821
-2.1482 3.6370 -1.6187 0.9821
-2.2774 3.5575 -1.6187 0.9821
-2.4037 3.4735 -1.6187 0.9821
-2.6468 3.2920 -1.6187 0.9821
-2.7633 3.1948 -1.6187 0.9821
-2.8763 3.0935 -1.6187 0.9821
-2.9855 2.9882 -1.6187 0.9821
-3.1923 2.7662 -1.6187 0.9821
-3.5555 2.2806 -1.6187 0.9821
-1.3372 0.7915 -0.5955 0.9934
-1.3008 0.7081 -0.5676 0.9937
-1.3037 0.6501 -0.5583 0.9938
-1.3075 0.4844 -0.5344 0.9940
-1.3072 0.4316 -0.5276 0.9941
-1.7618 3.5410 -1.6187 0.9831
-2.1324 3.3310 -1.6187 0.9831
-2.4783 3.0824 -1.6187 0.9831
-2.5874 2.9914 -1.6187 0.9831
-2.8941 2.6958 -1.6187 0.9831
-3.3291 2.1354 -1.6187 0.9831
-1.2502 0.7400 -0.5946 0.9937
-1.2613 0.5734 -0.5670 0.9940
-1.2633 0.5204 -0.5592 0.9941
-1.2646 0.4175 -0.5450 0.9943
-0.9051 3.6023 -1.6187 0.9839
-1.1613 3.5280 -1.6187 0.9839
-1.6545 3.3254 -1.6187 0.9839
-1.7729 3.2638 -1.6187 0.9839
-2.0025 3.1282 -1.6187 0.9839
-2.1136 3.0542 -1.6187 0.9839
-2.2219 2.9763 -1.6187 0.9839
-2.3274 2.8947 -1.6187 0.9839
-2.4298 2.8092 -1.6187 0.9839
-2.5291 2.7201 -1.6187 0.9839
-2.6252 2.6276 -1.6187 0.9839
-2.7178 2.5316 -1.6187 0.9839
-2.8926 2.3300 -1.6187 0.9839
-3.0524 2.1164 -1.6187 0.9839
-1.1999 0.7696 -0.6212 0.9938
-1.2157 0.6062 -0.5921 0.9941
-1.2192 0.5542 -0.5836 0.9942
-1.2216 0.5032 -0.5758 0.9943
-1.2232 0.4532 -0.5685 0.9943
-1.2239 0.4041 -0.5617 0.9944
-0.9734 3.3588 -1.6187 0.9847
-1.0934 3.3217 -1.6187 0.9847
-1.2120 3.2803 -1.6187 0.9847
-1.4443 3.1848 -1.6187 0.9847
-1.5578 3.1309 -1.6187 0.9847
-1.7785 3.0110 -1.6187 0.9847
-1.8854 2.9452 -1.6187 0.9847
-1.9900 2.8756 -1.6187 0.9847
-2.2877 2.6449 -1.6187 0.9847
-2.3812 2.5611 -1.6187 0.9847
-2.4717 2.4739 -1.6187 0.9847
-2.7234 2.1937 -1.6187 0.9847
-2.8004 2.0945 -1.6187 0.9847
-2.8738 1.9926 -1.6187 0.9847
-1.1574 0.7424 -0.6365 0.9940
-1.1643 0.6891 -0.6263 0.9941
-1.1819 0.4869 -0.5917 0.9944
-1.1839 0.4386 -0.5844 0.9945
-1.1851 0.3913 -0.5777 0.9945
-0.8042 3.2005 -1.6187 0.9854
-1.0318 3.1345 -1.6187 0.9854
-1.1437 3.0955 -1.6187 0.9854
-1.2541 3.0524 -1.6187 0.9854
-1.4700 2.9545 -1.6187 0.9854
-1.5751 2.8998 -1.6187 0.9854
-1.8779 2.7136 -1.6187 0.9854
-2.0678 2.5718 -1.6187 0.9854
-2.1588 2.4959 -1.6187 0.9854
-2.2471 2.4168 -1.6187 0.9854
-2.4147 2.2492 -1.6187 0.9854
-2.5700 2.0701 -1.6187 0.9854
-1.1248 0.6657 -0.6411 0.9942
-1.1489 0.3794 -0.5935 0.9946
-0.7604 3.0262 -1.6187 0.9860
-0.8686 2.9969 -1.6187 0.9860
-1.0814 2.9269 -1.6187 0.9860
-1.4893 2.7419 -1.6187 0.9860
-1.7756 2.5658 -1.6187 0.9860
-1.9552 2.4317 -1.6187 0.9860
-2.1247 2.2851 -1.6187 0.9860
-2.2832 2.1267 -1.6187 0.9860
-2.3581 2.0434 -1.6187 0.9860
-1.0743 0.8654 -0.7157 0.9938
-1.0423 0.7796 -0.6752 0.9942
-1.0794 0.6923 -0.6653 0.9942
-1.0871 0.6434 -0.6553 0.9943
-1.0937 0.5954 -0.6460 0.9944
-1.1039 0.5018 -0.6291 0.9946
-1.1142 0.3679 -0.6087 0.9947
-0.7202 2.8664 -1.6187 0.9866
-0.9241 2.8073 -1.6187 0.9866
-1.0243 2.7723 -1.6187 0.9866
-1.2206 2.6916 -1.6187 0.9866
-1.4107 2.5971 -1.6187 0.9866
-1.5031 2.5447 -1.6187 0.9866
-1.6818 2.4303 -1.6187 0.9866
-1.7680 2.3683 -1.6187 0.9866
-1.9334 2.2353 -1.6187 0.9866
-2.0889 2.0908 -1.6187 0.9866
-1.0004 0.8668 -0.7250 0.9940
-0.9833 0.7920 -0.6915 0.9943
-1.0107 0.7008 -0.6736 0.9944
-1.0296 0.6604 -0.6699 0.9944
-1.0638 0.5304 -0.6510 0.9946
-1.0686 0.4858 -0.6429 0.9947
-1.0726 0.4418 -0.6354 0.9947
-1.0757 0.3985 -0.6283 0.9948
-1.0655 2.5933 -1.6187 0.9871
-1.2489 2.5102 -1.6187 0.9871
-1.5116 2.3613 -1.6187 0.9871
-1.5955 2.3055 -1.6187 0.9871
-1.8341 2.1205 -1.6187 0.9871
-1.9091 2.0533 -1.6187 0.9871
-0.9226 0.8594 -0.7280 0.9942
-0.9997 0.5917 -0.6707 0.9946
-1.0154 0.5527 -0.6674 0.9947
-1.0348 0.4704 -0.6563 0.9948
-1.0390 0.4280 -0.6488 0.9948
