ply
format ascii 1.0
element vertex 485
property float32 x
property float32 y
property float32 z
property float32 I
end_header
-22.6461 -37.8982 7.7846 0.8358
-19.5489 -38.7532 7.6534 0.8384
-18.0354 -39.1710 7.6039 0.8393
-15.0570 -39.9933 7.5351 0.8407
-14.2679 -42.4336 7.8938 0.8337
-12.7670 -42.9937 7.9081 0.8335
-11.1882 -43.2838 7.8830 0.8339
-9.6779 -43.8465 7.9174 0.8333
-4.7417 -42.8868 7.6082 0.8392
-1.6913 -43.6834 7.7083 0.8373
-0.1319 -44.1139 7.7785 0.8360
-22.6460 -37.8982 6.7633 0.8364
-21.0843 -38.3293 6.7016 0.8378
-19.5489 -38.7532 6.6494 0.8389
-18.0354 -39.1711 6.6063 0.8399
-16.5940 -39.7148 6.5938 0.8401
-15.0570 -39.9933 6.5466 0.8412
-12.7670 -42.9937 6.8707 0.8340
-11.1882 -43.2838 6.8488 0.8345
-9.6779 -43.8465 6.8787 0.8338
-6.2315 -42.4299 6.5698 0.8407
-1.6913 -43.6834 6.6971 0.8379
3.0712 -44.8127 6.8812 0.8338
8.2031 -46.2470 7.1954 0.8269
10.0275 -46.7569 7.3258 0.8241
-22.6460 -37.8982 5.7491 0.8369
-17.9839 -39.0593 5.5996 0.8408
-16.4813 -39.4451 5.5669 0.8416
-12.0745 -40.6617 5.5235 0.8427
-10.6146 -41.0647 5.5232 0.8427
-4.7260 -42.7456 5.6003 0.8407
-0.1319 -44.1139 5.7446 0.8370
3.0712 -44.8127 5.8492 0.8343
8.2031 -46.2470 6.1163 0.8274
11.8374 -46.9523 6.3055 0.8226
13.1770 -45.3668 6.1519 0.8265
15.2510 -46.2714 6.3444 0.8216
-18.0354 -39.1710 4.6307 0.8407
-15.0569 -39.9933 4.5888 0.8420
-13.4097 -39.8813 4.5181 0.8443
-6.2313 -42.4288 4.6049 0.8415
-4.7523 -42.9828 4.6437 0.8403
-1.6913 -43.6821 4.6942 0.8387
3.0712 -44.8127 4.8233 0.8347
4.7320 -45.2769 4.8884 0.8327
6.4404 -45.7544 4.9616 0.8304
8.2031 -46.2470 5.0436 0.8278
10.0275 -46.7569 5.1350 0.8250
14.4084 -43.7150 4.9426 0.8310
16.4961 -44.6233 5.1087 0.8258
-16.5186 -39.5343 3.6271 0.8420
-10.6386 -41.1576 3.5986 0.8431
-6.2235 -42.3755 3.6257 0.8420
-4.7307 -42.7876 3.6442 0.8413
-1.6869 -43.5692 3.6910 0.8394
6.4404 -45.7543 3.9114 0.8307
8.2031 -46.2470 3.9761 0.8282
11.8374 -46.9524 4.0990 0.8233
12.7146 -43.7749 3.8588 0.8328
17.6442 -42.9484 3.9306 0.8299
13.1467 -29.0088 2.6961 0.8800
-21.0843 -38.3293 2.7127 0.8392
-19.5489 -38.7531 2.6915 0.8403
-18.0353 -39.1710 2.6741 0.8413
-16.5940 -39.7147 2.6690 0.8416
-13.6177 -40.4997 2.6496 0.8426
-10.6871 -41.3454 2.6481 0.8427
-9.1853 -41.6143 2.6426 0.8430
-7.7128 -42.0197 2.6492 0.8426
-6.2313 -42.4288 2.6592 0.8421
-1.6912 -43.6821 2.7108 0.8393
-0.1319 -44.1127 2.7355 0.8380
4.7320 -45.2768 2.8229 0.8332
10.0275 -46.7569 2.9653 0.8256
11.8374 -46.9524 3.0026 0.8236
12.7146 -43.7749 2.8267 0.8330
14.8561 -40.1869 2.6568 0.8422
20.9762 -42.2085 2.9228 0.8279
23.4392 -43.2204 3.0489 0.8212
-19.5489 -38.7531 1.7115 0.8405
-13.5708 -40.3602 1.6790 0.8433
-12.0004 -40.4122 1.6623 0.8447
-9.1853 -41.6143 1.6804 0.8432
-4.7523 -42.9828 1.7052 0.8410
-3.2353 -43.4016 1.7161 0.8401
-1.6912 -43.6822 1.7237 0.8395
-0.1319 -44.1127 1.7394 0.8381
3.0712 -44.8127 1.7712 0.8354
4.7320 -45.2768 1.7950 0.8334
6.4404 -45.7544 1.8219 0.8311
11.8374 -46.9524 1.9093 0.8238
13.4957 -40.9459 1.7000 0.8415
14.1972 -38.4047 1.6145 0.8488
17.8328 -39.3488 1.7035 0.8412
22.1688 -40.8779 1.8336 0.8301
-22.6460 -37.8981 0.7458 0.8381
-19.5489 -38.7531 0.7332 0.8406
-18.0354 -39.1710 0.7284 0.8415
-14.0776 -37.3921 0.6749 0.8523
-7.7128 -42.0197 0.7216 0.8429
-6.2313 -42.4288 0.7244 0.8423
-1.6912 -43.6822 0.7384 0.8396
-0.1319 -44.1127 0.7451 0.8382
3.0712 -44.8127 0.7587 0.8355
6.4404 -45.7544 0.7805 0.8312
8.2031 -46.2470 0.7934 0.8287
11.8374 -46.9524 0.8179 0.8239
13.4957 -40.9459 0.7283 0.8416
-22.6460 -37.8981 -0.2486 0.8381
-19.5489 -38.7531 -0.2444 0.8406
-18.0353 -39.1710 -0.2428 0.8416
-14.9120 -39.6083 -0.2383 0.8443
-13.6289 -40.5332 -0.2408 0.8428
-10.6871 -41.3454 -0.2404 0.8430
-9.1852 -41.6143 -0.2399 0.8433
-7.7128 -42.0197 -0.2405 0.8429
-6.2313 -42.4287 -0.2414 0.8424
-4.7459 -42.9254 -0.2431 0.8413
-3.2353 -43.4016 -0.2450 0.8402
-1.6912 -43.6821 -0.2461 0.8396
8.2031 -46.2470 -0.2644 0.8287
11.8375 -46.9524 -0.2726 0.8239
17.9168 -36.0523 -0.2267 0.8513
-7.0791 -14.0334 -0.4426 0.9390
-14.9120 -39.6084 -1.1917 0.8442
-13.6289 -40.5332 -1.2041 0.8427
-12.0004 -40.4122 -1.1870 0.8448
-10.6520 -41.2094 -1.1985 0.8434
-9.1852 -41.6143 -1.2000 0.8432
-1.9598 -13.3439 -0.3798 0.9475
-1.4620 -13.2232 -0.3746 0.9482
-1.0244 -13.7424 -0.3880 0.9463
-0.1319 -44.1127 -1.2421 0.8382
3.0712 -44.8126 -1.2648 0.8355
6.4404 -45.7544 -1.3010 0.8312
13.4957 -40.9459 -1.2140 0.8415
14.8324 -36.1042 -1.0991 0.8554
17.1520 -34.5133 -1.0852 0.8571
-8.3232 -13.9289 -0.8229 0.9371
-6.9729 -13.8229 -0.7852 0.9399
-6.3488 -13.7890 -0.7699 0.9410
-9.6377 -28.6623 -1.5336 0.8859
-3.5739 -13.8262 -0.7242 0.9444
-3.0149 -13.6592 -0.7094 0.9455
-2.4301 -13.2392 -0.6826 0.9475
-1.9361 -13.1829 -0.6757 0.9480
-1.4446 -13.0657 -0.6667 0.9487
-0.9645 -12.9392 -0.6580 0.9494
2.0293 -29.6101 -1.5052 0.8879
3.0828 -29.4940 -1.5039 0.8880
5.1862 -29.2369 -1.5059 0.8879
7.2450 -28.7363 -1.5029 0.8881
-8.3173 -13.9191 -1.1889 0.9370
-5.7677 -13.8039 -1.0969 0.9418
-5.3866 -14.3076 -1.1210 0.9405
-2.4296 -13.2366 -0.9867 0.9475
-1.9264 -13.1172 -0.9721 0.9482
-1.4374 -13.0008 -0.9591 0.9489
-0.0376 -12.5967 -0.9236 0.9507
0.4628 -14.1396 -1.0373 0.9448
1.3673 -19.9510 -1.4663 0.9229
2.0787 -19.8894 -1.4663 0.9229
3.4926 -19.6902 -1.4663 0.9229
4.1933 -19.5529 -1.4663 0.9229
4.8887 -19.3907 -1.4663 0.9229
6.9339 -18.7567 -1.4662 0.9229
8.2545 -18.2139 -1.4662 0.9229
8.8995 -17.9076 -1.4662 0.9229
9.5331 -17.5784 -1.4662 0.9229
-8.6489 -14.4740 -1.6188 0.9345
-6.3342 -13.7572 -1.4540 0.9410
-6.4879 -15.5275 -1.6156 0.9346
-5.9140 -15.7085 -1.6114 0.9348
-3.5084 -13.5732 -1.3459 0.9452
-2.9677 -13.4455 -1.3219 0.9462
-2.4424 -13.3065 -1.2988 0.9471
-1.9344 -13.1713 -1.2781 0.9479
-0.9596 -12.8723 -1.2392 0.9495
-0.4924 -12.7177 -1.2219 0.9501
0.4996 -15.2649 -1.4663 0.9405
2.6674 -15.0382 -1.4663 0.9405
4.2600 -14.6666 -1.4663 0.9405
4.7809 -14.5052 -1.4663 0.9405
5.8037 -14.1270 -1.4663 0.9405
6.3043 -13.9108 -1.4662 0.9405
6.7969 -13.6768 -1.4662 0.9405
-6.9902 -11.6981 -1.6188 0.9466
-5.2537 -12.5739 -1.6187 0.9466
-3.4103 -13.1936 -1.6187 0.9466
-2.9371 -13.3069 -1.6187 0.9466
-2.4602 -13.4032 -1.6187 0.9466
-1.9801 -13.4825 -1.6187 0.9466
-0.5272 -13.6168 -1.6187 0.9466
0.4458 -13.6197 -1.6187 0.9466
0.9317 -13.5950 -1.6187 0.9466
1.8994 -13.4938 -1.6187 0.9466
2.3799 -13.4174 -1.6187 0.9466
2.8574 -13.3239 -1.6187 0.9466
3.3313 -13.2133 -1.6187 0.9466
3.8009 -13.0859 -1.6187 0.9466
4.7250 -12.7813 -1.6187 0.9466
5.6249 -12.4115 -1.6187 0.9466
6.0644 -12.2028 -1.6187 0.9466
6.4962 -11.9785 -1.6186 0.9466
-5.8602 -9.8071 -1.6187 0.9549
-4.0254 -10.6918 -1.6187 0.9549
-3.2521 -10.9518 -1.6187 0.9549
-2.8591 -11.0609 -1.6187 0.9549
-2.0625 -11.2367 -1.6187 0.9549
-1.6600 -11.3031 -1.6187 0.9549
-0.4420 -11.4158 -1.6187 0.9549
0.3738 -11.4182 -1.6187 0.9549
0.7811 -11.3975 -1.6187 0.9549
2.3955 -11.1702 -1.6187 0.9549
2.7928 -11.0775 -1.6187 0.9549
3.1865 -10.9707 -1.6187 0.9549
3.9612 -10.7153 -1.6187 0.9549
4.7157 -10.4053 -1.6187 0.9549
5.4461 -10.0423 -1.6187 0.9549
-5.0403 -8.4349 -1.6187 0.9609
-4.7359 -8.6094 -1.6187 0.9609
-4.4255 -8.7730 -1.6187 0.9609
-4.1095 -8.9254 -1.6187 0.9609
-3.7882 -9.0664 -1.6187 0.9609
-3.4621 -9.1959 -1.6187 0.9609
-3.1316 -9.3136 -1.6187 0.9609
-2.1178 -9.5950 -1.6187 0.9609
-1.7740 -9.6645 -1.6187 0.9609
-1.0798 -9.7664 -1.6187 0.9609
-0.7304 -9.7987 -1.6187 0.9609
-0.3801 -9.8185 -1.6187 0.9609
0.3214 -9.8206 -1.6187 0.9609
0.6718 -9.8028 -1.6187 0.9609
1.0214 -9.7726 -1.6187 0.9610
1.3696 -9.7298 -1.6187 0.9610
1.7161 -9.6747 -1.6187 0.9610
2.4021 -9.5276 -1.6187 0.9610
4.3728 -8.7990 -1.6187 0.9610
-4.1508 -7.5458 -1.6187 0.9656
-3.0344 -8.0597 -1.6187 0.9656
-2.1552 -8.3379 -1.6187 0.9656
-1.8562 -8.4096 -1.6187 0.9656
-1.2514 -8.5205 -1.6187 0.9656
-0.3332 -8.6055 -1.6187 0.9656
0.5888 -8.5917 -1.6187 0.9656
0.8952 -8.5652 -1.6187 0.9656
1.2004 -8.5278 -1.6187 0.9656
2.1053 -8.3505 -1.6187 0.9656
2.4021 -8.2700 -1.6187 0.9656
2.9860 -8.0775 -1.6187 0.9656
3.2725 -7.9658 -1.6187 0.9656
3.5548 -7.8439 -1.6187 0.9656
4.1055 -7.5702 -1.6187 0.9656
-3.9281 -6.5737 -1.6187 0.9692
-3.6909 -6.7097 -1.6187 0.9692
-2.4406 -7.2585 -1.6187 0.9692
-2.1799 -7.3410 -1.6187 0.9692
-1.9164 -7.4142 -1.6187 0.9692
-1.3825 -7.5320 -1.6187 0.9692
-1.1128 -7.5766 -1.6187 0.9692
-0.2963 -7.6521 -1.6187 0.9692
-0.0229 -7.6577 -1.6187 0.9692
0.2505 -7.6537 -1.6187 0.9692
0.5236 -7.6398 -1.6187 0.9692
1.0674 -7.5830 -1.6187 0.9692
1.3374 -7.5400 -1.6187 0.9692
1.8721 -7.4254 -1.6187 0.9692
2.1359 -7.3538 -1.6187 0.9692
2.9099 -7.0832 -1.6187 0.9692
3.4080 -6.8575 -1.6187 0.9692
-3.5329 -5.9124 -1.6187 0.9721
-3.3196 -6.0347 -1.6187 0.9721
-2.4268 -6.4458 -1.6187 0.9721
-1.9606 -6.6025 -1.6187 0.9721
-1.4845 -6.7256 -1.6187 0.9721
-1.2434 -6.7743 -1.6187 0.9721
-1.0008 -6.8143 -1.6187 0.9721
-0.7569 -6.8457 -1.6187 0.9721
-0.5120 -6.8684 -1.6187 0.9721
-0.0206 -6.8874 -1.6187 0.9721
0.2253 -6.8837 -1.6187 0.9721
0.9600 -6.8202 -1.6187 0.9721
1.2029 -6.7815 -1.6187 0.9721
1.4442 -6.7342 -1.6187 0.9721
1.9211 -6.6140 -1.6187 0.9721
2.3881 -6.4600 -1.6187 0.9721
2.8430 -6.2732 -1.6187 0.9721
-3.0132 -5.4778 -1.6187 0.9745
-2.8158 -5.5819 -1.6187 0.9745
-2.6147 -5.6788 -1.6187 0.9745
-1.9925 -5.9258 -1.6187 0.9745
-1.3475 -6.1049 -1.6187 0.9745
-1.1287 -6.1491 -1.6187 0.9745
0.4275 -6.2371 -1.6187 0.9745
0.6498 -6.2179 -1.6187 0.9745
0.8714 -6.1908 -1.6187 0.9745
1.0919 -6.1557 -1.6187 0.9745
1.3109 -6.1128 -1.6187 0.9745
1.7438 -6.0036 -1.6187 0.9745
2.5806 -5.6942 -1.6187 0.9745
-2.5753 -5.1052 -1.6187 0.9765
-2.3914 -5.1939 -1.6187 0.9765
-2.2044 -5.2759 -1.6187 0.9765
-2.0147 -5.3513 -1.6187 0.9765
-1.8224 -5.4198 -1.6187 0.9765
-1.4310 -5.5360 -1.6187 0.9765
-0.6283 -5.6833 -1.6187 0.9765
-0.2212 -5.7136 -1.6187 0.9765
0.1870 -5.7148 -1.6187 0.9765
0.3909 -5.7045 -1.6187 0.9765
0.5944 -5.6869 -1.6187 0.9765
0.7970 -5.6621 -1.6187 0.9765
1.1990 -5.5908 -1.6187 0.9765
1.3978 -5.5444 -1.6187 0.9765
2.5447 -5.1204 -1.6187 0.9765
2.7258 -5.0263 -1.6187 0.9765
-2.6996 -4.5177 -1.6187 0.9782
-2.5365 -4.6112 -1.6187 0.9782
-2.2010 -4.7804 -1.6187 0.9782
-1.8543 -4.9253 -1.6187 0.9782
-1.4981 -5.0450 -1.6187 0.9782
-0.5783 -5.2309 -1.6187 0.9782
-0.3912 -5.2482 -1.6187 0.9782
-0.2036 -5.2588 -1.6187 0.9782
-0.0158 -5.2627 -1.6187 0.9782
0.1722 -5.2599 -1.6187 0.9782
0.3598 -5.2504 -1.6187 0.9782
0.5470 -5.2342 -1.6187 0.9782
0.7336 -5.2113 -1.6187 0.9782
1.1035 -5.1457 -1.6187 0.9782
1.2866 -5.1030 -1.6187 0.9782
1.6474 -4.9982 -1.6187 0.9782
1.8248 -4.9362 -1.6187 0.9782
2.1724 -4.7934 -1.6187 0.9782
2.5088 -4.6262 -1.6187 0.9782
-2.3471 -4.2668 -1.6187 0.9797
-2.1933 -4.3478 -1.6187 0.9797
-1.8774 -4.4933 -1.6187 0.9797
-1.5520 -4.6158 -1.6187 0.9797
-1.3863 -4.6682 -1.6187 0.9797
-1.2187 -4.7147 -1.6187 0.9797
-0.8792 -4.7897 -1.6187 0.9797
-0.7076 -4.8180 -1.6187 0.9797
-0.3620 -4.8562 -1.6187 0.9797
0.3330 -4.8583 -1.6187 0.9797
1.1904 -4.7219 -1.6187 0.9797
1.5244 -4.6249 -1.6187 0.9797
1.6885 -4.5675 -1.6187 0.9797
1.8505 -4.5043 -1.6187 0.9797
2.0101 -4.4354 -1.6187 0.9797
2.1672 -4.3608 -1.6187 0.9797
2.3215 -4.2806 -1.6187 0.9797
-2.3219 -3.8857 -1.6187 0.9810
-2.1817 -3.9661 -1.6187 0.9810
-2.0387 -4.0415 -1.6187 0.9810
-1.8931 -4.1117 -1.6187 0.9810
-1.7451 -4.1766 -1.6187 0.9810
-1.5949 -4.2362 -1.6187 0.9810
-1.1328 -4.3825 -1.6187 0.9810
-0.9756 -4.4201 -1.6187 0.9810
-0.6577 -4.4785 -1.6187 0.9810
-0.1751 -4.5231 -1.6187 0.9810
0.1481 -4.5240 -1.6187 0.9810
0.3095 -4.5159 -1.6187 0.9810
0.4705 -4.5020 -1.6187 0.9810
0.6309 -4.4823 -1.6187 0.9810
0.9492 -4.4258 -1.6187 0.9810
1.7201 -4.1869 -1.6187 0.9810
2.1579 -3.9790 -1.6187 0.9810
-2.1667 -3.6260 -1.6187 0.9821
-1.2024 -4.0492 -1.6187 0.9821
-1.0571 -4.0896 -1.6187 0.9821
-0.9104 -4.1247 -1.6187 0.9821
-0.7626 -4.1546 -1.6187 0.9821
-0.6138 -4.1792 -1.6187 0.9821
-0.4642 -4.1984 -1.6187 0.9821
-0.3140 -4.2123 -1.6187 0.9821
-0.1634 -4.2208 -1.6187 0.9821
0.2888 -4.2141 -1.6187 0.9821
0.5888 -4.1827 -1.6187 0.9821
0.7377 -4.1590 -1.6187 0.9821
0.8857 -4.1300 -1.6187 0.9821
1.0326 -4.0958 -1.6187 0.9821
1.1782 -4.0563 -1.6187 0.9821
1.4646 -3.9619 -1.6187 0.9821
-1.7813 -3.5312 -1.6187 0.9831
-1.5248 -3.6493 -1.6187 0.9831
-1.3935 -3.7014 -1.6187 0.9831
-1.2605 -3.7488 -1.6187 0.9831
-1.1259 -3.7915 -1.6187 0.9831
-0.9898 -3.8292 -1.6187 0.9831
-0.8525 -3.8621 -1.6187 0.9831
-0.0118 -3.9550 -1.6187 0.9831
0.2704 -3.9458 -1.6187 0.9831
0.5513 -3.9164 -1.6187 0.9831
0.8293 -3.8671 -1.6187 0.9831
1.1032 -3.7981 -1.6187 0.9831
1.3714 -3.7097 -1.6187 0.9831
1.5029 -3.6583 -1.6187 0.9831
1.6326 -3.6024 -1.6187 0.9831
1.7602 -3.5418 -1.6187 0.9831
-1.9052 -3.1884 -1.6187 0.9839
-1.6728 -3.3162 -1.6187 0.9839
-1.5534 -3.3738 -1.6187 0.9839
-1.3087 -3.4760 -1.6187 0.9839
-1.0573 -3.5605 -1.6187 0.9839
-0.5397 -3.6748 -1.6187 0.9839
-0.1437 -3.7114 -1.6187 0.9839
-0.0111 -3.7142 -1.6187 0.9839
0.1215 -3.7122 -1.6187 0.9839
1.1627 -3.5275 -1.6187 0.9839
1.4114 -3.4355 -1.6187 0.9839
-1.7938 -3.0019 -1.6187 0.9847
-1.4625 -3.1765 -1.6187 0.9847
-1.3482 -3.2267 -1.6187 0.9847
-0.8751 -3.3857 -1.6187 0.9847
-0.6313 -3.4395 -1.6187 0.9847
-0.3843 -3.4758 -1.6187 0.9847
-0.2600 -3.4873 -1.6187 0.9847
-0.1353 -3.4944 -1.6187 0.9847
0.3635 -3.4780 -1.6187 0.9847
0.4874 -3.4629 -1.6187 0.9847
1.2125 -3.2800 -1.6187 0.9847
1.4435 -3.1851 -1.6187 0.9847
-1.6927 -2.8328 -1.6187 0.9854
-1.1627 -3.0883 -1.6187 0.9854
-1.0517 -3.1279 -1.6187 0.9854
-0.9394 -3.1634 -1.6187 0.9854
-0.8258 -3.1950 -1.6187 0.9854
-0.4795 -3.2649 -1.6187 0.9854
-0.3626 -3.2800 -1.6187 0.9854
-0.2453 -3.2908 -1.6187 0.9854
-0.1277 -3.2975 -1.6187 0.9854
0.3430 -3.2821 -1.6187 0.9854
0.4600 -3.2677 -1.6187 0.9854
0.5764 -3.2492 -1.6187 0.9854
0.6920 -3.2266 -1.6187 0.9854
0.8067 -3.1998 -1.6187 0.9854
1.1442 -3.0952 -1.6187 0.9854
1.2540 -3.0524 -1.6187 0.9854
1.4686 -2.9551 -1.6187 0.9854
1.5732 -2.9008 -1.6187 0.9854
-1.6005 -2.6785 -1.6187 0.9860
-1.5039 -2.7339 -1.6187 0.9860
-0.7809 -3.0209 -1.6187 0.9860
-0.6725 -3.0469 -1.6187 0.9860
-0.4534 -3.0871 -1.6187 0.9860
-0.0093 -3.1202 -1.6187 0.9860
0.1021 -3.1185 -1.6187 0.9860
0.4349 -3.0898 -1.6187 0.9860
0.5449 -3.0722 -1.6187 0.9860
0.7628 -3.0255 -1.6187 0.9860
0.9767 -2.9634 -1.6187 0.9860
1.0819 -2.9266 -1.6187 0.9860
1.3886 -2.7942 -1.6187 0.9860
-1.5160 -2.5370 -1.6187 0.9866
-1.4245 -2.5895 -1.6187 0.9866
-1.0413 -2.7659 -1.6187 0.9866
-0.9419 -2.8013 -1.6187 0.9866
-0.8413 -2.8332 -1.6187 0.9866
-0.5336 -2.9069 -1.6187 0.9866
-0.4295 -2.9241 -1.6187 0.9866
-0.0088 -2.9554 -1.6187 0.9866
0.0967 -2.9538 -1.6187 0.9866
0.2021 -2.9485 -1.6187 0.9866
0.3072 -2.9394 -1.6187 0.9866
0.5162 -2.9100 -1.6187 0.9866
0.6197 -2.8897 -1.6187 0.9866
0.7225 -2.8658 -1.6187 0.9866
1.0248 -2.7721 -1.6187 0.9866
1.2200 -2.6919 -1.6187 0.9866
1.4089 -2.5979 -1.6187 0.9866
-1.3513 -2.4566 -1.6187 0.9871
-1.2627 -2.5032 -1.6187 0.9871
-1.1726 -2.5467 -1.6187 0.9871
-1.0809 -2.5870 -1.6187 0.9871
-0.9879 -2.6239 -1.6187 0.9871
-0.8936 -2.6575 -1.6187 0.9871
-0.6043 -2.7378 -1.6187 0.9871
-0.5062 -2.7576 -1.6187 0.9871
-0.1085 -2.8016 -1.6187 0.9871
0.5879 -2.7413 -1.6187 0.9871
0.7820 -2.6924 -1.6187 0.9871
0.9721 -2.6297 -1.6187 0.9871
1.3366 -2.4646 -1.6187 0.9871
