ply
format ascii 1.0
element vertex 639
property float32 x
property float32 y
property float32 z
property float32 I
end_header
-21.6431 -38.1751 7.7378 0.8367
-18.6206 -39.1553 7.6451 0.8385
-17.0486 -39.4436 7.5768 0.8398
-15.5529 -39.8565 7.5439 0.8405
-13.2245 -42.7218 7.8857 0.8339
-11.6874 -43.1917 7.8898 0.8338
-8.1624 -41.8968 7.5264 0.8408
-6.6971 -42.4472 7.5772 0.8398
-5.1809 -42.7657 7.5959 0.8395
-3.6597 -43.1400 7.6341 0.8387
-20.1557 -38.7315 6.6888 0.8380
-18.6206 -39.1553 6.6421 0.8391
-17.0485 -39.4436 6.5828 0.8404
-15.5529 -39.8565 6.5542 0.8410
-13.2245 -42.7217 6.8511 0.8345
-3.6993 -15.9184 2.5038 0.9360
-8.1624 -41.8968 6.5390 0.8414
-5.1926 -42.8625 6.6143 0.8397
-3.6597 -43.1400 6.6325 0.8393
-2.1234 -43.5641 6.6817 0.8382
-0.5621 -43.9952 6.7404 0.8369
6.0093 -45.6339 7.0512 0.8301
7.7687 -46.1257 7.1657 0.8276
-21.6303 -38.1526 5.7112 0.8379
-18.5173 -38.9381 5.6147 0.8404
-16.9887 -39.3050 5.5760 0.8414
-3.6991 -15.9174 2.1281 0.9362
-8.1338 -41.7497 5.5389 0.8423
-6.6514 -42.1579 5.5577 0.8418
-2.1173 -43.4398 5.6635 0.8391
-0.5621 -43.9951 5.7296 0.8374
2.6434 -44.6932 5.8302 0.8348
6.0093 -45.6339 5.9938 0.8306
7.7687 -46.1256 6.0911 0.8281
9.5886 -46.6343 6.1998 0.8253
11.4771 -47.1621 6.3207 0.8222
6.6504 -23.6031 3.1933 0.9058
14.8121 -46.1503 6.3117 0.8224
-21.6430 -38.1750 4.7123 0.8382
-20.1556 -38.7314 4.6885 0.8389
-18.5784 -39.0667 4.6453 0.8403
-15.5529 -39.8564 4.5942 0.8419
-12.6036 -40.7162 4.5768 0.8424
-3.6987 -15.9156 1.7546 0.9364
-6.6818 -42.3500 4.6039 0.8416
-3.6596 -43.1388 4.6490 0.8402
-0.5621 -43.9939 4.7245 0.8378
2.6434 -44.6932 4.8076 0.8352
6.0093 -45.6339 4.9425 0.8310
9.5886 -46.6343 5.1124 0.8257
11.4771 -47.1621 5.2121 0.8226
13.9937 -43.6005 4.9171 0.8318
16.0692 -44.5055 5.0810 0.8267
18.2802 -45.4479 5.2603 0.8211
17.2439 -18.8211 2.7410 0.9024
-20.0411 -38.5114 3.6751 0.8401
-17.0271 -39.3939 3.6330 0.8417
-15.3632 -39.3705 3.5776 0.8440
-12.5748 -40.6231 3.5998 0.8431
-11.1024 -41.0296 3.5982 0.8431
-8.1522 -41.8441 3.6088 0.8427
-5.1689 -42.6667 3.6383 0.8415
-3.6550 -43.0846 3.6603 0.8407
-2.1181 -43.4545 3.6829 0.8398
-0.5605 -43.8682 3.7139 0.8385
2.6434 -44.6931 3.7900 0.8355
4.3030 -45.1570 3.8400 0.8335
6.0093 -45.6339 3.8964 0.8313
9.5886 -46.6343 4.0303 0.8260
12.5262 -44.4569 3.9099 0.8308
13.3319 -41.5385 3.6930 0.8394
17.2288 -42.8338 3.9083 0.8308
21.6796 -44.3946 4.1823 0.8201
-21.6430 -38.1750 2.7212 0.8387
-20.1238 -38.6704 2.7032 0.8397
-18.5785 -39.0667 2.6825 0.8408
-17.0485 -39.4435 2.6646 0.8418
-11.1164 -41.0812 2.6391 0.8432
-8.1624 -41.8967 2.6469 0.8428
-6.6818 -42.3500 2.6586 0.8421
-3.6596 -43.1388 2.6847 0.8407
-2.1233 -43.5629 2.7045 0.8396
2.6434 -44.6931 2.7763 0.8357
4.3031 -45.1570 2.8129 0.8338
7.7687 -46.1256 2.9006 0.8291
16.3275 -40.5931 2.7132 0.8392
13.7379 -30.8998 2.0969 0.8733
20.5554 -42.0923 2.9048 0.8288
22.7921 -42.7098 3.0020 0.8236
17.2153 -18.7899 1.5803 0.9029
-20.1556 -38.7314 1.7216 0.8396
-18.6205 -39.1552 1.7096 0.8407
-17.0485 -39.4435 1.6944 0.8420
-13.9506 -39.9299 1.6678 0.8442
-12.5138 -40.4259 1.6687 0.8442
-8.1624 -41.8967 1.6831 0.8429
-6.6969 -42.4460 1.6944 0.8420
-5.1925 -42.8613 1.7024 0.8413
-2.1233 -43.5629 1.7198 0.8398
-0.5621 -43.9939 1.7349 0.8385
2.6434 -44.6931 1.7654 0.8359
7.7687 -46.1256 1.8444 0.8292
11.4771 -47.1621 1.9139 0.8234
14.0539 -38.9237 1.6318 0.8473
19.4311 -39.7901 1.7461 0.8376
24.0389 -41.3942 1.8875 0.8256
-20.1389 -38.6994 0.7369 0.8399
-17.0485 -39.4435 0.7259 0.8421
-15.4076 -39.4841 0.7159 0.8440
-11.1164 -41.0812 0.7189 0.8434
-6.6818 -42.3500 0.7242 0.8424
-5.1855 -42.8041 0.7283 0.8416
-3.6596 -43.1388 0.7313 0.8410
2.6434 -44.6931 0.7563 0.8360
11.4770 -47.1621 0.8199 0.8235
12.5263 -44.4571 0.7802 0.8313
13.3320 -41.5387 0.7369 0.8399
14.0539 -38.9238 0.6990 0.8474
18.4942 -37.8716 0.7119 0.8448
22.6614 -39.0221 0.7622 0.8348
24.9800 -39.6622 0.7918 0.8290
-21.6430 -38.1750 -0.2471 0.8390
-20.1556 -38.7314 -0.2458 0.8398
-18.6205 -39.1552 -0.2441 0.8408
-17.0485 -39.4435 -0.2419 0.8421
-15.4075 -39.4841 -0.2386 0.8441
-12.5138 -40.4259 -0.2383 0.8443
-11.1164 -41.0812 -0.2396 0.8435
-6.6969 -42.4460 -0.2419 0.8421
-5.1855 -42.8040 -0.2428 0.8416
2.6434 -44.6931 -0.2521 0.8360
6.0093 -45.6339 -0.2591 0.8318
7.7687 -46.1256 -0.2634 0.8294
9.5886 -46.6342 -0.2680 0.8266
12.5263 -44.4571 -0.2601 0.8313
14.7060 -36.5618 -0.2219 0.8542
17.5573 -35.9531 -0.2253 0.8521
19.4678 -36.4805 -0.2328 0.8476
23.7146 -37.6530 -0.2505 0.8369
26.0965 -38.3106 -0.2610 0.8308
28.6892 -39.0264 -0.2727 0.8239
-7.9770 -14.0702 -0.4554 0.9373
-7.3080 -14.0432 -0.4458 0.9386
-6.6724 -14.0306 -0.4375 0.9397
-6.1505 -14.2299 -0.4365 0.9399
-15.4076 -39.4841 -1.1934 0.8440
-14.1146 -40.3992 -1.2050 0.8426
-8.0026 -25.8523 -0.7620 0.8974
-11.1164 -41.0812 -1.1984 0.8434
-3.6956 -15.9025 -0.4597 0.9368
-2.1118 -13.3847 -0.3815 0.9472
-1.1338 -13.3658 -0.3777 0.9477
-0.5621 -43.9939 -1.2389 0.8386
4.3031 -45.1570 -1.2773 0.8340
7.7687 -46.1256 -1.3171 0.8293
9.5886 -46.6342 -1.3406 0.8265
11.4770 -47.1621 -1.3667 0.8235
14.0539 -38.9239 -1.1653 0.8474
14.7060 -36.5618 -1.1097 0.8541
15.2995 -34.4123 -1.0604 0.8601
16.8078 -34.4183 -1.0785 0.8579
18.6367 -34.9232 -1.1146 0.8535
20.5950 -35.4638 -1.1548 0.8487
17.1189 -18.6846 -0.7136 0.9036
-5.9630 -13.7959 -0.7622 0.9416
-9.9719 -28.5428 -1.5333 0.8860
-3.7586 -13.8901 -0.7298 0.9440
-3.1859 -13.7092 -0.7138 0.9452
-2.0865 -13.2245 -0.6790 0.9478
-1.5868 -13.0985 -0.6691 0.9485
-1.1005 -12.9727 -0.6603 0.9492
-0.6435 -13.2011 -0.6703 0.9484
-0.1838 -14.3832 -0.7295 0.9440
0.6880 -29.7113 -1.5072 0.8878
1.7530 -29.6339 -1.5055 0.8879
2.8138 -29.5243 -1.5041 0.8880
4.9306 -29.2752 -1.5056 0.8879
7.0079 -28.7970 -1.5030 0.8881
10.0525 -27.8412 -1.5012 0.8882
12.0116 -27.0168 -1.4995 0.8883
13.9120 -26.0696 -1.4986 0.8884
18.2869 -23.0897 -1.4937 0.8887
19.0935 -22.4051 -1.4929 0.8888
12.6249 -12.8229 -0.9126 0.9305
-7.1907 -13.8178 -1.1421 0.9394
-5.9538 -13.7748 -1.1003 0.9416
-5.4746 -14.0294 -1.1042 0.9414
-6.5965 -18.8806 -1.4664 0.9229
-3.6676 -13.5536 -1.0295 0.9452
-2.0751 -13.1526 -0.9763 0.9480
-1.5791 -13.0346 -0.9627 0.9487
-1.0894 -12.8415 -0.9449 0.9496
-0.1612 -12.6146 -0.9250 0.9507
1.1807 -19.9620 -1.4662 0.9229
2.6107 -19.8252 -1.4662 0.9229
3.3211 -19.7183 -1.4662 0.9229
4.7280 -19.4285 -1.4661 0.9229
5.4228 -19.2459 -1.4661 0.9229
6.7903 -18.8065 -1.4661 0.9229
7.4613 -18.5502 -1.4660 0.9229
9.4132 -17.6393 -1.4660 0.9229
10.0406 -17.2896 -1.4660 0.9229
10.6550 -16.9176 -1.4660 0.9229
11.2558 -16.5238 -1.4659 0.9229
11.8419 -16.1086 -1.4659 0.9229
10.2165 -11.9884 -1.1549 0.9388
13.5056 -14.7409 -1.4659 0.9229
12.6452 -12.8435 -1.3215 0.9303
-7.7841 -14.9581 -1.6189 0.9345
-6.5656 -13.8060 -1.4677 0.9404
-6.1071 -15.6505 -1.6129 0.9347
-5.4756 -15.6724 -1.5938 0.9355
-4.8231 -15.5811 -1.5659 0.9366
-3.6853 -13.6191 -1.3545 0.9449
-3.1352 -13.4911 -1.3297 0.9459
-2.0843 -13.2108 -1.2840 0.9477
-0.6220 -12.7621 -1.2267 0.9500
1.9939 -15.1414 -1.4662 0.9405
2.5365 -15.0598 -1.4662 0.9405
3.0757 -14.9589 -1.4662 0.9405
4.6669 -14.5408 -1.4661 0.9405
5.1862 -14.3636 -1.4661 0.9405
5.6987 -14.1679 -1.4661 0.9405
7.1895 -13.4723 -1.4661 0.9405
7.6687 -13.2053 -1.4660 0.9405
8.1380 -12.9212 -1.4660 0.9405
9.0445 -12.3034 -1.4660 0.9405
10.3189 -11.2627 -1.4665 0.9405
-5.8528 -12.3072 -1.6188 0.9466
-4.9540 -12.6954 -1.6188 0.9466
-4.4948 -12.8651 -1.6188 0.9466
-4.0297 -13.0181 -1.6188 0.9466
-2.6059 -13.3757 -1.6187 0.9466
-1.6388 -13.5281 -1.6187 0.9466
-1.1519 -13.5781 -1.6187 0.9466
-0.1741 -13.6255 -1.6187 0.9466
0.3154 -13.6229 -1.6186 0.9466
1.2926 -13.5649 -1.6186 0.9466
2.7443 -13.3468 -1.6186 0.9466
3.2219 -13.2395 -1.6186 0.9466
5.0846 -12.6412 -1.6185 0.9466
5.5353 -12.4503 -1.6185 0.9466
6.4148 -12.0206 -1.6185 0.9466
6.8424 -11.7824 -1.6185 0.9466
7.6705 -11.2606 -1.6184 0.9466
-4.5328 -10.4872 -1.6188 0.9549
-4.1532 -10.6432 -1.6188 0.9549
-3.3783 -10.9137 -1.6187 0.9549
-2.9841 -11.0279 -1.6187 0.9549
-1.3739 -11.3413 -1.6187 0.9549
-0.9657 -11.3833 -1.6187 0.9549
-0.1459 -11.4231 -1.6187 0.9549
0.2645 -11.4208 -1.6186 0.9549
0.6745 -11.4039 -1.6186 0.9549
1.0837 -11.3722 -1.6186 0.9549
1.8973 -11.2649 -1.6186 0.9549
2.3007 -11.1895 -1.6186 0.9549
3.0980 -10.9952 -1.6186 0.9549
5.0126 -10.2645 -1.6185 0.9549
5.3780 -10.0777 -1.6185 0.9549
6.0876 -9.6655 -1.6185 0.9549
6.4308 -9.4406 -1.6185 0.9549
6.7657 -9.2034 -1.6185 0.9549
7.0919 -8.9544 -1.6185 0.9549
7.7163 -8.4221 -1.6184 0.9549
-4.8463 -8.5481 -1.6188 0.9609
-4.2201 -8.8739 -1.6188 0.9609
-3.8986 -9.0197 -1.6188 0.9609
-3.2409 -9.2762 -1.6187 0.9609
-2.5666 -9.4849 -1.6187 0.9609
-2.2242 -9.5709 -1.6187 0.9609
-1.8790 -9.6446 -1.6187 0.9609
-1.5313 -9.7058 -1.6187 0.9609
-1.1817 -9.7544 -1.6187 0.9610
-0.8306 -9.7905 -1.6187 0.9610
-0.4783 -9.8140 -1.6187 0.9610
-0.1255 -9.8248 -1.6187 0.9610
0.2275 -9.8229 -1.6186 0.9610
0.9320 -9.7811 -1.6186 0.9610
1.2828 -9.7413 -1.6186 0.9610
1.9788 -9.6239 -1.6186 0.9610
3.0026 -9.3550 -1.6186 0.9610
3.3366 -9.2411 -1.6186 0.9610
4.6256 -8.6678 -1.6185 0.9610
6.0997 -7.7017 -1.6185 0.9610
6.6368 -7.2438 -1.6185 0.9610
6.8927 -7.0007 -1.6185 0.9610
-4.2475 -7.4920 -1.6188 0.9656
-3.6986 -7.7775 -1.6188 0.9656
-3.1307 -8.0229 -1.6187 0.9656
-2.8405 -8.1301 -1.6187 0.9656
-2.2495 -8.3130 -1.6187 0.9656
-1.9494 -8.3884 -1.6187 0.9656
-1.6468 -8.4530 -1.6187 0.9656
-1.0357 -8.5493 -1.6187 0.9656
-0.7279 -8.5810 -1.6187 0.9656
-0.1100 -8.6110 -1.6187 0.9656
0.1994 -8.6093 -1.6187 0.9656
1.1243 -8.5378 -1.6186 0.9656
1.7343 -8.4350 -1.6186 0.9656
2.3354 -8.2886 -1.6186 0.9656
2.6316 -8.1993 -1.6186 0.9656
2.9244 -8.0995 -1.6186 0.9656
3.2134 -7.9892 -1.6186 0.9656
3.4983 -7.8686 -1.6186 0.9656
3.7787 -7.7378 -1.6186 0.9656
5.3462 -6.7503 -1.6185 0.9656
5.5852 -6.5539 -1.6185 0.9656
5.8169 -6.3490 -1.6185 0.9656
6.0412 -6.1359 -1.6185 0.9656
-3.7769 -6.6619 -1.6188 0.9692
-3.5352 -6.7932 -1.6188 0.9692
-2.5258 -7.2294 -1.6187 0.9692
-2.0002 -7.3920 -1.6187 0.9692
-1.7334 -7.4590 -1.6187 0.9692
-1.4644 -7.5164 -1.6187 0.9692
-1.1934 -7.5642 -1.6187 0.9692
-0.9209 -7.6021 -1.6187 0.9692
-0.6473 -7.6302 -1.6187 0.9692
-0.3728 -7.6485 -1.6187 0.9692
0.7264 -7.6229 -1.6186 0.9692
1.2718 -7.5511 -1.6186 0.9692
1.5422 -7.5005 -1.6186 0.9692
2.0767 -7.3703 -1.6186 0.9692
2.3401 -7.2910 -1.6186 0.9692
2.6004 -7.2022 -1.6186 0.9692
2.8574 -7.1041 -1.6186 0.9692
3.8453 -6.6215 -1.6186 0.9692
4.0807 -6.4791 -1.6185 0.9692
4.7539 -6.0025 -1.6185 0.9692
4.9664 -5.8278 -1.6185 0.9692
-3.3969 -5.9917 -1.6188 0.9721
-2.7326 -6.3223 -1.6187 0.9721
-2.5038 -6.4163 -1.6187 0.9721
-2.0367 -6.5795 -1.6187 0.9721
-1.7990 -6.6483 -1.6187 0.9721
-0.8283 -6.8373 -1.6187 0.9721
-0.0880 -6.8867 -1.6187 0.9721
0.1595 -6.8854 -1.6187 0.9721
0.6533 -6.8561 -1.6186 0.9721
1.3871 -6.7459 -1.6186 0.9721
1.6285 -6.6917 -1.6186 0.9721
1.8678 -6.6289 -1.6186 0.9721
2.1047 -6.5575 -1.6186 0.9721
2.3388 -6.4777 -1.6186 0.9721
3.0221 -6.1884 -1.6186 0.9721
3.4585 -5.9554 -1.6186 0.9721
3.6702 -5.8273 -1.6186 0.9721
4.2757 -5.3987 -1.6185 0.9721
4.8316 -4.9073 -1.6185 0.9721
-3.0834 -5.4387 -1.6187 0.9745
-2.8861 -5.5459 -1.6187 0.9745
-2.6850 -5.6460 -1.6187 0.9745
-2.4804 -5.7388 -1.6187 0.9745
-2.2727 -5.8241 -1.6187 0.9745
-2.0620 -5.9020 -1.6187 0.9745
-1.6330 -6.0348 -1.6187 0.9745
-1.4151 -6.0895 -1.6187 0.9745
-1.1955 -6.1364 -1.6187 0.9745
-0.9743 -6.1753 -1.6187 0.9745
-0.7519 -6.2063 -1.6187 0.9745
0.1447 -6.2499 -1.6187 0.9745
0.3691 -6.2407 -1.6186 0.9745
0.5930 -6.2234 -1.6186 0.9745
1.0383 -6.1647 -1.6186 0.9745
1.2591 -6.1234 -1.6186 0.9745
1.4782 -6.0742 -1.6186 0.9745
1.6954 -6.0172 -1.6186 0.9745
1.9104 -5.9524 -1.6186 0.9745
2.1230 -5.8799 -1.6186 0.9745
3.1394 -5.4059 -1.6186 0.9745
3.5193 -5.1665 -1.6186 0.9745
3.7026 -5.0367 -1.6186 0.9745
3.8811 -4.9005 -1.6186 0.9745
4.0546 -4.7579 -1.6185 0.9745
4.2229 -4.6092 -1.6185 0.9745
4.3858 -4.4545 -1.6185 0.9745
-2.8201 -4.9742 -1.6187 0.9765
-2.6396 -5.0723 -1.6187 0.9765
-2.4557 -5.1638 -1.6187 0.9765
-1.6908 -5.4622 -1.6187 0.9765
-1.4935 -5.5194 -1.6187 0.9765
-1.2943 -5.5695 -1.6187 0.9765
-0.8911 -5.6480 -1.6187 0.9765
-0.6877 -5.6763 -1.6187 0.9765
-0.0730 -5.7173 -1.6187 0.9765
0.5424 -5.6919 -1.6186 0.9765
0.9496 -5.6383 -1.6186 0.9765
1.3520 -5.5555 -1.6186 0.9765
1.5506 -5.5033 -1.6186 0.9765
1.9417 -5.3778 -1.6186 0.9765
2.1336 -5.3046 -1.6186 0.9765
2.3228 -5.2245 -1.6186 0.9765
2.5089 -5.1376 -1.6186 0.9765
2.6918 -5.0442 -1.6186 0.9765
2.8713 -4.9442 -1.6186 0.9765
3.0470 -4.8379 -1.6186 0.9765
3.2188 -4.7253 -1.6186 0.9765
3.5497 -4.4820 -1.6186 0.9765
3.8623 -4.2156 -1.6186 0.9765
4.0112 -4.0741 -1.6186 0.9765
-2.5956 -4.5782 -1.6187 0.9782
-2.4295 -4.6685 -1.6187 0.9782
-2.2602 -4.7527 -1.6187 0.9782
-2.0880 -4.8308 -1.6187 0.9782
-1.9131 -4.9027 -1.6187 0.9782
-1.7358 -4.9683 -1.6187 0.9782
-1.5562 -5.0274 -1.6187 0.9782
-1.3746 -5.0800 -1.6187 0.9782
-1.1913 -5.1261 -1.6187 0.9782
-0.6329 -5.2244 -1.6187 0.9782
-0.2562 -5.2564 -1.6187 0.9782
0.1219 -5.2612 -1.6187 0.9782
0.6871 -5.2175 -1.6186 0.9782
1.0599 -5.1547 -1.6186 0.9782
1.2443 -5.1133 -1.6186 0.9782
1.4272 -5.0653 -1.6186 0.9782
1.7871 -4.9497 -1.6186 0.9782
1.9638 -4.8823 -1.6186 0.9782
2.3092 -4.7287 -1.6186 0.9782
2.4776 -4.6427 -1.6186 0.9782
2.6427 -4.5507 -1.6186 0.9782
2.9626 -4.3492 -1.6186 0.9782
3.6919 -3.7498 -1.6186 0.9782
-2.4017 -4.2363 -1.6187 0.9797
-2.0914 -4.3977 -1.6187 0.9797
-1.9320 -4.4700 -1.6187 0.9797
-1.2719 -4.7006 -1.6187 0.9797
-1.1023 -4.7432 -1.6187 0.9797
-0.5856 -4.8342 -1.6187 0.9797
0.2875 -4.8610 -1.6187 0.9797
0.4619 -4.8475 -1.6186 0.9797
0.9807 -4.7697 -1.6186 0.9797
1.1514 -4.7314 -1.6186 0.9797
1.3206 -4.6869 -1.6186 0.9797
1.4881 -4.6365 -1.6186 0.9797
1.6537 -4.5800 -1.6186 0.9797
1.9782 -4.4495 -1.6186 0.9797
2.1367 -4.3755 -1.6186 0.9797
2.2925 -4.2959 -1.6186 0.9797
2.4453 -4.2108 -1.6186 0.9797
2.5950 -4.1202 -1.6186 0.9797
2.7413 -4.0244 -1.6186 0.9797
3.0232 -3.8171 -1.6186 0.9797
3.1583 -3.7061 -1.6186 0.9797
3.2894 -3.5902 -1.6186 0.9797
-2.2325 -3.9377 -1.6187 0.9810
-2.0896 -4.0154 -1.6187 0.9810
-1.9440 -4.0878 -1.6187 0.9810
-1.4929 -4.2732 -1.6187 0.9810
-1.3385 -4.3240 -1.6187 0.9810
-1.0246 -4.4089 -1.6187 0.9810
-0.5444 -4.4936 -1.6187 0.9810
-0.3826 -4.5102 -1.6187 0.9810
-0.2204 -4.5210 -1.6187 0.9810
0.1048 -4.5251 -1.6187 0.9810
0.2672 -4.5185 -1.6187 0.9810
0.4294 -4.5059 -1.6186 0.9810
0.5909 -4.4876 -1.6186 0.9810
1.0703 -4.3979 -1.6186 0.9810
1.2275 -4.3566 -1.6186 0.9810
1.3832 -4.3097 -1.6186 0.9810
1.5371 -4.2572 -1.6186 0.9810
1.9862 -4.0672 -1.6186 0.9810
2.4121 -3.8299 -1.6186 0.9810
2.5481 -3.7407 -1.6186 0.9810
2.6809 -3.6468 -1.6186 0.9810
2.8101 -3.5482 -1.6186 0.9810
2.9358 -3.4449 -1.6186 0.9810
-2.0833 -3.6745 -1.6187 0.9821
-1.8141 -3.8146 -1.6187 0.9821
-1.6758 -3.8773 -1.6187 0.9821
-1.3932 -3.9876 -1.6187 0.9821
-0.9561 -4.1143 -1.6187 0.9821
-0.6583 -4.1723 -1.6187 0.9821
-0.3570 -4.2088 -1.6187 0.9821
-0.0540 -4.2235 -1.6187 0.9821
0.0978 -4.2227 -1.6187 0.9821
0.2494 -4.2165 -1.6187 0.9821
0.4007 -4.2048 -1.6186 0.9821
0.7015 -4.1652 -1.6186 0.9821
0.9987 -4.1040 -1.6186 0.9821
1.2908 -4.0217 -1.6186 0.9821
1.7159 -3.8595 -1.6186 0.9821
1.8534 -3.7954 -1.6186 0.9821
1.9886 -3.7263 -1.6186 0.9821
2.1211 -3.6525 -1.6186 0.9821
2.3779 -3.4908 -1.6186 0.9821
2.6223 -3.3110 -1.6186 0.9821
2.7396 -3.2147 -1.6186 0.9821
2.8533 -3.1142 -1.6186 0.9821
-1.9506 -3.4406 -1.6187 0.9831
-1.6986 -3.5717 -1.6187 0.9831
-1.3045 -3.7337 -1.6187 0.9831
-0.7563 -3.8820 -1.6187 0.9831
-0.4757 -3.9263 -1.6187 0.9831
0.9351 -3.8427 -1.6186 0.9831
1.2086 -3.7657 -1.6186 0.9831
1.4758 -3.6692 -1.6186 0.9831
1.6067 -3.6138 -1.6186 0.9831
1.7354 -3.5537 -1.6186 0.9831
1.8620 -3.4891 -1.6186 0.9831
2.2265 -3.2685 -1.6186 0.9831
2.3424 -3.1864 -1.6186 0.9831
2.6716 -2.9160 -1.6186 0.9831
2.7746 -2.8181 -1.6186 0.9831
-1.8318 -3.2310 -1.6187 0.9839
-1.7146 -3.2948 -1.6187 0.9839
-1.5951 -3.3542 -1.6187 0.9839
-1.4736 -3.4093 -1.6187 0.9839
-1.3502 -3.4601 -1.6187 0.9839
-1.2250 -3.5063 -1.6187 0.9839
-1.0983 -3.5481 -1.6187 0.9839
-0.8407 -3.6177 -1.6187 0.9839
-0.7103 -3.6456 -1.6187 0.9839
-0.5788 -3.6687 -1.6187 0.9839
-0.4467 -3.6872 -1.6187 0.9839
-0.3140 -3.7008 -1.6187 0.9839
-0.1808 -3.7097 -1.6187 0.9839
0.2193 -3.7076 -1.6187 0.9839
0.4849 -3.6823 -1.6186 0.9839
0.7480 -3.6379 -1.6186 0.9839
1.5088 -3.3937 -1.6186 0.9839
1.6298 -3.3373 -1.6186 0.9839
1.9793 -3.1426 -1.6186 0.9839
2.1998 -2.9924 -1.6186 0.9839
2.3058 -2.9114 -1.6186 0.9839
2.4089 -2.8267 -1.6186 0.9839
2.5089 -2.7384 -1.6186 0.9839
-1.6143 -3.1021 -1.6187 0.9847
-1.2712 -3.2577 -1.6187 0.9847
-1.1534 -3.3013 -1.6187 0.9847
-1.0341 -3.3406 -1.6187 0.9847
-0.7916 -3.4062 -1.6187 0.9847
-0.5450 -3.4542 -1.6187 0.9847
-0.2956 -3.4844 -1.6187 0.9847
-0.1702 -3.4928 -1.6187 0.9847
0.3317 -3.4811 -1.6187 0.9847
0.5808 -3.4483 -1.6186 0.9847
0.7043 -3.4252 -1.6186 0.9847
0.8268 -3.3977 -1.6186 0.9847
0.9483 -3.3658 -1.6186 0.9847
1.3049 -3.2442 -1.6186 0.9847
1.4206 -3.1953 -1.6186 0.9847
1.7561 -3.0239 -1.6186 0.9847
1.8635 -2.9588 -1.6186 0.9847
1.9686 -2.8900 -1.6186 0.9847
2.0712 -2.8174 -1.6186 0.9847
2.1710 -2.7412 -1.6186 0.9847
2.2681 -2.6614 -1.6186 0.9847
2.3622 -2.5783 -1.6186 0.9847
2.4533 -2.4917 -1.6186 0.9847
-1.6275 -2.8707 -1.6187 0.9854
-1.5233 -2.9273 -1.6187 0.9854
-1.3092 -3.0291 -1.6187 0.9854
-1.0884 -3.1153 -1.6187 0.9854
-0.9758 -3.1523 -1.6187 0.9854
-0.7470 -3.2143 -1.6187 0.9854
-0.6310 -3.2390 -1.6187 0.9854
-0.5143 -3.2596 -1.6187 0.9854
-0.2789 -3.2881 -1.6187 0.9854
-0.0421 -3.2996 -1.6187 0.9854
0.0764 -3.2990 -1.6187 0.9854
0.3130 -3.2850 -1.6187 0.9854
0.4308 -3.2716 -1.6186 0.9854
1.0084 -3.1420 -1.6186 0.9854
1.1206 -3.1037 -1.6186 0.9854
1.2314 -3.0614 -1.6186 0.9854
1.4480 -2.9651 -1.6186 0.9854
1.5535 -2.9112 -1.6186 0.9854
1.7585 -2.7922 -1.6186 0.9854
1.8577 -2.7271 -1.6186 0.9854
1.9544 -2.6587 -1.6186 0.9854
2.0487 -2.5867 -1.6186 0.9854
2.1403 -2.5115 -1.6186 0.9854
2.2291 -2.4330 -1.6186 0.9854
2.3150 -2.3513 -1.6186 0.9854
-1.5389 -2.7143 -1.6187 0.9860
-1.4404 -2.7678 -1.6187 0.9860
-1.3400 -2.8178 -1.6187 0.9860
-1.2379 -2.8641 -1.6187 0.9860
-1.1343 -2.9067 -1.6187 0.9860
-0.7063 -3.0392 -1.6187 0.9860
-0.5967 -3.0626 -1.6187 0.9860
-0.2637 -3.1090 -1.6187 0.9860
-0.1519 -3.1164 -1.6187 0.9860
-0.0399 -3.1199 -1.6187 0.9860
0.1842 -3.1147 -1.6187 0.9860
0.6284 -3.0562 -1.6186 0.9860
0.7377 -3.0316 -1.6186 0.9860
0.8462 -3.0032 -1.6186 0.9860
0.9535 -2.9708 -1.6186 0.9860
1.0596 -2.9347 -1.6186 0.9860
1.1643 -2.8947 -1.6186 0.9860
1.2675 -2.8510 -1.6186 0.9860
1.3691 -2.8036 -1.6186 0.9860
1.4689 -2.7526 -1.6186 0.9860
1.5669 -2.6981 -1.6186 0.9860
1.7565 -2.5786 -1.6186 0.9860
1.9371 -2.4459 -1.6186 0.9860
2.1077 -2.3005 -1.6186 0.9860
2.1890 -2.2233 -1.6186 0.9860
-1.3643 -2.6217 -1.6187 0.9866
-1.2692 -2.6690 -1.6187 0.9866
-1.1726 -2.7129 -1.6187 0.9866
-1.0744 -2.7532 -1.6187 0.9866
-0.9748 -2.7900 -1.6187 0.9866
-0.6690 -2.8787 -1.6187 0.9866
-0.5651 -2.9008 -1.6187 0.9866
-0.2498 -2.9448 -1.6187 0.9866
-0.1439 -2.9519 -1.6187 0.9866
0.0684 -2.9546 -1.6187 0.9866
0.2804 -2.9420 -1.6187 0.9866
0.4908 -2.9143 -1.6186 0.9866
0.8015 -2.8446 -1.6186 0.9866
1.2968 -2.6556 -1.6186 0.9866
1.3914 -2.6073 -1.6186 0.9866
1.4841 -2.5556 -1.6186 0.9866
1.8348 -2.3167 -1.6186 0.9866
-1.3827 -2.4390 -1.6187 0.9871
-1.2943 -2.4871 -1.6187 0.9871
-1.1124 -2.5735 -1.6187 0.9871
-0.8291 -2.6783 -1.6187 0.9871
-0.6346 -2.7308 -1.6187 0.9871
-0.5361 -2.7519 -1.6187 0.9871
-0.3372 -2.7833 -1.6187 0.9871
-0.2370 -2.7936 -1.6187 0.9871
-0.1365 -2.8003 -1.6187 0.9871
-0.0358 -2.8034 -1.6187 0.9871
0.0649 -2.8029 -1.6187 0.9871
0.2660 -2.7910 -1.6187 0.9871
0.5647 -2.7461 -1.6186 0.9871
0.6629 -2.7241 -1.6186 0.9871
0.8568 -2.6695 -1.6186 0.9871
1.2302 -2.5192 -1.6186 0.9871
1.4079 -2.4244 -1.6186 0.9871
1.4941 -2.3722 -1.6186 0.9871
1.8184 -2.1338 -1.6186 0.9871
1.8939 -2.0671 -1.6186 0.9871
