ply
format ascii 1.0
element vertex 459
property float32 x
property float32 y
property float32 z
property float32 I
end_header
-15.5058 -39.8694 7.5430 0.8405
-3.6996 -15.9194 2.8817 0.9358
-3.7080 -43.1266 7.6324 0.8388
-2.1847 -43.5472 7.6882 0.8377
-15.5057 -39.8694 6.5534 0.8410
-14.7858 -42.4364 6.8843 0.8337
-13.2000 -42.7284 6.8510 0.8345
-6.7209 -42.4406 6.5827 0.8404
-2.1847 -43.5472 6.6796 0.8382
0.9614 -45.4303 6.9612 0.8320
2.5563 -44.9564 6.8982 0.8334
7.6132 -46.0821 7.1552 0.8278
9.4128 -46.5851 7.2808 0.8250
-15.4513 -39.7294 5.5511 0.8420
-13.9838 -40.1346 5.5345 0.8425
-12.5233 -40.5378 5.5250 0.8427
-11.0658 -40.9402 5.5226 0.8428
-3.6991 -15.9173 2.1279 0.9362
-6.6750 -42.1513 5.5574 0.8419
-5.1965 -42.5897 5.5872 0.8411
-3.6997 -43.0290 5.6239 0.8401
-1.1026 -21.9783 2.8656 0.9151
-0.6370 -43.9744 5.7270 0.8374
2.5563 -44.9564 5.8637 0.8339
4.1833 -45.1235 5.9012 0.8329
7.6131 -46.0821 6.0822 0.8283
11.2793 -47.1068 6.3077 0.8225
6.5229 -23.5087 3.1770 0.9063
14.5745 -46.0846 6.2941 0.8229
-15.5057 -39.8694 4.5936 0.8419
-11.1048 -41.0844 4.5700 0.8426
-3.6987 -15.9155 1.7546 0.9364
-6.7055 -42.3435 4.6036 0.8416
-1.0996 -21.9183 2.3566 0.9155
4.1833 -45.1235 4.8662 0.8333
9.4128 -46.5851 5.1035 0.8260
11.2793 -47.1068 5.2014 0.8229
12.4311 -44.8019 4.9927 0.8294
-15.3167 -39.3833 3.5772 0.8440
-14.0154 -40.2254 3.6060 0.8428
-11.0908 -41.0328 3.5982 0.8431
-3.6982 -15.9133 1.3830 0.9365
-8.1640 -41.8408 3.6087 0.8427
-3.7033 -43.0712 3.6596 0.8407
4.1833 -45.1235 3.8362 0.8337
9.4128 -46.5851 4.0233 0.8263
11.2792 -47.1068 4.1004 0.8233
6.9072 -24.8935 2.1869 0.9015
13.2410 -41.8682 3.7173 0.8384
14.8985 -41.8584 3.7612 0.8366
18.9954 -43.3215 4.0043 0.8271
21.3379 -44.3002 4.1625 0.8209
-14.0331 -40.2759 2.6448 0.8429
-12.4906 -40.4323 2.6241 0.8440
-11.1048 -41.0844 2.6391 0.8432
-3.6977 -15.9111 1.0129 0.9366
-6.7055 -42.3435 2.6585 0.8421
-5.2284 -42.8514 2.6769 0.8411
-3.7079 -43.1254 2.6841 0.8407
-0.6369 -43.9732 2.7271 0.8384
4.1833 -45.1235 2.8101 0.8339
7.6131 -46.0821 2.8963 0.8293
11.2792 -47.1068 3.0037 0.8236
13.2410 -41.8682 2.7230 0.8386
14.2434 -40.0177 2.6340 0.8435
-13.9922 -40.1586 1.6769 0.8435
-11.1048 -41.0844 1.6781 0.8434
-3.6972 -15.9089 0.6440 0.9367
-8.1742 -41.8934 1.6830 0.8429
-6.7207 -42.4394 1.6943 0.8420
-5.2284 -42.8514 1.7022 0.8413
-2.1846 -43.5459 1.7192 0.8398
2.5563 -44.9565 1.7756 0.8351
9.4128 -46.5851 1.8740 0.8267
15.3327 -38.6586 1.6399 0.8466
17.1737 -39.1669 1.6863 0.8427
19.1248 -39.7055 1.7378 0.8383
23.6476 -41.2861 1.8761 0.8266
26.0565 -41.9512 1.9473 0.8206
-13.1204 -37.6564 0.6736 0.8525
-11.7500 -38.0347 0.6724 0.8528
-3.6967 -15.9068 0.2759 0.9368
-5.2214 -42.7941 0.7282 0.8416
2.5563 -44.9565 0.7605 0.8352
4.1833 -45.1235 0.7655 0.8342
5.8723 -45.5955 0.7766 0.8320
13.9666 -39.2402 0.7036 0.8465
18.2027 -37.7911 0.7086 0.8455
20.1791 -38.3367 0.7318 0.8409
24.5633 -39.5471 0.7864 0.8301
27.2904 -40.6320 0.8268 0.8222
-14.0794 -40.4089 -0.2409 0.8427
-6.7207 -42.4394 -0.2419 0.8421
-2.1846 -43.5459 -0.2455 0.8400
-0.6369 -43.9732 -0.2476 0.8387
4.1834 -45.1235 -0.2551 0.8342
5.8723 -45.5955 -0.2588 0.8320
7.6131 -46.0821 -0.2630 0.8296
9.4129 -46.5851 -0.2676 0.8269
12.4311 -44.8020 -0.2618 0.8303
13.2411 -41.8683 -0.2472 0.8389
13.9666 -39.2402 -0.2345 0.8465
14.6219 -36.8666 -0.2233 0.8533
17.2806 -35.8766 -0.2242 0.8528
19.1569 -36.3946 -0.2316 0.8483
21.1632 -36.9485 -0.2397 0.8434
23.3190 -37.5438 -0.2488 0.8380
28.1789 -38.8854 -0.2704 0.8252
-14.0794 -40.4089 -1.2049 0.8426
-11.1048 -41.0844 -1.1984 0.8434
-2.1200 -13.3870 -0.3816 0.9472
-1.6177 -13.2584 -0.3761 0.9480
2.5563 -44.9566 -1.2680 0.8351
9.4129 -46.5851 -1.3383 0.8268
11.2792 -47.1068 -1.3639 0.8238
12.4311 -44.8020 -1.3092 0.8302
13.2411 -41.8683 -1.2365 0.8389
14.6219 -36.8666 -1.1167 0.8532
15.2182 -34.7069 -1.0671 0.8593
18.3391 -34.8410 -1.1087 0.8542
24.2795 -36.1490 -1.2262 0.8401
26.6752 -36.8104 -1.2800 0.8337
-5.5040 -14.1523 -0.7701 0.9410
-9.9471 -28.5488 -1.5332 0.8860
-7.9892 -25.8610 -1.3727 0.8973
-3.7539 -13.8884 -0.7296 0.9440
-2.0946 -13.2266 -0.6791 0.9478
-1.1157 -12.9764 -0.6605 0.9492
-0.2084 -14.3876 -0.7297 0.9440
0.6289 -29.7164 -1.5074 0.8878
2.7382 -29.5354 -1.5043 0.8880
4.8391 -29.2904 -1.5056 0.8879
8.9240 -28.2179 -1.5009 0.8882
10.9140 -27.5174 -1.5013 0.8882
13.7640 -26.1494 -1.4986 0.8884
14.6836 -25.6360 -1.4983 0.8884
17.3089 -23.8854 -1.4959 0.8886
-3.1147 -13.4028 -1.0089 0.9463
-2.5901 -13.2742 -0.9916 0.9472
-1.5907 -13.0374 -0.9630 0.9487
-1.1046 -12.8471 -0.9455 0.9496
-0.1828 -12.6200 -0.9254 0.9506
0.2873 -13.5774 -0.9957 0.9470
1.1353 -19.9655 -1.4663 0.9229
1.8460 -19.9123 -1.4663 0.9229
3.9606 -19.6014 -1.4663 0.9229
5.3467 -19.2694 -1.4663 0.9229
7.3725 -18.5885 -1.4662 0.9229
8.0302 -18.3139 -1.4662 0.9229
8.6777 -18.0161 -1.4662 0.9229
9.9388 -17.3522 -1.4662 0.9229
11.1495 -16.6001 -1.4662 0.9229
11.7339 -16.1922 -1.4662 0.9229
12.3034 -15.7638 -1.4662 0.9229
-6.0886 -15.6555 -1.6127 0.9347
-4.8130 -15.5796 -1.5655 0.9366
-3.6808 -13.6180 -1.3543 0.9449
-2.6046 -13.3490 -1.3057 0.9468
-2.0924 -13.2130 -1.2843 0.9477
-1.5964 -13.0837 -1.2654 0.9484
-0.6403 -12.7645 -1.2270 0.9499
0.3231 -15.2697 -1.4663 0.9405
0.8671 -15.2484 -1.4663 0.9405
1.9509 -15.1479 -1.4663 0.9405
3.0249 -14.9703 -1.4663 0.9405
3.5564 -14.8530 -1.4663 0.9405
4.0834 -14.7168 -1.4663 0.9405
4.6053 -14.5619 -1.4663 0.9405
6.1331 -13.9871 -1.4662 0.9405
8.0582 -12.9737 -1.4662 0.9405
8.9617 -12.3667 -1.4662 0.9405
9.3967 -12.0395 -1.4662 0.9405
-4.9394 -12.7006 -1.6187 0.9466
-4.0223 -13.0201 -1.6187 0.9466
-3.0847 -13.2735 -1.6187 0.9466
-2.1314 -13.4594 -1.6187 0.9466
-1.6504 -13.5268 -1.6187 0.9466
-1.1674 -13.5770 -1.6187 0.9466
-0.6453 -12.8621 -1.5298 0.9494
-0.1973 -13.6256 -1.6187 0.9466
0.2883 -13.6239 -1.6187 0.9466
1.7407 -13.5153 -1.6187 0.9466
2.6989 -13.3569 -1.6187 0.9466
4.1089 -12.9925 -1.6187 0.9466
5.0239 -12.6668 -1.6187 0.9466
5.4721 -12.4797 -1.6187 0.9466
5.9133 -12.2768 -1.6187 0.9466
6.3470 -12.0582 -1.6187 0.9466
8.3840 -10.7420 -1.6186 0.9466
-3.3721 -10.9154 -1.6187 0.9549
-2.5861 -11.1279 -1.6187 0.9549
-2.1879 -11.2129 -1.6187 0.9549
-0.5724 -11.4100 -1.6187 0.9549
-0.1655 -11.4231 -1.6187 0.9549
0.2417 -11.4217 -1.6187 0.9549
0.6486 -11.4058 -1.6187 0.9549
1.8621 -11.2714 -1.6187 0.9549
2.6602 -11.1101 -1.6187 0.9549
4.2118 -10.6193 -1.6187 0.9549
5.3211 -10.1091 -1.6187 0.9549
5.6779 -9.9131 -1.6187 0.9549
6.0276 -9.7044 -1.6187 0.9549
-3.5616 -9.1578 -1.6187 0.9609
-3.2330 -9.2789 -1.6187 0.9609
-2.9003 -9.3882 -1.6187 0.9609
-2.5639 -9.4855 -1.6187 0.9609
-2.2242 -9.5709 -1.6187 0.9609
-1.8817 -9.6441 -1.6187 0.9609
-1.1900 -9.7535 -1.6187 0.9609
-0.8417 -9.7897 -1.6187 0.9609
-0.4923 -9.8135 -1.6187 0.9609
0.9071 -9.7838 -1.6187 0.9610
1.6016 -9.6943 -1.6187 0.9610
1.9460 -9.6311 -1.6187 0.9610
2.2880 -9.5556 -1.6187 0.9610
2.6271 -9.4680 -1.6187 0.9610
3.6225 -9.1335 -1.6187 0.9610
3.9457 -8.9986 -1.6187 0.9610
4.5766 -8.6947 -1.6187 0.9610
5.1842 -8.3466 -1.6187 0.9610
5.4784 -8.1566 -1.6187 0.9610
6.0454 -7.7457 -1.6187 0.9610
-0.4315 -8.6011 -1.6187 0.9656
-0.1247 -8.6110 -1.6187 0.9656
0.1822 -8.6100 -1.6187 0.9656
1.1001 -8.5413 -1.6187 0.9656
1.7056 -8.4412 -1.6187 0.9656
2.0053 -8.3751 -1.6187 0.9656
2.5968 -8.2110 -1.6187 0.9656
3.1750 -8.0051 -1.6187 0.9656
3.7371 -7.7586 -1.6187 0.9656
4.0112 -7.6205 -1.6187 0.9656
4.2802 -7.4728 -1.6187 0.9656
4.5437 -7.3155 -1.6187 0.9656
5.2985 -6.7887 -1.6187 0.9656
-2.5196 -7.2315 -1.6187 0.9692
-1.9981 -7.3926 -1.6187 0.9692
-1.7334 -7.4591 -1.6187 0.9692
-1.1978 -7.5636 -1.6187 0.9692
-0.1109 -7.6570 -1.6187 0.9692
0.7069 -7.6251 -1.6187 0.9692
0.9782 -7.5950 -1.6187 0.9692
1.2482 -7.5553 -1.6187 0.9692
3.0751 -7.0131 -1.6187 0.9692
3.3231 -6.8991 -1.6187 0.9692
3.8060 -6.6449 -1.6187 0.9692
4.4934 -6.2007 -1.6187 0.9692
4.7115 -6.0366 -1.6187 0.9692
-2.4965 -6.4191 -1.6187 0.9721
-2.2662 -6.5040 -1.6187 0.9721
-2.0329 -6.5806 -1.6187 0.9721
-1.7971 -6.6489 -1.6187 0.9721
-1.5591 -6.7087 -1.6187 0.9721
-1.3190 -6.7600 -1.6187 0.9721
-0.8342 -6.8367 -1.6187 0.9721
-0.5900 -6.8621 -1.6187 0.9721
-0.0998 -6.8867 -1.6187 0.9721
0.3910 -6.8763 -1.6187 0.9721
0.6358 -6.8580 -1.6187 0.9721
1.3641 -6.7509 -1.6187 0.9721
2.3095 -6.4886 -1.6187 0.9721
2.9888 -6.2050 -1.6187 0.9721
3.2080 -6.0946 -1.6187 0.9721
3.4231 -5.9764 -1.6187 0.9721
4.0414 -5.5769 -1.6187 0.9721
4.2376 -5.4294 -1.6187 0.9721
-2.0570 -5.9038 -1.6187 0.9745
-1.6313 -6.0353 -1.6187 0.9745
-1.4152 -6.0896 -1.6187 0.9745
-0.9779 -6.1749 -1.6187 0.9745
-0.3133 -6.2440 -1.6187 0.9745
0.1323 -6.2504 -1.6187 0.9745
0.3549 -6.2417 -1.6187 0.9745
0.5771 -6.2251 -1.6187 0.9745
1.4558 -6.0799 -1.6187 0.9745
1.6715 -6.0241 -1.6187 0.9745
2.0963 -5.8898 -1.6187 0.9745
2.3049 -5.8113 -1.6187 0.9745
2.5105 -5.7255 -1.6187 0.9745
2.9119 -5.5322 -1.6187 0.9745
3.6684 -5.0623 -1.6187 0.9745
3.8465 -4.9283 -1.6187 0.9745
-2.0726 -5.3291 -1.6187 0.9765
-1.4920 -5.5199 -1.6187 0.9765
-1.2943 -5.5695 -1.6187 0.9765
-0.8944 -5.6476 -1.6187 0.9765
-0.2865 -5.7108 -1.6187 0.9765
0.3246 -5.7087 -1.6187 0.9765
0.5278 -5.6935 -1.6187 0.9765
0.7304 -5.6711 -1.6187 0.9765
1.1325 -5.6046 -1.6187 0.9765
1.3314 -5.5607 -1.6187 0.9765
1.7242 -5.4517 -1.6187 0.9765
2.1080 -5.3151 -1.6187 0.9765
2.2961 -5.2366 -1.6187 0.9765
2.8419 -4.9616 -1.6187 0.9765
-1.9076 -4.9049 -1.6187 0.9782
-1.3732 -5.0804 -1.6187 0.9782
-1.0079 -5.1653 -1.6187 0.9782
-0.6374 -5.2240 -1.6187 0.9782
-0.4508 -5.2434 -1.6187 0.9782
-0.2637 -5.2561 -1.6187 0.9782
0.2988 -5.2542 -1.6187 0.9782
0.4858 -5.2403 -1.6187 0.9782
1.7647 -4.9580 -1.6187 0.9782
2.6156 -4.5667 -1.6187 0.9782
-1.7651 -4.5386 -1.6187 0.9797
-1.6022 -4.5986 -1.6187 0.9797
-1.2706 -4.7010 -1.6187 0.9797
-0.7617 -4.8098 -1.6187 0.9797
-0.4172 -4.8518 -1.6187 0.9797
-0.2440 -4.8636 -1.6187 0.9797
0.2765 -4.8618 -1.6187 0.9797
0.6220 -4.8298 -1.6187 0.9797
0.9645 -4.7732 -1.6187 0.9797
1.1339 -4.7358 -1.6187 0.9797
1.9555 -4.4597 -1.6187 0.9797
2.7151 -4.0424 -1.6187 0.9797
2.8574 -3.9431 -1.6187 0.9797
2.9961 -3.8388 -1.6187 0.9797
-1.6407 -4.2187 -1.6187 0.9810
-1.1811 -4.3697 -1.6187 0.9810
-0.8669 -4.4427 -1.6187 0.9810
-0.3878 -4.5099 -1.6187 0.9810
-0.0656 -4.5260 -1.6187 0.9810
0.0958 -4.5255 -1.6187 0.9810
0.2570 -4.5192 -1.6187 0.9810
0.5782 -4.4894 -1.6187 0.9810
0.7378 -4.4659 -1.6187 0.9810
1.8177 -4.1455 -1.6187 0.9810
2.1083 -4.0055 -1.6187 0.9810
2.3883 -3.8451 -1.6187 0.9810
2.7850 -3.5683 -1.6187 0.9810
-1.2468 -4.0358 -1.6187 0.9821
-0.8089 -4.1458 -1.6187 0.9821
-0.5116 -4.1929 -1.6187 0.9821
-0.3619 -4.2085 -1.6187 0.9821
-0.2117 -4.2187 -1.6187 0.9821
0.0894 -4.2230 -1.6187 0.9821
0.5396 -4.1894 -1.6187 0.9821
0.6885 -4.1675 -1.6187 0.9821
0.8366 -4.1403 -1.6187 0.9821
0.9836 -4.1078 -1.6187 0.9821
1.6962 -3.8684 -1.6187 0.9821
1.8330 -3.8055 -1.6187 0.9821
1.9674 -3.7378 -1.6187 0.9821
2.0994 -3.6653 -1.6187 0.9821
2.2287 -3.5881 -1.6187 0.9821
2.4786 -3.4203 -1.6187 0.9821
2.5989 -3.3298 -1.6187 0.9821
-1.4336 -3.6861 -1.6187 0.9831
-1.3013 -3.7349 -1.6187 0.9831
-0.8953 -3.8524 -1.6187 0.9831
-0.7574 -3.8819 -1.6187 0.9831
-0.4790 -3.9259 -1.6187 0.9831
-0.3388 -3.9405 -1.6187 0.9831
0.3651 -3.9382 -1.6187 0.9831
0.5052 -3.9226 -1.6187 0.9831
0.9210 -3.8463 -1.6187 0.9831
1.1926 -3.7709 -1.6187 0.9831
1.3262 -3.7261 -1.6187 0.9831
1.7163 -3.5632 -1.6187 0.9831
1.9657 -3.4319 -1.6187 0.9831
2.3208 -3.2025 -1.6187 0.9831
-1.2221 -3.5074 -1.6187 0.9839
-0.9691 -3.5855 -1.6187 0.9839
-0.8408 -3.6178 -1.6187 0.9839
-0.7113 -3.6454 -1.6187 0.9839
-0.5809 -3.6685 -1.6187 0.9839
-0.4498 -3.6869 -1.6187 0.9839
-0.1861 -3.7095 -1.6187 0.9839
-0.0538 -3.7138 -1.6187 0.9839
0.3429 -3.6983 -1.6187 0.9839
0.4744 -3.6837 -1.6187 0.9839
0.6054 -3.6645 -1.6187 0.9839
1.1200 -3.5413 -1.6187 0.9839
1.2454 -3.4991 -1.6187 0.9839
1.4915 -3.4015 -1.6187 0.9839
1.6118 -3.3462 -1.6187 0.9839
2.0709 -3.0833 -1.6187 0.9839
2.1794 -3.0075 -1.6187 0.9839
-1.2675 -3.2592 -1.6187 0.9847
-1.1506 -3.3023 -1.6187 0.9847
-0.9125 -3.3758 -1.6187 0.9847
-0.6697 -3.4323 -1.6187 0.9847
-0.4236 -3.4713 -1.6187 0.9847
0.1985 -3.4913 -1.6187 0.9847
0.4467 -3.4683 -1.6187 0.9847
0.5700 -3.4502 -1.6187 0.9847
1.2892 -3.2506 -1.6187 0.9847
1.8451 -2.9706 -1.6187 0.9847
2.0520 -2.8316 -1.6187 0.9847
-1.1961 -3.0756 -1.6187 0.9854
-1.0858 -3.1162 -1.6187 0.9854
-0.9740 -3.1530 -1.6187 0.9854
-0.8611 -3.1856 -1.6187 0.9854
-0.6320 -3.2389 -1.6187 0.9854
-0.5162 -3.2593 -1.6187 0.9854
-0.0478 -3.2996 -1.6187 0.9854
0.0698 -3.2992 -1.6187 0.9854
0.3046 -3.2859 -1.6187 0.9854
0.7684 -3.2092 -1.6187 0.9854
0.8823 -3.1798 -1.6187 0.9854
1.1065 -3.1089 -1.6187 0.9854
1.2166 -3.0675 -1.6187 0.9854
1.3251 -3.0222 -1.6187 0.9854
1.4320 -2.9730 -1.6187 0.9854
1.5371 -2.9201 -1.6187 0.9854
1.7411 -2.8032 -1.6187 0.9854
1.8399 -2.7394 -1.6187 0.9854
1.9364 -2.6721 -1.6187 0.9854
2.0304 -2.6014 -1.6187 0.9854
-1.1310 -2.9080 -1.6187 0.9860
-1.0266 -2.9465 -1.6187 0.9860
-0.7063 -3.0392 -1.6187 0.9860
-0.5975 -3.0625 -1.6187 0.9860
-0.4880 -3.0818 -1.6187 0.9860
-0.2673 -3.1087 -1.6187 0.9860
-0.1563 -3.1163 -1.6187 0.9860
-0.0452 -3.1199 -1.6187 0.9860
0.0660 -3.1195 -1.6187 0.9860
0.1771 -3.1152 -1.6187 0.9860
0.2880 -3.1069 -1.6187 0.9860
0.5086 -3.0785 -1.6187 0.9860
0.7266 -3.0344 -1.6187 0.9860
0.8342 -3.0066 -1.6187 0.9860
0.9408 -2.9750 -1.6187 0.9860
1.0463 -2.9396 -1.6187 0.9860
1.3540 -2.8111 -1.6187 0.9860
1.5508 -2.7075 -1.6187 0.9860
1.6463 -2.6505 -1.6187 0.9860
1.8309 -2.5265 -1.6187 0.9860
-1.0712 -2.7545 -1.6187 0.9866
-0.3579 -2.9337 -1.6187 0.9866
-0.2532 -2.9446 -1.6187 0.9866
-0.0428 -2.9551 -1.6187 0.9866
0.7902 -2.8478 -1.6187 0.9866
0.8912 -2.8179 -1.6187 0.9866
1.1868 -2.7067 -1.6187 0.9866
1.2825 -2.6626 -1.6187 0.9866
1.3766 -2.6153 -1.6187 0.9866
1.5594 -2.5106 -1.6187 0.9866
1.6478 -2.4534 -1.6187 0.9866
1.7342 -2.3931 -1.6187 0.9866
-0.9225 -2.6476 -1.6187 0.9871
-0.8276 -2.6788 -1.6187 0.9871
-0.7316 -2.7066 -1.6187 0.9871
-0.6346 -2.7309 -1.6187 0.9871
-0.4385 -2.7692 -1.6187 0.9871
-0.0406 -2.8034 -1.6187 0.9871
0.0593 -2.8031 -1.6187 0.9871
0.3581 -2.7807 -1.6187 0.9871
0.4570 -2.7662 -1.6187 0.9871
0.5553 -2.7481 -1.6187 0.9871
0.9401 -2.6414 -1.6187 0.9871
1.3935 -2.4328 -1.6187 0.9871
1.4793 -2.3817 -1.6187 0.9871
1.6452 -2.2702 -1.6187 0.9871
1.7250 -2.2102 -1.6187 0.9871
