ply
format ascii 1.0
element vertex 497
property float32 x
property float32 y
property float32 z
property float32 I
end_header
10.3712 -11.8493 2.7766 0.9380
10.3676 -11.8452 2.0498 0.9385
14.9195 -29.4751 2.0486 0.8760
22.8071 -35.1253 2.5970 0.8455
20.2560 -40.0178 1.7686 0.8356
21.3367 -38.6563 0.7458 0.8381
10.3564 -11.8325 0.2657 0.9390
18.3027 -36.1588 -0.2282 0.8503
20.2558 -36.6980 -0.2360 0.8456
22.3505 -37.2764 -0.2447 0.8404
21.3964 -35.6850 -1.1716 0.8466
22.8209 -35.1465 -1.1800 0.8456
25.6129 -36.5172 -1.2560 0.8365
12.7030 -11.7044 -0.4864 0.9332
13.9568 -10.3307 -0.4889 0.9329
14.2824 -25.8759 -1.4989 0.8884
15.1837 -25.3244 -1.4975 0.8885
16.0658 -24.7430 -1.4961 0.8886
17.1428 -18.2273 -1.2690 0.9046
13.7953 -10.9961 -0.8947 0.9318
15.0894 -10.3547 -0.9281 0.9293
15.2278 -8.9197 -0.8950 0.9318
25.6886 -13.8378 -1.4798 0.8897
26.9302 -10.9689 -1.4747 0.8901
27.2743 -9.9874 -1.4730 0.8902
28.0733 -6.9804 -1.4671 0.8906
28.2862 -5.9679 -1.4661 0.8907
23.9904 -3.2925 -1.2281 0.9076
28.8829 1.2273 -1.4661 0.8907
28.8206 2.2595 -1.4661 0.8907
30.8650 8.1149 -1.6185 0.8800
9.0309 -17.8416 -1.4662 0.9229
10.2832 -17.1503 -1.4662 0.9229
10.8899 -16.7715 -1.4662 0.9229
11.4827 -16.3713 -1.4662 0.9229
12.6235 -15.5085 -1.4662 0.9229
12.6621 -12.5331 -1.3063 0.9310
15.1810 -13.0152 -1.4662 0.9229
13.9058 -11.0842 -1.3039 0.9312
13.9970 -10.3604 -1.2768 0.9325
16.8817 -10.7173 -1.4662 0.9229
17.6046 -9.4832 -1.4662 0.9229
17.9325 -8.8475 -1.4662 0.9229
18.2374 -8.2005 -1.4662 0.9229
18.7769 -6.8758 -1.4662 0.9229
19.0345 -6.2077 -1.4680 0.9228
19.7447 -5.6665 -1.5062 0.9209
21.9628 -2.2174 -1.6185 0.9153
22.0280 -1.4305 -1.6185 0.9153
22.0546 0.9371 -1.6185 0.9153
22.0069 1.7253 -1.6185 0.9153
21.9312 2.5112 -1.6185 0.9153
21.5361 4.8458 -1.6186 0.9153
21.3491 5.6130 -1.6186 0.9153
6.8973 -13.6264 -1.4662 0.9405
7.3803 -13.3710 -1.4662 0.9405
7.8537 -13.0985 -1.4662 0.9405
9.2114 -12.1818 -1.4662 0.9405
10.0586 -11.4922 -1.4662 0.9405
10.5099 -11.1748 -1.4728 0.9402
11.5761 -10.6661 -1.5112 0.9387
14.8430 -7.9955 -1.6186 0.9345
15.1194 -7.4596 -1.6186 0.9345
15.3765 -6.9140 -1.6186 0.9345
15.6139 -6.3597 -1.6186 0.9345
16.0286 -5.2273 -1.6186 0.9345
16.2053 -4.6507 -1.6186 0.9345
16.4962 -3.4804 -1.6186 0.9345
16.6102 -2.8882 -1.6186 0.9345
16.7741 -1.6935 -1.6186 0.9345
16.8523 -0.4901 -1.6186 0.9345
16.8590 0.1129 -1.6186 0.9345
16.8442 0.7157 -1.6186 0.9345
6.5848 -11.9300 -1.6186 0.9466
7.4208 -11.4287 -1.6186 0.9466
8.2187 -10.8690 -1.6186 0.9466
8.6021 -10.5681 -1.6186 0.9466
8.9746 -10.2537 -1.6186 0.9466
9.6845 -9.5859 -1.6186 0.9466
10.3450 -8.8691 -1.6186 0.9466
10.6555 -8.4934 -1.6186 0.9466
11.5039 -7.3032 -1.6186 0.9466
11.7577 -6.8871 -1.6186 0.9466
12.4277 -5.5881 -1.6186 0.9466
12.7954 -4.6855 -1.6186 0.9466
13.4997 -1.8527 -1.6186 0.9466
13.5976 -0.8830 -1.6186 0.9466
13.6260 0.0912 -1.6186 0.9466
13.6140 0.5785 -1.6186 0.9466
13.4738 2.0333 -1.6186 0.9466
13.3924 2.5139 -1.6186 0.9466
13.2939 2.9913 -1.6186 0.9466
13.1785 3.4648 -1.6186 0.9466
5.5205 -10.0016 -1.6187 0.9549
5.8746 -9.7978 -1.6187 0.9549
6.8902 -9.1121 -1.6186 0.9549
7.5239 -8.5963 -1.6186 0.9549
8.6728 -7.4355 -1.6186 0.9549
8.9332 -7.1206 -1.6186 0.9549
9.1821 -6.7965 -1.6186 0.9549
9.6445 -6.1228 -1.6186 0.9549
9.8573 -5.7739 -1.6186 0.9549
10.2448 -5.0545 -1.6186 0.9549
10.4190 -4.6849 -1.6186 0.9549
10.5799 -4.3093 -1.6186 0.9549
10.7272 -3.9281 -1.6186 0.9549
10.9805 -3.1513 -1.6186 0.9549
11.2549 -1.9570 -1.6186 0.9549
11.3660 -1.1475 -1.6186 0.9549
11.4236 0.0765 -1.6186 0.9549
11.4135 0.4850 -1.6186 0.9549
11.3496 1.2996 -1.6186 0.9549
11.1451 2.5078 -1.6186 0.9549
11.0484 2.9048 -1.6186 0.9549
4.4374 -8.7666 -1.6187 0.9610
4.7481 -8.6023 -1.6187 0.9610
5.0527 -8.4269 -1.6187 0.9610
5.3508 -8.2408 -1.6187 0.9610
5.6421 -8.0442 -1.6187 0.9610
5.9262 -7.8372 -1.6187 0.9610
6.2027 -7.6203 -1.6187 0.9610
6.4713 -7.3936 -1.6187 0.9610
6.7315 -7.1574 -1.6187 0.9610
6.9832 -6.9120 -1.6187 0.9610
7.2259 -6.6579 -1.6186 0.9610
8.1015 -5.5594 -1.6186 0.9610
8.4781 -4.9661 -1.6186 0.9610
8.6503 -4.6597 -1.6186 0.9610
8.8114 -4.3473 -1.6186 0.9610
9.0996 -3.7063 -1.6186 0.9610
9.2263 -3.3785 -1.6186 0.9610
9.3413 -3.0464 -1.6186 0.9610
9.4442 -2.7104 -1.6186 0.9610
9.5351 -2.3709 -1.6186 0.9610
9.7758 -0.9870 -1.6186 0.9610
9.8213 -0.2857 -1.6186 0.9610
9.7954 0.7679 -1.6186 0.9610
9.7617 1.1178 -1.6186 0.9610
9.7155 1.4662 -1.6186 0.9610
3.8892 -7.6835 -1.6187 0.9656
4.1615 -7.5395 -1.6187 0.9656
4.9451 -7.0504 -1.6187 0.9656
5.1941 -6.8690 -1.6187 0.9656
5.4364 -6.6788 -1.6187 0.9656
5.6718 -6.4801 -1.6187 0.9656
5.8999 -6.2731 -1.6187 0.9656
6.1205 -6.0581 -1.6187 0.9656
6.3332 -5.8353 -1.6187 0.9656
6.7341 -5.3677 -1.6187 0.9656
6.9218 -5.1234 -1.6187 0.9656
7.1006 -4.8726 -1.6187 0.9656
7.2703 -4.6155 -1.6187 0.9656
7.4307 -4.3526 -1.6187 0.9656
7.5816 -4.0840 -1.6186 0.9656
7.8542 -3.5316 -1.6186 0.9656
7.9754 -3.2485 -1.6186 0.9656
8.2775 -2.3755 -1.6186 0.9656
8.4261 -1.7778 -1.6186 0.9656
8.4843 -1.4753 -1.6186 0.9656
8.5316 -1.1709 -1.6186 0.9656
8.5681 -0.8650 -1.6186 0.9656
8.5935 -0.5581 -1.6186 0.9656
8.6080 -0.2504 -1.6186 0.9656
8.5557 0.9797 -1.6186 0.9656
8.4638 1.5888 -1.6186 0.9656
8.4016 1.8904 -1.6186 0.9656
8.3286 2.1897 -1.6187 0.9656
3.4583 -6.8323 -1.6187 0.9692
3.7004 -6.7042 -1.6187 0.9692
4.6186 -6.1080 -1.6187 0.9692
4.8341 -5.9389 -1.6187 0.9692
5.0434 -5.7622 -1.6187 0.9692
5.2462 -5.5781 -1.6187 0.9692
5.8136 -4.9841 -1.6187 0.9692
5.9881 -4.7730 -1.6187 0.9692
6.1549 -4.5558 -1.6187 0.9692
6.7417 -3.6316 -1.6187 0.9692
6.8672 -3.3881 -1.6187 0.9692
6.9840 -3.1404 -1.6187 0.9692
7.1906 -2.6331 -1.6187 0.9692
7.2802 -2.3742 -1.6187 0.9692
7.4926 -1.5808 -1.6187 0.9692
7.5865 -1.0412 -1.6187 0.9692
7.6188 -0.7692 -1.6187 0.9692
7.6415 -0.4962 -1.6187 0.9692
7.6507 0.3251 -1.6187 0.9692
7.6341 0.5985 -1.6187 0.9692
7.6078 0.8711 -1.6187 0.9692
7.5261 1.4127 -1.6187 0.9692
7.4708 1.6810 -1.6187 0.9692
7.4059 1.9471 -1.6187 0.9692
3.1104 -6.1450 -1.6187 0.9721
3.3282 -6.0298 -1.6187 0.9721
3.5417 -5.9069 -1.6187 0.9721
3.9549 -5.6386 -1.6187 0.9721
4.1540 -5.4935 -1.6187 0.9721
4.3478 -5.3415 -1.6187 0.9721
4.5361 -5.1826 -1.6187 0.9721
4.7185 -5.0170 -1.6187 0.9721
4.8949 -4.8450 -1.6187 0.9721
5.3857 -4.2929 -1.6187 0.9721
5.5358 -4.0975 -1.6187 0.9721
5.8145 -3.6913 -1.6187 0.9721
5.9428 -3.4810 -1.6187 0.9721
6.1764 -3.0473 -1.6187 0.9721
6.3785 -2.5980 -1.6187 0.9721
6.4673 -2.3682 -1.6187 0.9721
6.6200 -1.8999 -1.6187 0.9721
6.6837 -1.6619 -1.6187 0.9721
6.7389 -1.4218 -1.6187 0.9721
6.8233 -0.9364 -1.6187 0.9721
6.8728 -0.4463 -1.6187 0.9721
6.8843 -0.2002 -1.6187 0.9721
6.8810 0.2924 -1.6187 0.9721
6.8425 0.7835 -1.6187 0.9721
6.8101 1.0277 -1.6187 0.9721
6.7192 1.5119 -1.6187 0.9721
6.6609 1.7512 -1.6187 0.9721
3.5899 -5.1183 -1.6187 0.9745
3.9466 -4.8485 -1.6187 0.9745
4.5976 -4.2362 -1.6187 0.9745
4.7462 -4.0691 -1.6187 0.9745
4.8887 -3.8967 -1.6187 0.9745
5.1547 -3.5373 -1.6187 0.9745
5.2779 -3.3507 -1.6187 0.9745
5.5039 -2.9648 -1.6187 0.9745
5.7018 -2.5638 -1.6187 0.9745
5.9436 -1.9384 -1.6187 0.9745
6.1936 -0.8500 -1.6187 0.9745
6.2200 -0.6280 -1.6187 0.9745
6.2385 -0.4051 -1.6187 0.9745
6.2460 0.2654 -1.6187 0.9745
6.2111 0.7112 -1.6187 0.9745
2.5823 -5.1015 -1.6187 0.9765
2.7631 -5.0059 -1.6187 0.9765
2.9403 -4.9039 -1.6187 0.9765
3.1138 -4.7956 -1.6187 0.9765
3.4487 -4.5607 -1.6187 0.9765
3.6096 -4.4345 -1.6187 0.9765
3.9173 -4.1651 -1.6187 0.9765
4.0637 -4.0224 -1.6187 0.9765
4.2050 -3.8744 -1.6187 0.9765
4.4712 -3.5639 -1.6187 0.9765
4.5958 -3.4017 -1.6187 0.9765
4.7145 -3.2352 -1.6187 0.9765
5.0339 -2.7116 -1.6187 0.9765
5.1277 -2.5299 -1.6187 0.9765
5.2954 -2.1569 -1.6187 0.9765
5.4360 -1.7728 -1.6187 0.9765
5.5488 -1.3797 -1.6187 0.9765
5.7058 -0.3705 -1.6187 0.9765
5.5783 1.2552 -1.6187 0.9765
5.5299 1.4539 -1.6187 0.9765
2.3767 -4.6954 -1.6187 0.9782
2.8660 -4.4138 -1.6187 0.9782
3.0220 -4.3085 -1.6187 0.9782
3.1742 -4.1977 -1.6187 0.9782
3.4661 -3.9600 -1.6187 0.9782
3.6055 -3.8336 -1.6187 0.9782
3.9953 -3.4253 -1.6187 0.9782
4.2300 -3.1310 -1.6187 0.9782
4.3392 -2.9777 -1.6187 0.9782
4.7195 -2.3285 -1.6187 0.9782
4.8739 -1.9852 -1.6187 0.9782
4.9417 -1.8096 -1.6187 0.9782
5.0033 -1.6317 -1.6187 0.9782
5.0584 -1.4517 -1.6187 0.9782
5.1493 -1.0864 -1.6187 0.9782
5.2137 -0.7156 -1.6187 0.9782
5.2360 -0.5286 -1.6187 0.9782
5.2516 -0.3410 -1.6187 0.9782
5.2604 -0.1530 -1.6187 0.9782
5.2625 0.0353 -1.6187 0.9782
5.2579 0.2234 -1.6187 0.9782
5.2465 0.4113 -1.6187 0.9782
5.0897 1.3382 -1.6187 0.9782
2.3532 -4.2633 -1.6187 0.9797
2.6519 -4.0842 -1.6187 0.9797
2.7963 -3.9867 -1.6187 0.9797
2.9371 -3.8842 -1.6187 0.9797
3.0741 -3.7766 -1.6187 0.9797
3.2072 -3.6643 -1.6187 0.9797
3.4609 -3.4257 -1.6187 0.9797
3.5812 -3.2997 -1.6187 0.9797
3.6969 -3.1695 -1.6187 0.9797
3.9140 -2.8971 -1.6187 0.9797
4.1111 -2.6099 -1.6187 0.9797
4.2872 -2.3094 -1.6187 0.9797
4.3670 -2.1546 -1.6187 0.9797
4.4412 -1.9970 -1.6187 0.9797
4.6296 -1.5098 -1.6187 0.9797
4.6806 -1.3433 -1.6187 0.9797
4.7257 -1.1750 -1.6187 0.9797
4.7647 -1.0053 -1.6187 0.9797
4.7976 -0.8342 -1.6187 0.9797
4.8594 -0.3155 -1.6187 0.9797
4.8652 0.2067 -1.6187 0.9797
4.8547 0.3806 -1.6187 0.9797
4.8151 0.7267 -1.6187 0.9797
4.7860 0.8984 -1.6187 0.9797
4.7508 1.0690 -1.6187 0.9797
4.7095 1.2382 -1.6187 0.9797
2.0442 -4.0386 -1.6187 0.9810
2.1873 -3.9629 -1.6187 0.9810
2.4650 -3.7964 -1.6187 0.9810
2.5992 -3.7058 -1.6187 0.9810
2.8575 -3.5105 -1.6187 0.9810
2.9812 -3.4061 -1.6187 0.9810
3.1011 -3.2972 -1.6187 0.9810
3.2170 -3.1842 -1.6187 0.9810
3.4364 -2.9461 -1.6187 0.9810
3.5396 -2.8213 -1.6187 0.9810
3.6382 -2.6929 -1.6187 0.9810
3.7322 -2.5611 -1.6187 0.9810
4.0592 -2.0027 -1.6187 0.9810
4.1283 -1.8563 -1.6187 0.9810
4.1920 -1.7075 -1.6187 0.9810
4.3034 -1.4034 -1.6187 0.9810
4.4289 -0.9344 -1.6187 0.9810
4.4595 -0.7754 -1.6187 0.9810
4.4844 -0.6154 -1.6187 0.9810
4.5035 -0.4547 -1.6187 0.9810
4.5126 0.3538 -1.6187 0.9810
4.4487 0.8351 -1.6187 0.9810
4.4160 0.9937 -1.6187 0.9810
4.3777 1.1509 -1.6187 0.9810
1.9076 -3.7687 -1.6187 0.9821
2.0412 -3.6980 -1.6187 0.9821
2.1721 -3.6226 -1.6187 0.9821
2.4255 -3.4581 -1.6187 0.9821
2.7819 -3.1784 -1.6187 0.9821
2.8938 -3.0769 -1.6187 0.9821
3.0020 -2.9714 -1.6187 0.9821
3.2067 -2.7492 -1.6187 0.9821
3.3030 -2.6328 -1.6187 0.9821
3.3951 -2.5130 -1.6187 0.9821
3.6447 -2.1349 -1.6187 0.9821
3.7187 -2.0032 -1.6187 0.9821
3.9119 -1.5933 -1.6187 0.9821
4.0158 -1.3096 -1.6187 0.9821
4.0600 -1.1652 -1.6187 0.9821
4.1615 -0.7236 -1.6187 0.9821
4.2025 -0.4243 -1.6187 0.9821
4.2150 -0.2737 -1.6187 0.9821
4.2221 -0.1228 -1.6187 0.9821
4.2201 0.1793 -1.6187 0.9821
4.2110 0.3301 -1.6187 0.9821
4.1766 0.6303 -1.6187 0.9821
4.1514 0.7793 -1.6187 0.9821
4.1209 0.9273 -1.6187 0.9821
4.0851 1.0740 -1.6187 0.9821
1.7862 -3.5287 -1.6187 0.9831
2.0338 -3.3920 -1.6187 0.9831
2.3854 -3.1547 -1.6187 0.9831
2.7096 -2.8810 -1.6187 0.9831
2.8109 -2.7823 -1.6187 0.9831
2.9086 -2.6799 -1.6187 0.9831
3.1789 -2.3530 -1.6187 0.9831
3.2610 -2.2378 -1.6187 0.9831
3.4820 -1.8756 -1.6187 0.9831
3.7601 -1.2262 -1.6187 0.9831
3.8015 -1.0910 -1.6187 0.9831
3.8381 -0.9543 -1.6187 0.9831
3.8698 -0.8165 -1.6187 0.9831
3.8965 -0.6775 -1.6187 0.9831
3.9183 -0.5378 -1.6187 0.9831
3.9350 -0.3973 -1.6187 0.9831
3.9533 -0.1150 -1.6187 0.9831
3.9514 0.1679 -1.6187 0.9831
3.9293 0.4499 -1.6187 0.9831
3.8871 0.7297 -1.6187 0.9831
3.8585 0.8682 -1.6187 0.9831
1.6774 -3.3138 -1.6187 0.9839
1.7948 -3.2517 -1.6187 0.9839
1.9100 -3.1854 -1.6187 0.9839
2.0226 -3.1151 -1.6187 0.9839
2.1328 -3.0408 -1.6187 0.9839
2.2402 -2.9625 -1.6187 0.9839
2.3447 -2.8805 -1.6187 0.9839
2.8197 -2.4175 -1.6187 0.9839
2.9044 -2.3151 -1.6187 0.9839
3.0624 -2.1015 -1.6187 0.9839
3.1356 -1.9907 -1.6187 0.9839
3.2048 -1.8772 -1.6187 0.9839
3.4877 -1.2771 -1.6187 0.9839
3.5700 -1.0246 -1.6187 0.9839
3.6592 -0.6363 -1.6187 0.9839
3.7141 0.0249 -1.6187 0.9839
3.6900 0.4225 -1.6187 0.9839
3.6725 0.5542 -1.6187 0.9839
1.6899 -3.0616 -1.6187 0.9847
1.9044 -2.9329 -1.6187 0.9847
2.5717 -2.3696 -1.6187 0.9847
2.6548 -2.2761 -1.6187 0.9847
2.8833 -1.9786 -1.6187 0.9847
2.9523 -1.8742 -1.6187 0.9847
3.3613 -0.9646 -1.6187 0.9847
3.4216 -0.7219 -1.6187 0.9847
3.4955 -0.1017 -1.6187 0.9847
3.4938 0.1485 -1.6187 0.9847
3.4862 0.2733 -1.6187 0.9847
3.4578 0.5218 -1.6187 0.9847
3.4117 0.7677 -1.6187 0.9847
3.3820 0.8892 -1.6187 0.9847
1.5946 -2.8891 -1.6187 0.9854
1.7971 -2.7677 -1.6187 0.9854
1.8949 -2.7016 -1.6187 0.9854
2.0832 -2.5593 -1.6187 0.9854
2.1734 -2.4831 -1.6187 0.9854
2.3453 -2.3214 -1.6187 0.9854
2.5053 -2.1478 -1.6187 0.9854
2.7209 -1.8671 -1.6187 0.9854
2.7859 -1.7686 -1.6187 0.9854
3.0097 -1.3533 -1.6187 0.9854
3.0561 -1.2448 -1.6187 0.9854
3.0987 -1.1347 -1.6187 0.9854
3.1373 -1.0232 -1.6187 0.9854
3.1719 -0.9103 -1.6187 0.9854
3.2288 -0.6812 -1.6187 0.9854
3.2693 -0.4487 -1.6187 0.9854
3.2999 0.0221 -1.6187 0.9854
3.2898 0.2579 -1.6187 0.9854
3.2785 0.3754 -1.6187 0.9854
3.2630 0.4924 -1.6187 0.9854
3.2433 0.6088 -1.6187 0.9854
3.2194 0.7244 -1.6187 0.9854
3.1915 0.8391 -1.6187 0.9854
1.4091 -2.7839 -1.6187 0.9860
1.5078 -2.7317 -1.6187 0.9860
1.6045 -2.6760 -1.6187 0.9860
1.6992 -2.6169 -1.6187 0.9860
1.8819 -2.4888 -1.6187 0.9860
1.9697 -2.4199 -1.6187 0.9860
2.0550 -2.3479 -1.6187 0.9860
2.1377 -2.2729 -1.6187 0.9860
2.3688 -2.0309 -1.6187 0.9860
2.5079 -1.8563 -1.6187 0.9860
2.5727 -1.7654 -1.6187 0.9860
2.6342 -1.6723 -1.6187 0.9860
2.6923 -1.5770 -1.6187 0.9860
2.7470 -1.4797 -1.6187 0.9860
2.7982 -1.3805 -1.6187 0.9860
2.8897 -1.1770 -1.6187 0.9860
2.9991 -0.8607 -1.6187 0.9860
3.0741 -0.5345 -1.6187 0.9860
3.0912 -0.4242 -1.6187 0.9860
3.1044 -0.3134 -1.6187 0.9860
3.1136 -0.2022 -1.6187 0.9860
3.1189 -0.0907 -1.6187 0.9860
3.1201 0.0209 -1.6187 0.9860
3.1174 0.1325 -1.6187 0.9860
3.1106 0.2439 -1.6187 0.9860
3.0999 0.3550 -1.6187 0.9860
1.3347 -2.6369 -1.6187 0.9866
1.5198 -2.5347 -1.6187 0.9866
1.6095 -2.4787 -1.6187 0.9866
1.6971 -2.4196 -1.6187 0.9866
1.7825 -2.3574 -1.6187 0.9866
1.8657 -2.2921 -1.6187 0.9866
1.9465 -2.2239 -1.6187 0.9866
2.0248 -2.1529 -1.6187 0.9866
2.1005 -2.0791 -1.6187 0.9866
2.1735 -2.0026 -1.6187 0.9866
2.3111 -1.8421 -1.6187 0.9866
2.5501 -1.4937 -1.6187 0.9866
2.6019 -1.4016 -1.6187 0.9866
2.6504 -1.3076 -1.6187 0.9866
2.8098 -0.9163 -1.6187 0.9866
2.8681 -0.7131 -1.6187 0.9866
2.8917 -0.6101 -1.6187 0.9866
2.9117 -0.5063 -1.6187 0.9866
2.9280 -0.4019 -1.6187 0.9866
2.9405 -0.2969 -1.6187 0.9866
2.9542 -0.0859 -1.6187 0.9866
2.9464 0.2310 -1.6187 0.9866
2.8833 0.6488 -1.6187 0.9866
2.8583 0.7515 -1.6187 0.9866
1.2662 -2.5015 -1.6187 0.9871
1.4417 -2.4046 -1.6187 0.9871
1.5268 -2.3515 -1.6187 0.9871
1.7699 -2.1744 -1.6187 0.9871
1.8465 -2.1097 -1.6187 0.9871
1.9208 -2.0423 -1.6187 0.9871
2.0619 -1.8998 -1.6187 0.9871
2.1924 -1.7475 -1.6187 0.9871
2.2535 -1.6680 -1.6187 0.9871
2.4192 -1.4171 -1.6187 0.9871
2.5570 -1.1498 -1.6187 0.9871
2.6655 -0.8693 -1.6187 0.9871
2.6949 -0.7734 -1.6187 0.9871
2.7208 -0.6765 -1.6187 0.9871
2.7895 -0.2816 -1.6187 0.9871
2.8036 0.0188 -1.6187 0.9871
2.8011 0.1190 -1.6187 0.9871
2.7951 0.2192 -1.6187 0.9871
2.7855 0.3190 -1.6187 0.9871
2.7353 0.6155 -1.6187 0.9871
