ply
format ascii 1.0
element vertex 429
property float32 x
property float32 y
property float32 z
property float32 I
end_header
12.5317 -12.0273 -0.4891 0.9329
14.0357 -10.0508 -0.8755 0.9332
15.1307 -10.0345 -0.9208 0.9299
25.4270 -14.3527 -1.4808 0.8896
25.8971 -13.4174 -1.4792 0.8897
26.3336 -12.4673 -1.4776 0.8899
26.7294 -11.5006 -1.4757 0.8900
27.7054 -8.5325 -1.4702 0.8904
28.1671 -6.5074 -1.4661 0.8907
28.3822 -5.4935 -1.4661 0.8907
28.5609 -4.4726 -1.4661 0.8907
28.8080 -2.4148 -1.4661 0.8907
28.8760 -1.3806 -1.4661 0.8907
28.9007 0.6919 -1.4661 0.8907
28.8574 1.7274 -1.4661 0.8907
30.7155 8.6636 -1.6185 0.8800
30.3853 9.7591 -1.6185 0.8800
12.8573 -15.3152 -1.4662 0.9229
13.3980 -14.8445 -1.4662 0.9229
12.6720 -12.1619 -1.2878 0.9320
15.3820 -12.7770 -1.4662 0.9229
13.8582 -10.6955 -1.2835 0.9322
14.0745 -10.0786 -1.2693 0.9329
16.6647 -11.0518 -1.4662 0.9229
15.2518 -9.3454 -1.3115 0.9308
17.7548 -9.1988 -1.4662 0.9229
18.6397 -7.2396 -1.4662 0.9229
18.8872 -6.5667 -1.4662 0.9229
19.3571 -5.9614 -1.4851 0.9220
21.5520 -4.1715 -1.6096 0.9157
22.0492 -1.0542 -1.6185 0.9153
22.0729 -0.2631 -1.6185 0.9153
22.0350 1.3190 -1.6185 0.9153
21.8840 2.8944 -1.6186 0.9153
21.6204 4.4549 -1.6186 0.9153
21.4468 5.2271 -1.6186 0.9153
21.0172 6.7503 -1.6186 0.9153
20.7618 7.4993 -1.6186 0.9153
9.8197 -11.6970 -1.4662 0.9405
10.2327 -11.3374 -1.4662 0.9405
11.8148 -10.5522 -1.5208 0.9383
12.3694 -10.2746 -1.5438 0.9374
12.9304 -9.9795 -1.5681 0.9365
13.5098 -9.6742 -1.5953 0.9354
14.3599 -8.7989 -1.6168 0.9346
14.6820 -8.2875 -1.6186 0.9345
14.9696 -7.7558 -1.6186 0.9345
15.2380 -7.2142 -1.6186 0.9345
15.4868 -6.6633 -1.6186 0.9345
15.7157 -6.1039 -1.6186 0.9345
16.2801 -4.3815 -1.6186 0.9345
16.5522 -3.2037 -1.6186 0.9345
16.6564 -2.6084 -1.6186 0.9345
16.8401 -0.8051 -1.6186 0.9345
16.8293 1.0074 -1.6186 0.9345
16.7824 1.6100 -1.6186 0.9345
16.5126 3.4024 -1.6186 0.9345
16.3800 3.9922 -1.6186 0.9345
16.0519 5.1555 -1.6186 0.9345
15.8568 5.7276 -1.6186 0.9345
9.1299 -10.1156 -1.6186 0.9466
9.4866 -9.7818 -1.6186 0.9466
10.7873 -8.3254 -1.6186 0.9466
11.3560 -7.5311 -1.6186 0.9466
11.6187 -7.1192 -1.6186 0.9466
11.8664 -6.6981 -1.6186 0.9466
12.7019 -4.9333 -1.6186 0.9466
12.8706 -4.4749 -1.6186 0.9466
13.0227 -4.0106 -1.6186 0.9466
13.1581 -3.5412 -1.6186 0.9466
13.4622 -2.1081 -1.6186 0.9466
13.5787 -1.1382 -1.6186 0.9466
13.6107 -0.6507 -1.6186 0.9466
13.6019 0.8142 -1.6186 0.9466
13.5087 1.7867 -1.6186 0.9466
13.3460 2.7500 -1.6186 0.9466
13.2388 3.2266 -1.6186 0.9466
12.9736 4.1668 -1.6186 0.9466
7.6542 -8.4805 -1.6186 0.9549
8.2421 -7.9103 -1.6186 0.9549
8.5204 -7.6098 -1.6186 0.9549
9.0436 -6.9797 -1.6186 0.9549
9.2880 -6.6511 -1.6186 0.9549
9.9484 -5.6155 -1.6186 0.9549
10.1433 -5.2553 -1.6186 0.9549
10.3251 -4.8883 -1.6186 0.9549
10.4937 -4.5150 -1.6186 0.9549
10.6488 -4.1360 -1.6186 0.9549
10.7902 -3.7516 -1.6186 0.9549
10.9177 -3.3624 -1.6186 0.9549
11.0312 -2.9688 -1.6186 0.9549
11.1306 -2.5715 -1.6186 0.9549
11.3839 -0.9542 -1.6186 0.9549
11.4107 -0.5455 -1.6186 0.9549
11.4230 -0.1362 -1.6186 0.9549
11.4034 0.6826 -1.6186 0.9549
11.3716 1.0910 -1.6186 0.9549
11.3252 1.4979 -1.6186 0.9549
11.1887 2.3055 -1.6186 0.9549
10.8766 3.4933 -1.6186 0.9549
10.7444 3.8809 -1.6186 0.9549
6.5833 -7.2940 -1.6187 0.9610
7.0889 -6.8035 -1.6187 0.9610
7.3282 -6.5451 -1.6186 0.9610
7.9885 -5.7205 -1.6186 0.9610
8.3778 -5.1334 -1.6186 0.9610
9.6464 -1.8671 -1.6186 0.9610
9.7072 -1.5201 -1.6186 0.9610
9.7911 -0.8207 -1.6186 0.9610
9.8226 0.2352 -1.6186 0.9610
9.7805 0.9383 -1.6186 0.9610
9.6882 1.6367 -1.6186 0.9610
9.6233 1.9829 -1.6186 0.9610
9.5461 2.3266 -1.6186 0.9610
9.4565 2.6673 -1.6186 0.9610
9.2411 3.3380 -1.6186 0.9610
5.5371 -6.5956 -1.6187 0.9656
6.2132 -5.9630 -1.6187 0.9656
6.4229 -5.7365 -1.6187 0.9656
7.0016 -5.0138 -1.6187 0.9656
7.1768 -4.7596 -1.6187 0.9656
7.3429 -4.4992 -1.6187 0.9656
7.7834 -3.6849 -1.6186 0.9656
7.9105 -3.4036 -1.6186 0.9656
8.0274 -3.1178 -1.6186 0.9656
8.1340 -2.8280 -1.6186 0.9656
8.2302 -2.5346 -1.6186 0.9656
8.3157 -2.2380 -1.6186 0.9656
8.3906 -1.9385 -1.6186 0.9656
8.5079 -1.3323 -1.6186 0.9656
8.5502 -1.0265 -1.6186 0.9656
8.5815 -0.7193 -1.6186 0.9656
8.5673 -0.1021 -1.6104 0.9657
8.5723 0.8224 -1.6186 0.9656
8.5373 1.1292 -1.6186 0.9656
8.2883 2.3378 -1.6187 0.9656
8.1992 2.6334 -1.6187 0.9656
5.1307 -5.6846 -1.6187 0.9692
5.8905 -4.8929 -1.6187 0.9692
6.0621 -4.6786 -1.6187 0.9692
6.2259 -4.4583 -1.6187 0.9692
6.3817 -4.2323 -1.6187 0.9692
6.7992 -3.5227 -1.6187 0.9692
7.3184 -2.2538 -1.6187 0.9692
7.5180 -1.4551 -1.6187 0.9692
7.5654 -1.1847 -1.6187 0.9692
7.6030 -0.9128 -1.6187 0.9692
7.6554 0.1833 -1.6187 0.9692
7.5914 1.0040 -1.6187 0.9692
7.5506 1.2755 -1.6187 0.9692
7.4398 1.8132 -1.6187 0.9692
7.3700 2.0788 -1.6187 0.9692
7.2021 2.6015 -1.6187 0.9692
4.6146 -5.1128 -1.6187 0.9721
4.7949 -4.9441 -1.6187 0.9721
5.1368 -4.5878 -1.6187 0.9721
5.4523 -4.2080 -1.6187 0.9721
5.9977 -3.3855 -1.6187 0.9721
6.3265 -2.7220 -1.6187 0.9721
6.4200 -2.4935 -1.6187 0.9721
6.5053 -2.2618 -1.6187 0.9721
6.5822 -2.0271 -1.6187 0.9721
6.6506 -1.7899 -1.6187 0.9721
6.7105 -1.5503 -1.6187 0.9721
6.8043 -1.0655 -1.6187 0.9721
6.8632 -0.5753 -1.6187 0.9721
6.8794 -0.3289 -1.6187 0.9721
6.8867 -0.0821 -1.6187 0.9721
6.8749 0.4116 -1.6187 0.9721
6.8558 0.6577 -1.6187 0.9721
6.8278 0.9031 -1.6187 0.9721
6.6914 1.6308 -1.6187 0.9721
6.6286 1.8697 -1.6187 0.9721
6.4776 2.3398 -1.6187 0.9721
4.1887 -4.6409 -1.6187 0.9745
4.5104 -4.3289 -1.6187 0.9745
5.0829 -3.6398 -1.6187 0.9745
5.2101 -3.4552 -1.6187 0.9745
5.4442 -3.0731 -1.6187 0.9745
5.6504 -2.6751 -1.6187 0.9745
5.7427 -2.4708 -1.6187 0.9745
5.8275 -2.2634 -1.6187 0.9745
5.9049 -2.0530 -1.6187 0.9745
5.9747 -1.8400 -1.6187 0.9745
6.0368 -1.6247 -1.6187 0.9745
6.0912 -1.4072 -1.6187 0.9745
6.1764 -0.9672 -1.6187 0.9745
6.2071 -0.7452 -1.6187 0.9745
6.2445 -0.2986 -1.6187 0.9745
6.2499 0.1496 -1.6187 0.9745
6.1643 1.0413 -1.6187 0.9745
6.1230 1.2617 -1.6187 0.9745
6.0739 1.4803 -1.6187 0.9745
6.0169 1.6971 -1.6187 0.9745
5.9522 1.9117 -1.6187 0.9745
3.6764 -4.3792 -1.6187 0.9765
3.8310 -4.2446 -1.6187 0.9765
4.1253 -3.9592 -1.6187 0.9765
4.3983 -3.6535 -1.6187 0.9765
4.5265 -3.4934 -1.6187 0.9765
4.6488 -3.3290 -1.6187 0.9765
4.9793 -2.8106 -1.6187 0.9765
5.0769 -2.6304 -1.6187 0.9765
5.4645 -1.6829 -1.6187 0.9765
5.5213 -1.4859 -1.6187 0.9765
5.6136 -1.0865 -1.6187 0.9765
5.6490 -0.8846 -1.6187 0.9765
5.6770 -0.6815 -1.6187 0.9765
5.6978 -0.4776 -1.6187 0.9765
5.7113 -0.2731 -1.6187 0.9765
5.6917 0.5460 -1.6187 0.9765
5.6379 0.9524 -1.6187 0.9765
5.5031 1.5522 -1.6187 0.9765
5.4439 1.7485 -1.6187 0.9765
5.3778 1.9425 -1.6187 0.9765
3.3837 -4.0306 -1.6187 0.9782
4.3858 -2.9086 -1.6187 0.9782
4.5829 -2.5869 -1.6187 0.9782
4.6727 -2.4210 -1.6187 0.9782
5.0818 -1.3676 -1.6187 0.9782
5.1276 -1.1846 -1.6187 0.9782
5.2251 -0.6273 -1.6187 0.9782
5.2442 -0.4396 -1.6187 0.9782
5.2611 0.1260 -1.6187 0.9782
5.2172 0.6900 -1.6187 0.9782
5.1891 0.8766 -1.6187 0.9782
5.1130 1.2462 -1.6187 0.9782
5.0650 1.4286 -1.6187 0.9782
5.0106 1.6093 -1.6187 0.9782
4.9497 1.7879 -1.6187 0.9782
3.3902 -3.4957 -1.6187 0.9797
3.5133 -3.3719 -1.6187 0.9797
3.6319 -3.2438 -1.6187 0.9797
3.7459 -3.1115 -1.6187 0.9797
3.9592 -2.8351 -1.6187 0.9797
4.0583 -2.6914 -1.6187 0.9797
4.2406 -2.3937 -1.6187 0.9797
4.4731 -1.9246 -1.6187 0.9797
4.5995 -1.5992 -1.6187 0.9797
4.7809 -0.9254 -1.6187 0.9797
4.8109 -0.7534 -1.6187 0.9797
4.8349 -0.5805 -1.6187 0.9797
4.8526 -0.4068 -1.6187 0.9797
4.8682 0.1165 -1.6187 0.9797
4.8609 0.2910 -1.6187 0.9797
4.8275 0.6385 -1.6187 0.9797
4.8016 0.8111 -1.6187 0.9797
4.7694 0.9827 -1.6187 0.9797
4.5800 1.6543 -1.6187 0.9797
2.9104 -3.4667 -1.6187 0.9810
3.3760 -3.0152 -1.6187 0.9810
3.6802 -2.6353 -1.6187 0.9810
3.8595 -2.3649 -1.6187 0.9810
4.0190 -2.0823 -1.6187 0.9810
4.0911 -1.9369 -1.6187 0.9810
4.1579 -1.7890 -1.6187 0.9810
4.3259 -1.3322 -1.6187 0.9810
4.3709 -1.1763 -1.6187 0.9810
4.5106 -0.3781 -1.6187 0.9810
4.5212 -0.2162 -1.6187 0.9810
4.5261 -0.0539 -1.6187 0.9810
4.5183 0.2705 -1.6187 0.9810
4.5057 0.4323 -1.6187 0.9810
4.4632 0.7540 -1.6187 0.9810
4.4333 0.9135 -1.6187 0.9810
4.3977 1.0718 -1.6187 0.9810
4.3565 1.2288 -1.6187 0.9810
4.2572 1.5377 -1.6187 0.9810
2.8301 -3.1356 -1.6187 0.9821
2.9407 -3.0322 -1.6187 0.9821
3.0475 -2.9248 -1.6187 0.9821
3.1504 -2.8137 -1.6187 0.9821
3.3439 -2.5807 -1.6187 0.9821
3.4342 -2.4592 -1.6187 0.9821
3.6784 -2.0763 -1.6187 0.9821
3.8177 -1.8074 -1.6187 0.9821
3.8800 -1.6694 -1.6187 0.9821
3.9373 -1.5293 -1.6187 0.9821
3.9896 -1.3871 -1.6187 0.9821
4.0368 -1.2432 -1.6187 0.9821
4.0788 -1.0977 -1.6187 0.9821
4.1938 -0.5035 -1.6187 0.9821
4.2227 0.1011 -1.6187 0.9821
4.2164 0.2524 -1.6187 0.9821
4.2046 0.4034 -1.6187 0.9821
4.1874 0.5538 -1.6187 0.9821
4.1649 0.7036 -1.6187 0.9821
4.1370 0.8524 -1.6187 0.9821
4.0216 1.2917 -1.6187 0.9821
3.9727 1.4350 -1.6187 0.9821
2.5430 -3.0291 -1.6187 0.9831
2.8534 -2.7386 -1.6187 0.9831
2.9498 -2.6345 -1.6187 0.9831
3.1310 -2.4164 -1.6187 0.9831
3.2960 -2.1859 -1.6187 0.9831
3.5746 -1.6924 -1.6187 0.9831
3.7798 -1.1641 -1.6187 0.9831
3.8535 -0.8903 -1.6187 0.9831
3.8829 -0.7516 -1.6187 0.9831
3.9268 -0.4714 -1.6187 0.9831
3.9547 -0.0471 -1.6187 0.9831
3.9538 0.0947 -1.6187 0.9831
3.9209 0.5186 -1.6187 0.9831
3.8425 0.9365 -1.6187 0.9831
3.7656 1.2094 -1.6187 0.9831
3.7198 1.3436 -1.6187 0.9831
2.4885 -2.7572 -1.6187 0.9839
2.5858 -2.6662 -1.6187 0.9839
2.6797 -2.5718 -1.6187 0.9839
2.7702 -2.4741 -1.6187 0.9839
2.8571 -2.3732 -1.6187 0.9839
3.0198 -2.1624 -1.6187 0.9839
3.0953 -2.0528 -1.6187 0.9839
3.4622 -1.3447 -1.6187 0.9839
3.5082 -1.2197 -1.6187 0.9839
3.6188 -0.8360 -1.6187 0.9839
3.6465 -0.7058 -1.6187 0.9839
3.6877 -0.4427 -1.6187 0.9839
3.7139 -0.0443 -1.6187 0.9839
3.7131 0.0889 -1.6187 0.9839
3.6972 0.3547 -1.6187 0.9839
3.6821 0.4870 -1.6187 0.9839
3.6622 0.6187 -1.6187 0.9839
3.6377 0.7496 -1.6187 0.9839
3.5362 1.1358 -1.6187 0.9839
3.4932 1.2618 -1.6187 0.9839
2.3430 -2.5960 -1.6187 0.9847
2.6900 -2.2344 -1.6187 0.9847
2.9143 -1.9327 -1.6187 0.9847
3.0453 -1.7190 -1.6187 0.9847
3.1050 -1.6087 -1.6187 0.9847
3.1606 -1.4963 -1.6187 0.9847
3.2122 -1.3821 -1.6187 0.9847
3.3030 -1.1484 -1.6187 0.9847
3.3420 -1.0292 -1.6187 0.9847
3.3768 -0.9088 -1.6187 0.9847
3.4847 -0.2921 -1.6187 0.9847
3.4930 -0.1670 -1.6187 0.9847
3.4967 -0.0417 -1.6187 0.9847
3.4960 0.0837 -1.6187 0.9847
3.4907 0.2090 -1.6187 0.9847
3.4810 0.3339 -1.6187 0.9847
3.4667 0.4585 -1.6187 0.9847
3.4250 0.7057 -1.6187 0.9847
3.3975 0.8281 -1.6187 0.9847
3.3657 0.9493 -1.6187 0.9847
3.3295 1.0694 -1.6187 0.9847
3.2890 1.1880 -1.6187 0.9847
2.1218 -2.5274 -1.6187 0.9854
2.2110 -2.4497 -1.6187 0.9854
2.3808 -2.2850 -1.6187 0.9854
2.4612 -2.1982 -1.6187 0.9854
2.6124 -2.0162 -1.6187 0.9854
2.6830 -1.9212 -1.6187 0.9854
2.8737 -1.6221 -1.6187 0.9854
2.9825 -1.4121 -1.6187 0.9854
3.1169 -1.0837 -1.6187 0.9854
3.1865 -0.8576 -1.6187 0.9854
3.2152 -0.7428 -1.6187 0.9854
3.2602 -0.5105 -1.6187 0.9854
3.2764 -0.3933 -1.6187 0.9854
3.2962 -0.1576 -1.6187 0.9854
3.2989 0.0790 -1.6187 0.9854
3.2848 0.3151 -1.6187 0.9854
3.2714 0.4327 -1.6187 0.9854
3.2061 0.7814 -1.6187 0.9854
3.1760 0.8958 -1.6187 0.9854
3.1419 1.0091 -1.6187 0.9854
2.0062 -2.3897 -1.6187 0.9860
2.0906 -2.3163 -1.6187 0.9860
2.1723 -2.2398 -1.6187 0.9860
2.3272 -2.0784 -1.6187 0.9860
2.4701 -1.9064 -1.6187 0.9860
2.5368 -1.8166 -1.6187 0.9860
2.7704 -1.4354 -1.6187 0.9860
2.8201 -1.3351 -1.6187 0.9860
3.0130 -0.8109 -1.6187 0.9860
3.0633 -0.5929 -1.6187 0.9860
3.0826 -0.4827 -1.6187 0.9860
3.1093 -0.2606 -1.6187 0.9860
3.1200 -0.0372 -1.6187 0.9860
3.1193 0.0747 -1.6187 0.9860
3.1146 0.1864 -1.6187 0.9860
3.0933 0.4091 -1.6187 0.9860
3.0766 0.5197 -1.6187 0.9860
3.0560 0.6297 -1.6187 0.9860
2.9346 1.0600 -1.6187 0.9860
1.9002 -2.2635 -1.6187 0.9866
1.9802 -2.1940 -1.6187 0.9866
2.0576 -2.1216 -1.6187 0.9866
2.2734 -1.8884 -1.6187 0.9866
2.4029 -1.7207 -1.6187 0.9866
2.5200 -1.5441 -1.6187 0.9866
2.5737 -1.4528 -1.6187 0.9866
2.6712 -1.2646 -1.6187 0.9866
2.7148 -1.1681 -1.6187 0.9866
2.7549 -1.0700 -1.6187 0.9866
2.7915 -0.9705 -1.6187 0.9866
2.8245 -0.8699 -1.6187 0.9866
2.8539 -0.7681 -1.6187 0.9866
2.8796 -0.6653 -1.6187 0.9866
2.9016 -0.5616 -1.6187 0.9866
2.9198 -0.4572 -1.6187 0.9866
2.9521 -0.1411 -1.6187 0.9866
2.9501 0.1766 -1.6187 0.9866
2.9299 0.3875 -1.6187 0.9866
2.8946 0.5964 -1.6187 0.9866
2.8138 0.9038 -1.6187 0.9866
2.7796 1.0040 -1.6187 0.9866
1.8027 -2.1473 -1.6187 0.9871
2.1567 -1.7914 -1.6187 0.9871
2.2195 -1.7130 -1.6187 0.9871
2.3365 -1.5496 -1.6187 0.9871
2.3906 -1.4648 -1.6187 0.9871
2.4415 -1.3782 -1.6187 0.9871
2.4894 -1.2898 -1.6187 0.9871
2.6482 -0.9207 -1.6187 0.9871
2.6795 -0.8252 -1.6187 0.9871
2.7317 -0.6311 -1.6187 0.9871
2.7699 -0.4338 -1.6187 0.9871
2.7837 -0.3342 -1.6187 0.9871
2.7938 -0.2342 -1.6187 0.9871
2.8005 -0.1339 -1.6187 0.9871
2.8035 -0.0334 -1.6187 0.9871
2.7909 0.2678 -1.6187 0.9871
2.7795 0.3676 -1.6187 0.9871
2.7645 0.4670 -1.6187 0.9871
2.6984 0.7611 -1.6187 0.9871
2.6369 0.9525 -1.6187 0.9871
