ply
format ascii 1.0
element vertex 450
property float32 x
property float32 y
property float32 z
property float32 I
end_header
-13.0924 18.2681 3.9630 0.9128
-13.5840 15.1482 3.5877 0.9207
-14.0885 14.6051 3.5781 0.9209
-14.2908 11.8963 3.2787 0.9273
-14.7142 11.3685 3.2787 0.9273
-15.1180 10.8256 3.2787 0.9273
-16.9146 8.7171 3.3553 0.9256
-20.8530 9.8036 4.0630 0.9107
-36.0387 13.8407 6.8071 0.8549
-11.4439 24.3167 4.1171 0.8970
-11.8133 22.8997 3.9474 0.9010
-12.1674 21.6175 3.8002 0.9045
-12.4963 20.4257 3.6683 0.9076
-13.0924 18.2681 3.4431 0.9131
-13.0920 16.9308 3.2787 0.9170
-13.9229 15.5261 3.1948 0.9191
-14.1575 14.6764 3.1239 0.9208
-14.3822 13.8625 3.0601 0.9223
-14.5563 13.0426 2.9941 0.9240
-14.7288 12.2610 2.9359 0.9254
-15.5358 9.4961 2.7894 0.9290
-28.4727 12.1414 4.7419 0.8823
-11.8135 22.9002 3.3555 0.9013
-13.6484 16.3820 2.7766 0.9176
-14.8242 14.2886 2.6812 0.9203
-12.6294 9.0435 2.0228 0.9393
-16.1037 9.8433 2.4578 0.9267
-16.2920 9.1613 2.4340 0.9274
-16.9145 8.7171 2.4779 0.9261
-28.4727 12.1414 4.0308 0.8826
-35.0301 13.4534 4.8865 0.8595
-11.0264 25.8291 3.0157 0.8932
-11.8135 22.9002 2.7670 0.9015
-12.4966 20.4261 2.5713 0.9082
-13.9229 15.5261 2.2394 0.9195
-14.9272 12.4261 2.0856 0.9248
-15.1602 10.8558 2.0023 0.9277
-15.3502 10.1679 1.9771 0.9286
-16.2538 9.1399 2.0024 0.9277
-15.3543 7.9130 1.8548 0.9329
-11.0263 25.8290 2.3774 0.8934
-9.5194 20.2273 1.8924 0.9142
-11.8135 22.9002 2.1813 0.9017
-12.4966 20.4261 2.0271 0.9084
-13.0924 18.2681 1.9026 0.9137
-13.6768 16.4161 1.8088 0.9178
-14.8716 14.3343 1.7485 0.9204
-14.9381 12.4352 1.6454 0.9249
-15.3502 10.1679 1.5587 0.9288
-16.0660 9.8202 1.5940 0.9272
-16.2538 9.1399 1.5785 0.9279
-26.6473 11.3630 2.4523 0.8902
-12.4966 20.4261 1.4849 0.9085
-13.0924 18.2681 1.3937 0.9139
-13.4237 17.3597 1.3608 0.9158
-13.9229 15.5261 1.2932 0.9198
-12.0964 10.8385 1.0072 0.9370
-15.3502 10.1679 1.1418 0.9289
-12.7191 7.7745 0.9244 0.9420
-12.8729 7.2387 0.9158 0.9425
-19.0540 8.9579 1.3056 0.9191
-24.8372 10.5911 1.6743 0.8974
-11.0263 25.8288 1.1074 0.8937
-9.3989 19.9713 0.8703 0.9154
-9.6589 18.7235 0.8307 0.9191
-10.0101 17.7847 0.8047 0.9216
-10.5382 15.8954 0.7520 0.9265
-11.1511 13.3846 0.6869 0.9326
-11.6154 12.0412 0.6597 0.9352
-11.8015 11.3751 0.6463 0.9365
-11.9805 10.7347 0.6343 0.9376
-12.1532 10.1169 0.6235 0.9387
-12.4826 8.9384 0.6054 0.9404
-24.8372 10.5911 1.0647 0.8975
-9.0534 21.2075 0.3895 0.9119
-9.6589 18.7235 0.3559 0.9192
-10.2831 16.8080 0.3328 0.9242
-10.5382 15.8954 0.3222 0.9265
-11.0036 14.2301 0.3039 0.9306
-11.8015 11.3751 0.2769 0.9365
-11.9805 10.7347 0.2717 0.9377
-12.1532 10.1169 0.2671 0.9387
-12.4826 8.9384 0.2593 0.9404
-12.8729 7.2387 0.2495 0.9426
-9.0534 21.2075 -0.1298 0.9119
-9.6589 18.7235 -0.1186 0.9192
-10.2831 16.8080 -0.1109 0.9242
-10.5382 15.8954 -0.1074 0.9266
-11.1511 13.3846 -0.0981 0.9327
-11.6154 12.0412 -0.0942 0.9353
-11.8015 11.3751 -0.0923 0.9365
-12.1532 10.1169 -0.0890 0.9387
-12.4826 8.9384 -0.0864 0.9404
-12.6406 8.3731 -0.0854 0.9412
-12.8729 7.2387 -0.0832 0.9426
-22.7645 9.7073 -0.1393 0.9057
-9.0534 21.2075 -0.6493 0.9119
-9.3989 19.9713 -0.6215 0.9155
-10.0101 17.7847 -0.5747 0.9216
-11.1511 13.3846 -0.4905 0.9327
-11.3534 12.6608 -0.4788 0.9342
-11.6154 12.0412 -0.4711 0.9352
-11.8015 11.3751 -0.4615 0.9365
-11.9805 10.7347 -0.4530 0.9377
-12.6406 8.3731 -0.4269 0.9411
-14.3031 7.3713 -0.4531 0.9376
-17.6370 8.2917 -0.5488 0.9250
-23.0645 8.8579 -0.6957 0.9059
-9.0534 21.2075 -1.1694 0.9118
-10.0101 17.7847 -1.0350 0.9215
-10.2831 16.8080 -0.9993 0.9241
-11.0036 14.2300 -0.9123 0.9305
-11.1511 13.3846 -0.8835 0.9326
-11.3534 12.6608 -0.8624 0.9342
-11.6154 12.0412 -0.8485 0.9352
-11.8015 11.3751 -0.8313 0.9365
-11.9805 10.7347 -0.8158 0.9376
-12.1532 10.1169 -0.8019 0.9386
-12.3203 9.5190 -0.7896 0.9395
-12.4826 8.9384 -0.7786 0.9404
-12.6406 8.3731 -0.7689 0.9411
-12.7191 7.7745 -0.7560 0.9420
-12.8728 7.2387 -0.7490 0.9426
-14.3031 7.3713 -0.8160 0.9376
-17.6370 8.2917 -0.9884 0.9249
-23.0646 8.8580 -1.2530 0.9058
-27.9640 7.3643 -1.4665 0.8906
-7.8521 18.3933 -1.4664 0.9229
-8.5161 18.0955 -1.4664 0.9229
-9.1689 17.7737 -1.4664 0.9229
-10.2831 16.8080 -1.4447 0.9240
-10.5381 15.8953 -1.3983 0.9264
-10.7777 15.0384 -1.3566 0.9285
-11.1511 13.3846 -1.2774 0.9325
-11.8015 11.3751 -1.2018 0.9364
-11.9805 10.7347 -1.1795 0.9375
-12.1532 10.1169 -1.1594 0.9385
-12.3203 9.5190 -1.1416 0.9395
-12.4826 8.9384 -1.1257 0.9403
-12.6406 8.3731 -1.1117 0.9410
-18.3973 7.8450 -1.4665 0.9229
-10.5487 4.0513 -0.8285 0.9557
-18.9191 6.4864 -1.4665 0.9229
-19.1427 5.7938 -1.4665 0.9229
-19.3408 5.0934 -1.4665 0.9229
-2.5281 0.5683 -0.1900 0.9897
-9.3434 12.0831 -1.4664 0.9405
-9.7769 11.7351 -1.4664 0.9405
-11.3758 10.1929 -1.4664 0.9405
-12.4187 8.8927 -1.4664 0.9405
-12.6406 8.3731 -1.4556 0.9409
-12.7191 7.7745 -1.4311 0.9419
-12.8728 7.2387 -1.4178 0.9424
-13.5774 6.9972 -1.4664 0.9405
-13.8230 6.4986 -1.4664 0.9405
-14.0503 5.9914 -1.4664 0.9405
-10.5236 4.0416 -1.0823 0.9557
-14.4488 4.9538 -1.4664 0.9405
-2.2384 0.5895 -0.2222 0.9907
-2.2119 0.4972 -0.2176 0.9909
-5.6595 10.9708 -1.4664 0.9515
-6.8212 10.2889 -1.4664 0.9515
-7.9018 9.4844 -1.4664 0.9515
-8.8882 8.5670 -1.4664 0.9515
-10.0369 7.1871 -1.4664 0.9515
-10.2918 6.8172 -1.4664 0.9515
-10.5330 6.4383 -1.4664 0.9515
-10.7603 6.0507 -1.4664 0.9515
-10.9733 5.6552 -1.4664 0.9515
-11.1718 5.2522 -1.4664 0.9515
-11.6776 4.0037 -1.4664 0.9515
-2.0720 0.6271 -0.2571 0.9913
-2.0553 0.5413 -0.2525 0.9915
-4.0632 9.5181 -1.4664 0.9591
-5.0762 9.0187 -1.4664 0.9591
-5.7186 8.6257 -1.4664 0.9591
-6.0286 8.4119 -1.4664 0.9591
-6.3307 8.1870 -1.4664 0.9591
-6.6244 7.9512 -1.4664 0.9591
-7.4514 7.1821 -1.4664 0.9591
-7.7078 6.9063 -1.4664 0.9591
-7.9540 6.6213 -1.4664 0.9591
-8.1896 6.3275 -1.4664 0.9591
-8.4144 6.0253 -1.4664 0.9591
-8.6281 5.7152 -1.4664 0.9591
-8.8303 5.3975 -1.4664 0.9591
-9.5199 4.0595 -1.4664 0.9591
-1.9767 0.6777 -0.2961 0.9916
-3.4947 8.1863 -1.4663 0.9646
-5.1851 7.2349 -1.4664 0.9646
-6.1798 6.4063 -1.4664 0.9646
-6.4088 6.1772 -1.4664 0.9646
-7.2371 5.1822 -1.4664 0.9646
-7.4208 4.9155 -1.4664 0.9646
-7.5948 4.6422 -1.4664 0.9646
-7.9122 4.0777 -1.4664 0.9646
-1.8756 0.6430 -0.3266 0.9920
-1.8644 0.5643 -0.3209 0.9921
-1.8449 0.4147 -0.3115 0.9924
-3.0629 7.1749 -1.4663 0.9687
-3.5766 6.9332 -1.4663 0.9687
-4.3108 6.5022 -1.4663 0.9687
-4.5445 6.3411 -1.4664 0.9687
-4.7722 6.1715 -1.4664 0.9687
-4.9936 5.9938 -1.4664 0.9687
-5.2084 5.8081 -1.4664 0.9687
-5.6170 5.4140 -1.4664 0.9687
-5.9958 4.9912 -1.4664 0.9687
-6.1735 4.7698 -1.4664 0.9687
-6.5040 4.3082 -1.4664 0.9687
-6.6564 4.0687 -1.4664 0.9687
-6.9347 3.5739 -1.4664 0.9687
-7.4177 3.1631 -1.5157 0.9677
-1.7697 0.4661 -0.3440 0.9926
-1.7619 0.3961 -0.3394 0.9927
-3.1803 6.1650 -1.4663 0.9720
-3.4025 6.0452 -1.4663 0.9720
-3.6202 5.9174 -1.4663 0.9720
-3.8332 5.7818 -1.4663 0.9720
-4.0410 5.6385 -1.4663 0.9720
-4.2435 5.4877 -1.4663 0.9720
-4.9946 4.8142 -1.4664 0.9720
-5.1665 4.6293 -1.4664 0.9720
-5.3315 4.4382 -1.4664 0.9720
-5.7834 3.8309 -1.4664 0.9720
-5.9189 3.6179 -1.4664 0.9720
-6.0531 3.4037 -1.4679 0.9720
-6.4349 3.3163 -1.5302 0.9708
-6.8665 3.2281 -1.6038 0.9695
-7.0263 2.9962 -1.6146 0.9693
-1.6976 0.5138 -0.3749 0.9928
-1.6919 0.4455 -0.3698 0.9929
-2.6568 5.6452 -1.4663 0.9747
-2.8604 5.5448 -1.4663 0.9747
-3.0602 5.4371 -1.4663 0.9747
-3.8166 4.9357 -1.4663 0.9747
-4.3316 4.4904 -1.4663 0.9747
-4.7952 3.9917 -1.4664 0.9747
-4.9372 3.8146 -1.4664 0.9747
-5.0727 3.6324 -1.4664 0.9747
-5.3251 3.5273 -1.5012 0.9741
-5.6538 3.4558 -1.5573 0.9731
-6.1071 3.1474 -1.6147 0.9722
-6.2302 2.9290 -1.6180 0.9721
-1.6311 0.6264 -0.4107 0.9928
-1.6199 0.4266 -0.3937 0.9931
-2.4116 5.1242 -1.4663 0.9769
-2.5964 5.0331 -1.4663 0.9769
-2.9555 4.8309 -1.4663 0.9769
-3.1294 4.7202 -1.4663 0.9769
-3.2991 4.6032 -1.4663 0.9769
-3.4643 4.4802 -1.4663 0.9769
-3.9319 4.0760 -1.4663 0.9769
-4.0776 3.9302 -1.4663 0.9769
-4.2231 3.7839 -1.4682 0.9768
-4.4663 3.7179 -1.5046 0.9763
-4.7267 3.6519 -1.5465 0.9756
-5.3232 3.2538 -1.6154 0.9746
-5.4475 3.0632 -1.6181 0.9745
-5.5574 2.8641 -1.6188 0.9745
-1.5656 0.6013 -0.4342 0.9931
-1.5609 0.5352 -0.4272 0.9932
-1.5532 0.4090 -0.4159 0.9934
-2.3747 4.6033 -1.4663 0.9787
-2.5406 4.5138 -1.4663 0.9787
-2.7032 4.4184 -1.4663 0.9787
-2.8621 4.3171 -1.4663 0.9787
-3.0173 4.2101 -1.4663 0.9787
-3.1685 4.0976 -1.4663 0.9787
-3.3323 3.9997 -1.4738 0.9786
-3.5349 3.9420 -1.4989 0.9782
-3.7445 3.8818 -1.5269 0.9778
-3.9632 3.8200 -1.5583 0.9774
-4.3773 3.6439 -1.6123 0.9766
-5.0828 2.6195 -1.6188 0.9765
-1.5125 0.7111 -0.4731 0.9931
-1.5104 0.6441 -0.4649 0.9932
-1.5076 0.5790 -0.4572 0.9933
-1.5039 0.5156 -0.4501 0.9934
-1.4996 0.4539 -0.4435 0.9935
-1.4946 0.3936 -0.4375 0.9936
-1.4947 0.3360 -0.4337 0.9937
-1.8809 4.4060 -1.4735 0.9802
-2.0490 4.3539 -1.4800 0.9801
-2.2188 4.3012 -1.4886 0.9799
-2.3907 4.2475 -1.4992 0.9798
-2.5652 4.1930 -1.5119 0.9796
-2.9315 4.0904 -1.5478 0.9792
-3.4981 3.9009 -1.6116 0.9783
-3.6410 3.7745 -1.6131 0.9783
-4.0434 3.3659 -1.6182 0.9782
-4.3876 2.9063 -1.6187 0.9782
-1.4978 0.9155 -0.5399 0.9927
-1.6015 0.9006 -0.5651 0.9923
-1.4549 0.6204 -0.4865 0.9934
-1.4469 0.4379 -0.4650 0.9937
-1.4439 0.3802 -0.4592 0.9938
-1.8726 4.3865 -1.5854 0.9801
-2.2091 4.2822 -1.6017 0.9799
-2.5306 4.1364 -1.6119 0.9798
-2.6809 4.0438 -1.6128 0.9798
-2.8280 3.9460 -1.6137 0.9797
-2.9717 3.8430 -1.6148 0.9797
-3.2482 3.6222 -1.6172 0.9797
-3.3807 3.5046 -1.6186 0.9797
-3.5062 3.3795 -1.6187 0.9797
-3.7427 3.1156 -1.6187 0.9797
-3.9594 2.8352 -1.6187 0.9797
-4.0599 2.6893 -1.6187 0.9797
-1.4027 0.6595 -0.5152 0.9935
-1.3998 0.4799 -0.4919 0.9938
-1.3976 0.4230 -0.4854 0.9939
-1.3967 0.3678 -0.4801 0.9939
-1.3984 0.3144 -0.4764 0.9940
-1.7734 4.1542 -1.6153 0.9810
-2.2173 3.9395 -1.6166 0.9810
-2.3601 3.8577 -1.6172 0.9810
-2.5001 3.7711 -1.6180 0.9810
-3.0220 3.3701 -1.6187 0.9810
-3.1426 3.2579 -1.6187 0.9810
-3.6803 2.6354 -1.6187 0.9810
-1.4956 0.9142 -0.6268 0.9926
-1.3483 0.7582 -0.5532 0.9935
-1.3509 0.6962 -0.5435 0.9936
-1.3525 0.6359 -0.5345 0.9937
-1.3531 0.5197 -0.5183 0.9939
-1.3524 0.4637 -0.5113 0.9939
-1.3538 0.3043 -0.4962 0.9941
-1.7987 3.8220 -1.6187 0.9821
-1.9366 3.7540 -1.6187 0.9821
-2.2044 3.6032 -1.6187 0.9821
-2.7038 3.2453 -1.6187 0.9821
-2.8201 3.1448 -1.6187 0.9821
-2.9326 3.0401 -1.6187 0.9821
-3.0413 2.9314 -1.6187 0.9821
-3.1459 2.8188 -1.6187 0.9821
-3.2464 2.7025 -1.6187 0.9821
-3.3426 2.5826 -1.6187 0.9821
-3.4344 2.4592 -1.6187 0.9821
-3.6041 2.2030 -1.6187 0.9821
-1.2994 0.7307 -0.5713 0.9936
-1.3028 0.6714 -0.5616 0.9937
-1.3051 0.6136 -0.5526 0.9938
-1.3066 0.5572 -0.5443 0.9939
-1.3075 0.5021 -0.5367 0.9940
-1.3065 0.3954 -0.5231 0.9942
-1.3113 0.2948 -0.5151 0.9943
-1.6842 3.5786 -1.6187 0.9831
-1.8133 3.5150 -1.6187 0.9831
-1.9400 3.4467 -1.6187 0.9831
-2.8477 2.7448 -1.6187 0.9831
-2.9457 2.6394 -1.6187 0.9831
-3.0397 2.5304 -1.6187 0.9831
-3.1298 2.4182 -1.6187 0.9831
-3.2157 2.3027 -1.6187 0.9831
-1.2482 0.7629 -0.5987 0.9937
-1.2571 0.6479 -0.5788 0.9939
-1.2646 0.4336 -0.5471 0.9942
-1.2649 0.3828 -0.5409 0.9943
-1.2707 0.2856 -0.5331 0.9944
-1.5816 3.3607 -1.6187 0.9839
-1.7028 3.3009 -1.6187 0.9839
-1.8218 3.2368 -1.6187 0.9839
-1.9384 3.1683 -1.6187 0.9839
-2.0524 3.0957 -1.6187 0.9839
-2.1636 3.0190 -1.6187 0.9839
-2.6742 2.5776 -1.6187 0.9839
-2.7663 2.4786 -1.6187 0.9839
-2.8546 2.3763 -1.6187 0.9839
-2.9392 2.2709 -1.6187 0.9839
-3.0966 2.0511 -1.6187 0.9839
-1.2142 0.6258 -0.5953 0.9941
-1.2180 0.5726 -0.5866 0.9941
-1.2209 0.5206 -0.5784 0.9942
-1.2228 0.4696 -0.5709 0.9943
-1.2257 0.3710 -0.5581 0.9944
-1.3730 3.2162 -1.6187 0.9847
-1.6032 3.1079 -1.6187 0.9847
-1.9323 2.9147 -1.6187 0.9847
-2.2384 2.6868 -1.6187 0.9847
-2.3347 2.6036 -1.6187 0.9847
-2.5179 2.4269 -1.6187 0.9847
-2.6045 2.3337 -1.6187 0.9847
-1.1544 0.7646 -0.6409 0.9939
-1.1734 0.6047 -0.6110 0.9942
-1.1947 0.2685 -0.5668 0.9946
-1.4052 2.9859 -1.6187 0.9854
-1.5129 2.9327 -1.6187 0.9854
-1.6186 2.8758 -1.6187 0.9854
-1.7222 2.8150 -1.6187 0.9854
-1.8235 2.7505 -1.6187 0.9854
-1.9223 2.6823 -1.6187 0.9854
-2.2031 2.4569 -1.6187 0.9854
-2.2911 2.3751 -1.6187 0.9854
-2.3760 2.2901 -1.6187 0.9854
-2.4577 2.2022 -1.6187 0.9854
-1.1273 0.8072 -0.6801 0.9938
-1.1429 0.4874 -0.6095 0.9945
-1.1559 0.3044 -0.5863 0.9947
-1.1583 0.2604 -0.5824 0.9947
-1.3287 2.8232 -1.6187 0.9860
-1.5305 2.7192 -1.6187 0.9860
-1.6284 2.6617 -1.6187 0.9860
-1.7241 2.6006 -1.6187 0.9860
-1.8176 2.5362 -1.6187 0.9860
-1.9973 2.3973 -1.6187 0.9860
-2.1663 2.2457 -1.6187 0.9860
-2.2466 2.1654 -1.6187 0.9860
-2.3239 2.0822 -1.6187 0.9860
-2.3981 1.9963 -1.6187 0.9860
-1.0719 0.7100 -0.6670 0.9942
-1.0841 0.6627 -0.6592 0.9943
-1.0973 0.5655 -0.6404 0.9945
-1.1024 0.5183 -0.6319 0.9945
-1.1064 0.4718 -0.6240 0.9946
-1.1095 0.4261 -0.6166 0.9947
-1.1126 0.3815 -0.6102 0.9947
-1.1174 0.3382 -0.6057 0.9948
-1.2585 2.6741 -1.6187 0.9866
-1.6331 2.4633 -1.6187 0.9866
-1.7216 2.4023 -1.6187 0.9866
-1.8918 2.2707 -1.6187 0.9866
-2.1279 2.0510 -1.6187 0.9866
-2.2011 1.9723 -1.6187 0.9866
-0.9942 0.8276 -0.7085 0.9941
-0.9813 0.7582 -0.6792 0.9944
-1.0024 0.7178 -0.6753 0.9944
-1.0403 0.6359 -0.6678 0.9945
-1.0554 0.5934 -0.6631 0.9945
-1.0851 0.2858 -0.6146 0.9949
-1.0851 0.2439 -0.6092 0.9949
-1.1939 2.5368 -1.6187 0.9871
-1.2854 2.4917 -1.6187 0.9871
-1.3752 2.4433 -1.6187 0.9871
-1.4632 2.3916 -1.6187 0.9871
-1.5492 2.3368 -1.6187 0.9871
-1.6332 2.2789 -1.6187 0.9871
-1.7151 2.2180 -1.6187 0.9871
-1.7946 2.1541 -1.6187 0.9871
-1.8718 2.0874 -1.6187 0.9871
-0.9281 0.8316 -0.7195 0.9943
-0.9145 0.7613 -0.6870 0.9945
-0.9362 0.7233 -0.6830 0.9946
-0.9565 0.6849 -0.6792 0.9946
-0.9755 0.6462 -0.6756 0.9946
-0.9932 0.6071 -0.6721 0.9946
-1.0095 0.5677 -0.6687 0.9947
-1.0331 0.4857 -0.6591 0.9947
-1.0492 0.3176 -0.6329 0.9949
-1.0504 0.2766 -0.6271 0.9950
