ply
format ascii 1.0
element vertex 521
property float32 x
property float32 y
property float32 z
property float32 I
end_header
-16.9122 -39.4812 7.5734 0.8399
-15.4327 -39.8896 7.5417 0.8405
-13.1307 -42.7476 7.8851 0.8339
-11.6094 -43.2132 7.8898 0.8338
-10.0961 -43.7311 7.9138 0.8334
-5.1658 -42.7698 7.5963 0.8395
-18.4669 -39.1977 6.6379 0.8392
-15.4327 -39.8896 6.5523 0.8411
-13.1308 -42.7476 6.8507 0.8345
-8.1177 -41.9091 6.5396 0.8414
-5.1775 -42.8667 6.6147 0.8397
-0.5941 -43.9863 6.7391 0.8369
5.9043 -45.6045 7.0447 0.8302
-16.8529 -39.3425 5.5735 0.8414
-15.3785 -39.7496 5.5501 0.8420
-12.4575 -40.5560 5.5248 0.8427
-9.5485 -41.3591 5.5275 0.8426
-8.0891 -41.7620 5.5394 0.8423
-5.1457 -42.6037 5.5882 0.8411
-3.6515 -43.0423 5.6251 0.8401
-2.1330 -43.4354 5.6630 0.8391
4.2181 -45.1333 5.9029 0.8329
7.6423 -46.0903 6.0839 0.8282
9.4390 -46.5925 6.1906 0.8255
11.3022 -47.1132 6.3092 0.8225
6.5287 -23.4974 3.1758 0.9063
-18.4251 -39.1090 4.6423 0.8404
-16.9122 -39.4811 4.6121 0.8413
-15.4327 -39.8896 4.5928 0.8419
-13.9637 -40.2951 4.5794 0.8423
-12.5143 -40.7408 4.5766 0.8424
-11.0694 -41.2033 4.5814 0.8423
-9.5821 -41.5048 4.5741 0.8425
-8.1176 -41.9090 4.5839 0.8422
-1.0764 -21.9180 2.3564 0.9155
-0.5941 -43.9851 4.7236 0.8378
2.5871 -44.8464 4.8237 0.8347
5.9043 -45.6045 4.9380 0.8311
7.6423 -46.0903 5.0168 0.8287
11.3023 -47.1133 5.2026 0.8229
12.4396 -44.7712 4.9897 0.8295
15.8266 -44.4385 5.0655 0.8271
-18.3830 -39.0196 3.6513 0.8410
-15.2484 -39.4133 3.5774 0.8440
-13.9462 -40.2445 3.6056 0.8428
-12.4215 -40.4387 3.5811 0.8438
-6.6365 -42.2615 3.6214 0.8422
-5.1538 -42.6708 3.6385 0.8415
-3.6552 -43.0846 3.6603 0.8407
-2.1338 -43.4504 3.6826 0.8398
5.9043 -45.6045 3.8928 0.8314
7.6423 -46.0903 3.9549 0.8290
9.4390 -46.5925 4.0243 0.8263
16.9656 -42.7611 3.8943 0.8314
18.9977 -43.3221 4.0045 0.8270
21.3354 -44.2995 4.1623 0.8209
-16.9122 -39.4811 2.6634 0.8419
-15.2842 -39.5056 2.6267 0.8439
-11.0694 -41.2033 2.6456 0.8428
-9.5821 -41.5048 2.6414 0.8431
-8.1176 -41.9090 2.6471 0.8428
-6.6517 -42.3583 2.6588 0.8421
-3.6597 -43.1387 2.6847 0.8407
4.2181 -45.1333 2.8109 0.8339
5.9043 -45.6045 2.8516 0.8317
7.6423 -46.0903 2.8971 0.8292
16.0781 -40.5243 2.7035 0.8397
20.2290 -42.0022 2.8909 0.8296
-12.4251 -40.4504 1.6686 0.8442
-11.0694 -41.2033 1.6823 0.8430
-8.1176 -41.9090 1.6832 0.8429
2.5871 -44.8465 1.7712 0.8354
4.2181 -45.1332 1.7874 0.8341
13.2469 -41.8470 1.7308 0.8389
17.1758 -39.1674 1.6864 0.8426
19.1226 -39.7049 1.7377 0.8383
21.1942 -40.2769 1.7946 0.8334
-16.4944 -35.0109 0.6537 0.8566
-11.6884 -38.0518 0.6724 0.8528
-11.0694 -41.2033 0.7207 0.8431
-6.6518 -42.3583 0.7243 0.8424
-3.6597 -43.1387 0.7313 0.8410
-0.5940 -43.9851 0.7431 0.8386
2.5871 -44.8465 0.7587 0.8355
5.9043 -45.6045 0.7768 0.8320
7.6423 -46.0903 0.7892 0.8295
11.3023 -47.1133 0.8184 0.8238
13.9704 -39.2265 0.7034 0.8466
14.6240 -36.8591 0.6698 0.8533
16.3476 -37.2790 0.6876 0.8497
20.1723 -38.3349 0.7317 0.8409
24.5452 -39.5421 0.7862 0.8301
-16.4944 -35.0109 -0.2179 0.8566
-15.2842 -39.5056 -0.2385 0.8441
-11.7519 -38.2588 -0.2253 0.8521
-11.0694 -41.2033 -0.2402 0.8431
-3.6826 -15.9510 -0.0922 0.9366
-8.1176 -41.9090 -0.2403 0.8430
-6.6668 -42.4543 -0.2420 0.8421
-5.1704 -42.8082 -0.2428 0.8416
-0.5940 -43.9851 -0.2477 0.8387
5.9044 -45.6045 -0.2589 0.8320
7.6423 -46.0903 -0.2630 0.8295
9.4390 -46.5925 -0.2677 0.8268
11.3022 -47.1132 -0.2728 0.8238
12.4396 -44.7713 -0.2616 0.8304
13.9704 -39.2265 -0.2344 0.8466
14.6240 -36.8591 -0.2233 0.8533
15.5196 -35.3905 -0.2176 0.8568
21.1517 -36.9454 -0.2397 0.8434
23.3018 -37.5390 -0.2488 0.8380
28.1469 -38.8766 -0.2702 0.8253
-6.6095 -14.0294 -0.4367 0.9398
-6.1106 -14.2652 -0.4370 0.9398
-15.2842 -39.5056 -1.1927 0.8441
-14.0098 -40.4281 -1.2048 0.8426
-7.9502 -25.8822 -0.7624 0.8973
-11.0421 -41.1017 -1.1984 0.8434
-3.6796 -15.9382 -0.4606 0.9366
-8.1176 -41.9090 -1.2020 0.8430
-2.1014 -13.3817 -0.3814 0.9472
-1.6008 -13.2545 -0.3759 0.9480
-2.1391 -43.5585 -1.2280 0.8399
-0.5940 -43.9851 -1.2386 0.8386
2.5871 -44.8466 -1.2649 0.8355
5.9043 -45.6045 -1.2948 0.8319
7.6423 -46.0903 -1.3155 0.8295
9.4390 -46.5924 -1.3386 0.8268
11.3022 -47.1132 -1.3643 0.8238
13.2469 -41.8470 -1.2360 0.8389
13.9704 -39.2265 -1.1725 0.8465
14.6240 -36.8592 -1.1166 0.8533
16.5410 -34.3446 -1.0734 0.8585
20.2487 -35.3682 -1.1476 0.8495
22.3060 -35.9347 -1.1909 0.8443
24.2568 -36.1428 -1.2257 0.8401
26.6449 -36.8021 -1.2794 0.8338
29.2554 -37.5228 -1.3397 0.8266
-6.4979 -13.7924 -0.7732 0.9408
-5.9102 -13.7972 -0.7612 0.9417
-5.4869 -14.1822 -0.7712 0.9409
-7.9509 -25.8846 -1.3732 0.8972
-3.7288 -13.8797 -0.7289 0.9441
-3.1635 -13.7025 -0.7132 0.9452
-2.0763 -13.2218 -0.6787 0.9478
-1.5819 -13.0973 -0.6690 0.9485
-1.1006 -12.9727 -0.6603 0.9492
-0.6479 -13.1935 -0.6699 0.9485
-0.1943 -14.3851 -0.7296 0.9440
0.6556 -29.7136 -1.5073 0.8878
1.7097 -29.6381 -1.5056 0.8879
2.7600 -29.5315 -1.5042 0.8880
4.8561 -29.2869 -1.5055 0.8879
6.9147 -28.8247 -1.5033 0.8881
7.9285 -28.5360 -1.5020 0.8881
8.9314 -28.2140 -1.5008 0.8882
9.9308 -27.8840 -1.5011 0.8882
12.8191 -26.6218 -1.4986 0.8884
13.7602 -26.1496 -1.4986 0.8884
16.4391 -24.4946 -1.4960 0.8886
17.2978 -23.8918 -1.4959 0.8886
18.1185 -23.2387 -1.4944 0.8887
-5.9035 -13.7817 -1.0993 0.9416
-6.5480 -18.8956 -1.4663 0.9229
-3.0929 -13.3971 -1.0081 0.9463
-0.1704 -12.6170 -0.9252 0.9507
0.3006 -13.6261 -0.9993 0.9468
1.1517 -19.9639 -1.4662 0.9229
1.8608 -19.9102 -1.4662 0.9229
2.5675 -19.8314 -1.4662 0.9229
3.9704 -19.5986 -1.4662 0.9229
4.6647 -19.4449 -1.4662 0.9229
6.0348 -19.0641 -1.4662 0.9229
7.3744 -18.5868 -1.4662 0.9229
8.6766 -18.0156 -1.4662 0.9229
9.3117 -17.6957 -1.4662 0.9229
10.5457 -16.9890 -1.4661 0.9229
11.1431 -16.6032 -1.4661 0.9229
11.7263 -16.1965 -1.4661 0.9229
12.2948 -15.7692 -1.4661 0.9229
-6.5702 -13.9459 -1.4800 0.9399
-6.6306 -15.4791 -1.6167 0.9346
-4.7843 -15.5756 -1.5643 0.9366
-2.0741 -13.2081 -1.2836 0.9477
-1.5797 -13.0795 -1.2648 0.9484
-1.0930 -12.8838 -1.2413 0.9494
-0.6267 -12.7626 -1.2267 0.9499
0.3369 -15.2688 -1.4662 0.9405
3.5627 -14.8509 -1.4662 0.9405
4.0885 -14.7148 -1.4662 0.9405
6.1333 -13.9863 -1.4662 0.9405
7.1118 -13.5150 -1.4662 0.9405
8.0543 -12.9753 -1.4662 0.9405
8.5105 -12.6807 -1.4662 0.9405
9.3901 -12.0437 -1.4662 0.9405
-5.8077 -12.3274 -1.6187 0.9466
-4.0012 -13.0262 -1.6187 0.9466
-3.5355 -13.1602 -1.6187 0.9466
-2.5913 -13.3781 -1.6187 0.9466
-2.1140 -13.4617 -1.6187 0.9466
0.3006 -13.6232 -1.6186 0.9466
0.7848 -13.6039 -1.6186 0.9466
1.2680 -13.5674 -1.6186 0.9466
2.7056 -13.3551 -1.6186 0.9466
3.1787 -13.2504 -1.6186 0.9466
3.6478 -13.1290 -1.6186 0.9466
4.1123 -12.9909 -1.6186 0.9466
5.0252 -12.6657 -1.6186 0.9466
7.1862 -11.5770 -1.6186 0.9466
7.5933 -11.3141 -1.6186 0.9466
7.9908 -11.0370 -1.6186 0.9466
8.3782 -10.7458 -1.6186 0.9466
-4.8689 -10.3348 -1.6187 0.9549
-3.7406 -10.7944 -1.6187 0.9549
-3.3545 -10.9206 -1.6187 0.9549
-2.5698 -11.1313 -1.6187 0.9549
-1.3698 -11.3416 -1.6187 0.9549
-0.5603 -11.4102 -1.6187 0.9549
-0.1543 -11.4229 -1.6186 0.9549
0.2520 -11.4211 -1.6186 0.9549
0.6579 -11.4049 -1.6186 0.9549
2.2682 -11.1964 -1.6186 0.9549
2.6649 -11.1086 -1.6186 0.9549
4.2129 -10.6185 -1.6186 0.9549
4.9569 -10.2921 -1.6186 0.9549
5.3197 -10.1094 -1.6186 0.9549
6.0247 -9.7057 -1.6186 0.9549
6.6992 -9.2530 -1.6186 0.9549
-4.1876 -8.8887 -1.6187 0.9610
-3.5453 -9.1638 -1.6187 0.9610
-3.2173 -9.2841 -1.6187 0.9610
-2.8851 -9.3926 -1.6187 0.9610
-2.2103 -9.5738 -1.6187 0.9610
-1.8685 -9.6463 -1.6187 0.9610
-0.8306 -9.7904 -1.6187 0.9610
-0.4819 -9.8137 -1.6187 0.9610
-0.1327 -9.8246 -1.6186 0.9610
0.9143 -9.7829 -1.6186 0.9610
1.2616 -9.7441 -1.6186 0.9610
1.6072 -9.6931 -1.6186 0.9610
1.9509 -9.6298 -1.6186 0.9610
2.2920 -9.5543 -1.6186 0.9610
2.9653 -9.3673 -1.6186 0.9610
3.9459 -8.9981 -1.6186 0.9610
4.2633 -8.8521 -1.6186 0.9610
4.5754 -8.6950 -1.6186 0.9610
5.1817 -8.3478 -1.6186 0.9610
5.4753 -8.1582 -1.6186 0.9610
5.7619 -7.9584 -1.6186 0.9610
-3.3910 -7.9161 -1.6187 0.9656
-3.1073 -8.0317 -1.6187 0.9656
-1.9372 -8.3910 -1.6187 0.9656
-0.7280 -8.5808 -1.6187 0.9656
-0.4224 -8.6013 -1.6187 0.9656
-0.1163 -8.6109 -1.6186 0.9656
0.8013 -8.5742 -1.6186 0.9656
1.1057 -8.5403 -1.6186 0.9656
1.7099 -8.4401 -1.6186 0.9656
2.8892 -8.1124 -1.6186 0.9656
3.1758 -8.0045 -1.6186 0.9656
4.0101 -7.6208 -1.6186 0.9656
5.2949 -6.7912 -1.6186 0.9656
-3.0152 -7.0391 -1.6187 0.9692
-2.5074 -7.2355 -1.6187 0.9692
-1.4562 -7.5179 -1.6187 0.9692
-0.9182 -7.6023 -1.6187 0.9692
-0.6473 -7.6302 -1.6187 0.9692
0.4410 -7.6448 -1.6186 0.9692
0.7125 -7.6243 -1.6186 0.9692
0.9832 -7.5941 -1.6186 0.9692
1.2526 -7.5544 -1.6186 0.9692
2.0499 -7.3780 -1.6186 0.9692
2.3110 -7.3004 -1.6186 0.9692
2.5691 -7.2136 -1.6186 0.9692
2.8240 -7.1177 -1.6186 0.9692
3.0753 -7.0128 -1.6186 0.9692
3.8046 -6.6454 -1.6186 0.9692
4.0384 -6.5059 -1.6186 0.9692
4.2672 -6.3582 -1.6186 0.9692
4.4906 -6.2024 -1.6186 0.9692
4.7083 -6.0388 -1.6186 0.9692
-2.9353 -6.2305 -1.6187 0.9721
-2.7119 -6.3309 -1.6187 0.9721
-2.0223 -6.5837 -1.6187 0.9721
-1.7869 -6.6514 -1.6187 0.9721
-1.5493 -6.7108 -1.6187 0.9721
-0.5822 -6.8626 -1.6187 0.9721
1.1266 -6.7944 -1.6186 0.9721
1.3675 -6.7500 -1.6186 0.9721
1.8437 -6.6358 -1.6186 0.9721
2.7659 -6.3073 -1.6186 0.9721
2.9884 -6.2050 -1.6186 0.9721
3.8379 -5.7186 -1.6186 0.9721
4.0388 -5.5785 -1.6186 0.9721
4.2346 -5.4313 -1.6186 0.9721
-2.6644 -5.6555 -1.6187 0.9745
-1.8357 -5.9761 -1.6187 0.9745
-1.4063 -6.0914 -1.6187 0.9745
-1.1888 -6.1376 -1.6187 0.9745
-0.3066 -6.2441 -1.6187 0.9745
-0.0844 -6.2510 -1.6187 0.9745
0.1379 -6.2501 -1.6186 0.9745
0.3600 -6.2412 -1.6186 0.9745
0.8027 -6.1998 -1.6186 0.9745
1.0226 -6.1674 -1.6186 0.9745
1.4583 -6.0791 -1.6186 0.9745
1.6736 -6.0234 -1.6186 0.9745
2.0974 -5.8892 -1.6186 0.9745
2.5106 -5.7252 -1.6186 0.9745
2.9112 -5.5323 -1.6186 0.9745
3.4837 -5.1908 -1.6186 0.9745
-2.4369 -5.1725 -1.6187 0.9765
-2.2514 -5.2559 -1.6187 0.9765
-2.0631 -5.3326 -1.6187 0.9765
-1.2862 -5.5713 -1.6187 0.9765
-0.8870 -5.6486 -1.6187 0.9765
-0.6856 -5.6765 -1.6187 0.9765
-0.4833 -5.6973 -1.6187 0.9765
0.1261 -5.7164 -1.6187 0.9765
0.5321 -5.6929 -1.6186 0.9765
0.7341 -5.6704 -1.6186 0.9765
0.9353 -5.6407 -1.6186 0.9765
2.2962 -5.2363 -1.6186 0.9765
3.0154 -4.8578 -1.6186 0.9765
3.1863 -4.7476 -1.6186 0.9765
3.5156 -4.5091 -1.6186 0.9765
-2.2429 -4.7608 -1.6187 0.9782
-1.5453 -5.0306 -1.6187 0.9782
-1.0007 -5.1666 -1.6187 0.9782
-0.4449 -5.2438 -1.6187 0.9782
-0.2581 -5.2563 -1.6187 0.9782
-0.0711 -5.2621 -1.6187 0.9782
0.4897 -5.2397 -1.6186 0.9782
0.6757 -5.2190 -1.6186 0.9782
0.8608 -5.1917 -1.6186 0.9782
1.0449 -5.1578 -1.6186 0.9782
1.4088 -5.0705 -1.6186 0.9782
1.5882 -5.0172 -1.6186 0.9782
1.7656 -4.9575 -1.6186 0.9782
2.2835 -4.7413 -1.6186 0.9782
2.4506 -4.6571 -1.6186 0.9782
2.9326 -4.3696 -1.6186 0.9782
3.0861 -4.2626 -1.6186 0.9782
3.2357 -4.1502 -1.6186 0.9782
-2.0754 -4.4052 -1.6187 0.9797
-1.9174 -4.4762 -1.6187 0.9797
-1.7571 -4.5415 -1.6187 0.9797
-1.0954 -4.7447 -1.6187 0.9797
-0.5839 -4.8344 -1.6187 0.9797
-0.4116 -4.8521 -1.6187 0.9797
-0.2388 -4.8637 -1.6187 0.9797
0.1074 -4.8683 -1.6187 0.9797
0.2804 -4.8614 -1.6186 0.9797
0.9669 -4.7726 -1.6186 0.9797
1.1360 -4.7351 -1.6186 0.9797
1.7958 -4.5262 -1.6186 0.9797
2.2676 -4.3093 -1.6186 0.9797
2.4194 -4.2259 -1.6186 0.9797
2.5681 -4.1372 -1.6186 0.9797
2.8557 -3.9442 -1.6186 0.9797
-1.9291 -4.0947 -1.6187 0.9810
-1.7823 -4.1607 -1.6187 0.9810
-1.4821 -4.2769 -1.6187 0.9810
-1.3291 -4.3269 -1.6187 0.9810
-1.0182 -4.4104 -1.6187 0.9810
-0.8608 -4.4438 -1.6187 0.9810
-0.2220 -4.5209 -1.6187 0.9810
-0.0611 -4.5259 -1.6187 0.9810
0.2607 -4.5188 -1.6187 0.9810
0.4212 -4.5067 -1.6186 0.9810
0.5812 -4.4889 -1.6186 0.9810
0.8987 -4.4362 -1.6186 0.9810
1.2117 -4.3611 -1.6186 0.9810
1.3660 -4.3153 -1.6186 0.9810
1.5186 -4.2640 -1.6186 0.9810
1.6692 -4.2073 -1.6186 0.9810
1.9640 -4.0780 -1.6186 0.9810
2.1078 -4.0056 -1.6186 0.9810
2.2489 -3.9281 -1.6186 0.9810
2.3871 -3.8456 -1.6186 0.9810
2.6544 -3.6663 -1.6186 0.9810
2.7831 -3.5696 -1.6186 0.9810
-1.8002 -3.8211 -1.6187 0.9821
-1.5241 -3.9394 -1.6187 0.9821
-1.3830 -3.9910 -1.6187 0.9821
-0.9502 -4.1156 -1.6187 0.9821
-0.8032 -4.1468 -1.6187 0.9821
-0.5065 -4.1934 -1.6187 0.9821
-0.0570 -4.2235 -1.6187 0.9821
0.0932 -4.2228 -1.6187 0.9821
0.3930 -4.2055 -1.6186 0.9821
0.6909 -4.1670 -1.6186 0.9821
0.8387 -4.1397 -1.6186 0.9821
0.9853 -4.1073 -1.6186 0.9821
1.2747 -4.0269 -1.6186 0.9821
2.0986 -3.6656 -1.6186 0.9821
2.2276 -3.5887 -1.6186 0.9821
2.3538 -3.5072 -1.6186 0.9821
2.5971 -3.3310 -1.6186 0.9821
-1.6856 -3.5778 -1.6187 0.9831
-1.5573 -3.6355 -1.6187 0.9831
-1.2950 -3.7369 -1.6187 0.9831
-1.1613 -3.7806 -1.6187 0.9831
-0.6136 -3.9071 -1.6187 0.9831
-0.4743 -3.9264 -1.6187 0.9831
-0.3343 -3.9408 -1.6187 0.9831
-0.1940 -3.9502 -1.6187 0.9831
0.2278 -3.9484 -1.6187 0.9831
0.3680 -3.9378 -1.6187 0.9831
0.6469 -3.9017 -1.6186 0.9831
0.7853 -3.8762 -1.6186 0.9831
0.9226 -3.8458 -1.6186 0.9831
1.0588 -3.8106 -1.6186 0.9831
1.1936 -3.7705 -1.6186 0.9831
1.5883 -3.6220 -1.6186 0.9831
1.8417 -3.4999 -1.6186 0.9831
1.9650 -3.4322 -1.6186 0.9831
2.0858 -3.3602 -1.6186 0.9831
2.3193 -3.2034 -1.6186 0.9831
2.4317 -3.1189 -1.6186 0.9831
-1.5829 -3.3599 -1.6187 0.9839
-1.4624 -3.4141 -1.6187 0.9839
-1.3401 -3.4639 -1.6187 0.9839
-1.2161 -3.5094 -1.6187 0.9839
-0.8355 -3.6189 -1.6187 0.9839
-0.3139 -3.7008 -1.6187 0.9839
0.0819 -3.7132 -1.6187 0.9839
0.4769 -3.6833 -1.6186 0.9839
0.6075 -3.6640 -1.6186 0.9839
0.7374 -3.6401 -1.6186 0.9839
1.2461 -3.4988 -1.6186 0.9839
1.6116 -3.3462 -1.6186 0.9839
1.8453 -3.2232 -1.6186 0.9839
1.9587 -3.1555 -1.6186 0.9839
2.1781 -3.0083 -1.6186 0.9839
-1.4904 -3.1634 -1.6187 0.9847
-1.0268 -3.3428 -1.6187 0.9847
-0.9073 -3.3772 -1.6187 0.9847
-0.7866 -3.4073 -1.6187 0.9847
-0.5425 -3.4546 -1.6187 0.9847
-0.2956 -3.4844 -1.6187 0.9847
-0.1715 -3.4927 -1.6187 0.9847
-0.0472 -3.4966 -1.6187 0.9847
0.0771 -3.4960 -1.6187 0.9847
0.3254 -3.4817 -1.6187 0.9847
0.4490 -3.4679 -1.6186 0.9847
0.5720 -3.4498 -1.6186 0.9847
0.6943 -3.4273 -1.6186 0.9847
0.8157 -3.4004 -1.6186 0.9847
0.9361 -3.3692 -1.6186 0.9847
1.1732 -3.2942 -1.6186 0.9847
1.4043 -3.2025 -1.6186 0.9847
1.7374 -3.0347 -1.6186 0.9847
1.9487 -2.9036 -1.6186 0.9847
-1.4064 -2.9852 -1.6187 0.9854
-1.2993 -3.0333 -1.6187 0.9854
-1.1907 -3.0776 -1.6187 0.9854
-0.7423 -3.2153 -1.6187 0.9854
-0.6275 -3.2397 -1.6187 0.9854
-0.5119 -3.2599 -1.6187 0.9854
-0.3957 -3.2761 -1.6187 0.9854
-0.2790 -3.2881 -1.6187 0.9854
0.1901 -3.2944 -1.6187 0.9854
0.4237 -3.2725 -1.6187 0.9854
0.5398 -3.2554 -1.6186 0.9854
0.6552 -3.2342 -1.6186 0.9854
0.9959 -3.1460 -1.6186 0.9854
1.2169 -3.0672 -1.6186 0.9854
1.3252 -3.0220 -1.6186 0.9854
1.7403 -2.8036 -1.6186 0.9854
1.8389 -2.7399 -1.6186 0.9854
1.9351 -2.6728 -1.6186 0.9854
-1.3298 -2.8226 -1.6187 0.9860
-1.2286 -2.8681 -1.6187 0.9860
-1.1258 -2.9100 -1.6187 0.9860
-0.9162 -2.9826 -1.6187 0.9860
-0.8095 -3.0133 -1.6187 0.9860
-0.7019 -3.0402 -1.6187 0.9860
-0.4840 -3.0824 -1.6187 0.9860
-0.2637 -3.1090 -1.6187 0.9860
-0.1530 -3.1164 -1.6187 0.9860
0.0688 -3.1194 -1.6187 0.9860
0.1797 -3.1150 -1.6187 0.9860
0.4006 -3.0943 -1.6187 0.9860
0.6195 -3.0580 -1.6186 0.9860
0.9416 -2.9746 -1.6186 0.9860
1.1506 -2.9002 -1.6186 0.9860
1.2531 -2.8574 -1.6186 0.9860
1.6455 -2.6509 -1.6186 0.9860
1.8297 -2.5273 -1.6186 0.9860
1.9184 -2.4606 -1.6186 0.9860
-1.2596 -2.6735 -1.6187 0.9866
-1.1637 -2.7166 -1.6187 0.9866
-1.0664 -2.7563 -1.6187 0.9866
-0.9677 -2.7925 -1.6187 0.9866
-0.6648 -2.8796 -1.6187 0.9866
-0.5620 -2.9015 -1.6187 0.9866
-0.3544 -2.9341 -1.6187 0.9866
-0.2498 -2.9448 -1.6187 0.9866
0.1702 -2.9505 -1.6187 0.9866
0.3795 -2.9309 -1.6187 0.9866
0.5868 -2.8965 -1.6186 0.9866
0.7912 -2.8475 -1.6186 0.9866
1.0899 -2.7470 -1.6186 0.9866
1.2823 -2.6626 -1.6186 0.9866
1.3762 -2.6154 -1.6186 0.9866
1.4683 -2.5647 -1.6186 0.9866
1.5586 -2.5109 -1.6186 0.9866
1.7331 -2.3938 -1.6186 0.9866
-0.6307 -2.7318 -1.6187 0.9871
-0.5331 -2.7525 -1.6187 0.9871
-0.4349 -2.7697 -1.6187 0.9871
-0.2370 -2.7936 -1.6187 0.9871
0.0618 -2.8029 -1.6187 0.9871
0.4586 -2.7658 -1.6187 0.9871
0.7505 -2.7013 -1.6186 0.9871
0.9406 -2.6411 -1.6186 0.9871
1.0339 -2.6060 -1.6186 0.9871
1.1259 -2.5676 -1.6186 0.9871
1.5623 -2.3279 -1.6186 0.9871
1.6441 -2.2709 -1.6186 0.9871
