ply
format ascii 1.0
element vertex 490
property float32 x
property float32 y
property float32 z
property float32 I
end_header
-13.7913 15.0911 3.6048 0.9203
-14.1592 14.4294 3.5646 0.9212
-14.3872 13.6559 3.4977 0.9226
-14.3611 11.8113 3.2787 0.9273
-15.1633 10.7621 3.2787 0.9273
-15.3675 10.1060 3.2431 0.9280
-15.5482 9.4514 3.2083 0.9288
-16.9783 8.7347 3.3667 0.9254
-20.8321 9.7979 4.0592 0.9107
-28.0256 11.9849 5.3746 0.8836
-13.9846 15.3025 3.1757 0.9195
-14.2111 14.4822 3.1083 0.9212
-14.4284 13.6950 3.0475 0.9227
-14.9677 11.4438 2.8864 0.9266
-15.1825 10.7757 2.8521 0.9274
-15.5481 9.4514 2.7874 0.9290
-16.9783 8.7347 2.9250 0.9256
-28.4641 12.1724 4.7425 0.8823
-13.9846 15.3026 2.6995 0.9198
-14.4207 14.6958 2.6812 0.9203
-12.6516 8.9794 2.0203 0.9393
-15.3674 10.1059 2.3951 0.9285
-16.9783 8.7347 2.4864 0.9259
-20.8362 9.7998 2.9984 0.9113
-34.7649 13.4274 4.8530 0.8604
-14.6689 14.9487 2.2490 0.9192
-14.9608 12.3045 2.0801 0.9250
-15.1823 10.7756 1.9992 0.9278
-16.0788 9.7740 2.0205 0.9271
-16.2619 9.1106 2.0016 0.9278
-15.4137 7.9298 1.8613 0.9326
-26.7017 11.4187 3.1184 0.8897
-14.6689 14.9487 1.7729 0.9194
-14.9195 14.1611 1.7413 0.9207
-14.5957 12.8999 1.6490 0.9248
-14.9861 12.3253 1.6426 0.9251
-14.9773 11.4512 1.5960 0.9271
-16.0788 9.7740 1.5929 0.9272
-15.4138 7.9298 1.4674 0.9328
-13.9846 15.3026 1.2855 0.9203
-14.6689 14.9487 1.2987 0.9195
-14.5957 12.8999 1.2079 0.9249
-14.9861 12.3254 1.2032 0.9252
-12.7293 7.7379 0.9237 0.9420
-12.8793 7.2155 0.9154 0.9426
-15.4137 7.9298 1.0749 0.9329
-24.6288 10.5323 1.6610 0.8982
-11.4722 12.5534 0.6706 0.9342
-11.6598 11.8823 0.6564 0.9355
-12.0133 10.6176 0.6322 0.9378
-12.3432 9.4372 0.6127 0.9397
-12.5010 8.8725 0.6045 0.9405
-12.6549 8.3221 0.5972 0.9412
-14.3571 7.3862 0.6366 0.9374
-11.6598 11.8823 0.2812 0.9356
-11.8399 11.2380 0.2757 0.9368
-12.0133 10.6176 0.2708 0.9379
-12.1808 10.0181 0.2664 0.9389
-12.3432 9.4372 0.2625 0.9397
-12.5010 8.8725 0.2589 0.9405
-12.6548 8.3221 0.2558 0.9412
-14.3571 7.3862 0.2727 0.9375
-11.6598 11.8823 -0.0937 0.9356
-11.8399 11.2380 -0.0919 0.9368
-12.1808 10.0181 -0.0888 0.9389
-12.3432 9.4372 -0.0875 0.9397
-12.6549 8.3221 -0.0853 0.9412
-12.8793 7.2155 -0.0831 0.9427
-17.6193 8.2868 -0.1096 0.9251
-11.4722 12.5534 -0.4788 0.9342
-12.1808 10.0181 -0.4441 0.9388
-12.8793 7.2155 -0.4157 0.9426
-14.3571 7.3862 -0.4546 0.9374
-17.6193 8.2868 -0.5483 0.9250
-23.0520 8.9034 -0.6958 0.9058
-11.6598 11.8823 -0.8443 0.9355
-11.8398 11.2380 -0.8279 0.9367
-12.0133 10.6176 -0.8131 0.9378
-12.3432 9.4372 -0.7880 0.9397
-12.7293 7.7379 -0.7555 0.9421
-22.5814 9.6567 -1.2455 0.9063
-23.0521 8.9035 -1.2532 0.9058
-28.1790 6.4938 -1.4665 0.8906
-31.5381 4.9425 -1.6190 0.8800
-31.6937 3.8193 -1.6190 0.8800
-2.9648 0.1450 -0.1505 0.9882
-2.9434 0.0393 -0.1493 0.9883
-2.9866 -0.2792 -0.1521 0.9881
-31.4931 -5.2197 -1.6189 0.8800
-31.2879 -6.3349 -1.6189 0.8800
-31.0431 -7.4420 -1.6189 0.8800
-30.0751 -10.7016 -1.6189 0.8800
-11.6598 11.8823 -1.2206 0.9354
-12.1808 10.0181 -1.1564 0.9387
-12.5010 8.8725 -1.1240 0.9404
-12.6548 8.3221 -1.1105 0.9411
-12.8792 7.2155 -1.0824 0.9425
-18.3892 7.8640 -1.4665 0.9229
-10.5400 4.0709 -0.8285 0.9557
-18.9011 6.5388 -1.4665 0.9229
-19.1214 5.8634 -1.4665 0.9229
-19.3176 5.1806 -1.4665 0.9229
-2.5359 0.5844 -0.1908 0.9896
-2.4102 0.2905 -0.1780 0.9903
-2.4074 0.1178 -0.1767 0.9904
-2.4034 0.0321 -0.1762 0.9904
-2.4045 -0.0533 -0.1763 0.9904
-2.4098 -0.2252 -0.1775 0.9903
-2.4152 -0.3126 -0.1786 0.9903
-2.4975 -0.5057 -0.1868 0.9898
-21.2740 -5.9064 -1.6189 0.9153
-21.0508 -6.6582 -1.6189 0.9153
-20.8010 -7.4016 -1.6189 0.9153
-10.6980 10.9021 -1.4664 0.9405
-11.4449 10.1152 -1.4664 0.9405
-12.1341 9.2773 -1.4664 0.9405
-12.7293 7.7379 -1.4302 0.9419
-12.8792 7.2155 -1.4173 0.9424
-13.5824 6.9876 -1.4664 0.9405
-13.8220 6.5008 -1.4664 0.9405
-14.0441 6.0058 -1.4664 0.9405
-10.5235 4.0645 -1.0830 0.9557
-14.4351 4.9938 -1.4664 0.9405
-2.2158 0.5106 -0.2183 0.9909
-2.1896 0.4233 -0.2141 0.9911
-2.1631 0.3390 -0.2102 0.9912
-2.1569 0.2599 -0.2086 0.9913
-2.1564 0.1824 -0.2078 0.9913
-2.1547 0.1054 -0.2071 0.9914
-2.1526 -0.0477 -0.2067 0.9914
-2.1552 -0.1245 -0.2073 0.9914
-2.1567 -0.2016 -0.2080 0.9913
-2.1568 -0.2792 -0.2088 0.9913
-2.1697 -0.3596 -0.2111 0.9912
-2.1962 -0.4446 -0.2151 0.9910
-15.8862 -5.6527 -1.6188 0.9345
-8.3278 9.1127 -1.4664 0.9515
-8.6462 8.8112 -1.4664 0.9515
-8.9537 8.4985 -1.4664 0.9515
-9.2499 8.1752 -1.4664 0.9515
-9.5344 7.8416 -1.4664 0.9515
-9.8069 7.4980 -1.4664 0.9515
-10.0670 7.1450 -1.4664 0.9515
-10.3144 6.7830 -1.4664 0.9515
-10.5488 6.4124 -1.4664 0.9515
-10.9774 5.6474 -1.4664 0.9515
-11.1710 5.2540 -1.4664 0.9515
-10.4981 4.0547 -1.3368 0.9557
-2.0409 0.4703 -0.2488 0.9916
-2.0242 0.3913 -0.2449 0.9917
-2.0123 0.3154 -0.2419 0.9918
-2.0028 0.0980 -0.2382 0.9920
-1.9983 0.0267 -0.2374 0.9920
-2.0038 -0.1157 -0.2384 0.9919
-2.0074 -0.1876 -0.2395 0.9919
-2.0104 -0.2602 -0.2408 0.9919
-2.0134 -0.3337 -0.2424 0.9918
-2.0284 -0.4107 -0.2458 0.9917
-2.0450 -0.4902 -0.2498 0.9916
-2.0777 -0.6571 -0.2588 0.9913
-6.9816 7.6396 -1.4664 0.9591
-7.7546 6.8537 -1.4664 0.9591
-7.9931 6.5739 -1.4664 0.9591
-8.4396 5.9900 -1.4664 0.9591
-8.6470 5.6865 -1.4664 0.9591
-9.0289 5.0583 -1.4664 0.9591
-9.2028 4.7345 -1.4664 0.9591
-9.6542 3.7288 -1.4664 0.9591
-1.9644 0.6024 -0.2911 0.9917
-1.9372 0.4464 -0.2817 0.9920
-1.9259 0.3723 -0.2779 0.9921
-1.9156 0.1621 -0.2724 0.9923
-1.9064 0.0255 -0.2701 0.9923
-1.9079 -0.0423 -0.2704 0.9923
-1.9132 -0.1105 -0.2715 0.9923
-1.9163 -0.1791 -0.2727 0.9923
-1.9204 -0.3183 -0.2758 0.9922
-1.9404 -0.4652 -0.2827 0.9920
-1.9678 -0.6224 -0.2924 0.9917
-10.7638 -3.8301 -1.6188 0.9549
-6.0047 6.5706 -1.4664 0.9646
-6.6696 5.8947 -1.4664 0.9646
-7.4371 4.8908 -1.4664 0.9646
-7.9151 4.0720 -1.4664 0.9646
-8.0548 3.7884 -1.4664 0.9646
-8.1842 3.4999 -1.4664 0.9646
-1.8656 0.5721 -0.3215 0.9921
-1.8554 0.4976 -0.3165 0.9922
-1.8354 0.2876 -0.3060 0.9925
-1.8340 0.2210 -0.3043 0.9925
-1.8320 0.1550 -0.3029 0.9926
-1.8274 0.0894 -0.3014 0.9926
-1.8325 -0.1713 -0.3032 0.9926
-1.8344 -0.2375 -0.3047 0.9925
-1.8486 -0.4432 -0.3132 0.9923
-1.8790 -0.6686 -0.3286 0.9919
-5.8455 5.1664 -1.4664 0.9687
-6.1975 4.7384 -1.4664 0.9687
-6.5183 4.2866 -1.4664 0.9687
-6.6664 4.0524 -1.4664 0.9687
-1.7926 0.6924 -0.3612 0.9922
-1.7775 0.5451 -0.3495 0.9925
-1.7706 0.4749 -0.3446 0.9926
-1.7564 0.2117 -0.3325 0.9928
-1.7532 0.1483 -0.3307 0.9929
-1.7443 0.0233 -0.3279 0.9929
-1.7541 -0.1640 -0.3311 0.9929
-1.7567 -0.2274 -0.3330 0.9928
-1.7573 -0.3558 -0.3370 0.9927
-1.7791 -0.5627 -0.3507 0.9924
-1.7864 -0.6357 -0.3564 0.9923
-5.0314 4.7757 -1.4664 0.9720
-5.1979 4.5940 -1.4664 0.9720
-5.3578 4.4065 -1.4664 0.9720
-6.0671 3.3990 -1.4700 0.9720
-6.4428 3.3146 -1.5315 0.9708
-7.0227 3.0032 -1.6145 0.9693
-1.7029 0.5891 -0.3809 0.9927
-1.6926 0.4539 -0.3704 0.9929
-1.6864 0.3886 -0.3658 0.9929
-1.6850 0.2641 -0.3605 0.9931
-1.6831 0.2028 -0.3583 0.9931
-1.6767 0.0820 -0.3549 0.9932
-1.6724 0.0224 -0.3535 0.9932
-1.6735 -0.0371 -0.3538 0.9932
-1.6837 -0.2179 -0.3589 0.9931
-1.6845 -0.3411 -0.3633 0.9930
-1.6880 -0.4047 -0.3669 0.9929
-1.6994 -0.5375 -0.3768 0.9927
-1.7040 -0.6063 -0.3823 0.9926
-4.3699 4.4533 -1.4663 0.9747
-4.5253 4.2953 -1.4663 0.9747
-4.6750 4.1318 -1.4663 0.9747
-4.9565 3.7896 -1.4664 0.9747
-5.0879 3.6111 -1.4664 0.9747
-5.9827 3.3517 -1.6117 0.9722
-6.1096 3.1432 -1.6148 0.9722
-6.2296 2.9300 -1.6180 0.9721
-1.6249 0.4983 -0.3994 0.9930
-1.6205 0.4346 -0.3943 0.9931
-1.6156 0.3723 -0.3897 0.9932
-1.6165 0.2533 -0.3845 0.9933
-1.6149 0.1946 -0.3823 0.9933
-1.6126 0.1364 -0.3803 0.9934
-1.6154 -0.2091 -0.3828 0.9933
-1.6167 -0.2679 -0.3851 0.9933
-1.6168 -0.3274 -0.3877 0.9932
-1.6168 -0.3876 -0.3907 0.9932
-1.6217 -0.4502 -0.3956 0.9931
-1.6259 -0.5142 -0.4008 0.9930
-1.6292 -0.5797 -0.4064 0.9929
-3.8205 4.1806 -1.4663 0.9769
-3.9666 4.0423 -1.4663 0.9769
-4.1076 3.8988 -1.4663 0.9769
-4.2646 3.7691 -1.4736 0.9768
-4.5078 3.7075 -1.5112 0.9762
-5.0347 3.5734 -1.5985 0.9748
-5.2050 3.4229 -1.6130 0.9746
-5.3318 3.2411 -1.6155 0.9745
-1.5952 0.7503 -0.4564 0.9927
-1.5658 0.6048 -0.4346 0.9931
-1.5613 0.5401 -0.4278 0.9932
-1.5523 0.3577 -0.4124 0.9934
-1.5528 0.3002 -0.4095 0.9935
-1.5525 0.2433 -0.4069 0.9935
-1.5514 0.1870 -0.4046 0.9936
-1.5495 0.1311 -0.4026 0.9936
-1.5467 0.0757 -0.4010 0.9936
-1.5432 0.0206 -0.3996 0.9936
-1.5442 -0.0342 -0.3999 0.9936
-1.5475 -0.0894 -0.4013 0.9936
-1.5518 -0.2009 -0.4051 0.9936
-1.5577 -0.4927 -0.4230 0.9933
-4.3997 3.6186 -1.6127 0.9766
-4.6577 3.3058 -1.6169 0.9765
-1.6630 1.0109 -0.5509 0.9919
-1.6210 0.9082 -0.5260 0.9923
-1.5105 0.6460 -0.4651 0.9932
-1.5042 0.5204 -0.4506 0.9934
-1.4952 0.4010 -0.4382 0.9936
-1.4951 0.2890 -0.4311 0.9937
-1.4936 0.1800 -0.4259 0.9938
-1.4919 0.1262 -0.4238 0.9938
-1.4894 0.0729 -0.4221 0.9938
-1.4900 -0.0860 -0.4225 0.9938
-1.4924 -0.1395 -0.4243 0.9938
-1.4940 -0.1934 -0.4265 0.9938
-1.4964 -0.4155 -0.4397 0.9936
-1.5011 -0.4748 -0.4457 0.9935
-1.5052 -0.5356 -0.4523 0.9934
-3.5355 3.8687 -1.6120 0.9783
-3.8083 3.6147 -1.6150 0.9783
-4.0641 3.3425 -1.6185 0.9782
-4.1809 3.1966 -1.6187 0.9782
-4.2918 3.0461 -1.6187 0.9782
-4.3972 2.8917 -1.6187 0.9782
-1.6069 0.9003 -0.5665 0.9923
-1.4549 0.6222 -0.4867 0.9934
-1.4531 0.5612 -0.4791 0.9935
-1.4473 0.4438 -0.4656 0.9937
-1.4438 0.3872 -0.4598 0.9938
-1.4459 0.2266 -0.4501 0.9939
-1.4436 0.1221 -0.4456 0.9940
-1.4358 0.0192 -0.4417 0.9940
-1.4448 -0.3464 -0.4570 0.9938
-1.4512 -0.5164 -0.4738 0.9936
-3.2828 3.5922 -1.6176 0.9797
-3.4108 3.4758 -1.6187 0.9797
-3.5321 3.3525 -1.6187 0.9797
-3.6489 3.2250 -1.6187 0.9797
-3.8686 2.9578 -1.6187 0.9797
-4.0688 2.6758 -1.6187 0.9797
-1.4913 0.9065 -0.5801 0.9927
-1.6069 0.9003 -0.6123 0.9923
-1.4027 0.6597 -0.5153 0.9935
-1.4026 0.5998 -0.5071 0.9936
-1.3979 0.4287 -0.4860 0.9939
-1.3964 0.3745 -0.4806 0.9939
-1.3990 0.1686 -0.4684 0.9941
-1.3978 0.1183 -0.4663 0.9941
-1.3948 0.0682 -0.4642 0.9941
-1.3866 0.0185 -0.4610 0.9942
-1.3963 -0.0806 -0.4649 0.9941
-1.3981 -0.1307 -0.4668 0.9941
-1.3992 -0.1811 -0.4690 0.9941
-1.3990 -0.2833 -0.4745 0.9940
-1.3958 -0.3875 -0.4815 0.9939
-1.3985 -0.4423 -0.4876 0.9938
-3.2831 3.1162 -1.6187 0.9810
-3.4961 2.8753 -1.6187 0.9810
-3.5960 2.7494 -1.6187 0.9810
-3.6913 2.6199 -1.6187 0.9810
-3.7821 2.4872 -1.6187 0.9810
-1.4913 0.9065 -0.6241 0.9926
-1.3511 0.4143 -0.5054 0.9940
-1.3549 0.2619 -0.4935 0.9942
-1.3551 0.1633 -0.4881 0.9942
-1.3541 0.1146 -0.4860 0.9942
-1.3476 0.0659 -0.4825 0.9943
-1.3420 -0.0297 -0.4800 0.9943
-1.3552 -0.1754 -0.4887 0.9942
-1.3546 -0.2743 -0.4942 0.9941
-1.3515 -0.4275 -0.5069 0.9940
-2.8496 3.1181 -1.6187 0.9821
-2.9585 3.0150 -1.6187 0.9821
-3.0637 2.9080 -1.6187 0.9821
-3.1651 2.7974 -1.6187 0.9821
-3.2624 2.6832 -1.6187 0.9821
-3.3556 2.5656 -1.6187 0.9821
-3.4446 2.4448 -1.6187 0.9821
-3.6095 2.1942 -1.6187 0.9821
-1.2996 0.7281 -0.5709 0.9936
-1.3028 0.6702 -0.5615 0.9937
-1.3074 0.5050 -0.5371 0.9940
-1.3067 0.4007 -0.5237 0.9942
-1.3087 0.3510 -0.5192 0.9942
-1.3110 0.3021 -0.5156 0.9943
-1.3133 0.2058 -0.5094 0.9943
-1.3133 0.1582 -0.5069 0.9943
-1.3029 0.0637 -0.4999 0.9944
-1.2959 0.0173 -0.4967 0.9945
-1.3106 -0.1225 -0.5044 0.9944
-1.3133 -0.1700 -0.5075 0.9943
-2.9635 2.6192 -1.6187 0.9831
-3.1420 2.4023 -1.6187 0.9831
-3.3046 2.1732 -1.6187 0.9831
-1.2485 0.7589 -0.5980 0.9937
-1.2572 0.6468 -0.5786 0.9939
-1.2626 0.5400 -0.5620 0.9941
-1.2640 0.4882 -0.5546 0.9942
-1.2679 0.3400 -0.5372 0.9943
-1.2711 0.1532 -0.5240 0.9945
-1.2603 0.0617 -0.5164 0.9946
-1.2538 0.0168 -0.5132 0.9946
-1.2674 -0.1185 -0.5210 0.9945
-1.2722 -0.1647 -0.5250 0.9945
-1.2718 -0.2575 -0.5311 0.9944
-1.2699 -0.3044 -0.5344 0.9944
-1.2645 -0.3999 -0.5428 0.9943
-2.5057 2.7418 -1.6187 0.9839
-2.8687 2.3593 -1.6187 0.9839
-2.9506 2.2560 -1.6187 0.9839
-3.0289 2.1498 -1.6187 0.9839
-3.1033 2.0408 -1.6187 0.9839
-1.2041 0.7320 -0.6141 0.9939
-1.2096 0.6776 -0.6042 0.9940
-1.2143 0.6247 -0.5951 0.9941
-1.2180 0.5729 -0.5866 0.9941
-1.2335 0.2385 -0.5475 0.9945
-1.2334 0.1933 -0.5441 0.9946
-1.2296 0.1482 -0.5398 0.9946
-1.2250 0.1037 -0.5358 0.9946
-1.2197 0.0597 -0.5322 0.9947
-1.2137 0.0162 -0.5290 0.9947
-1.2152 -0.0269 -0.5298 0.9947
-1.2211 -0.0705 -0.5331 0.9947
-1.2262 -0.1146 -0.5367 0.9946
-1.2342 -0.2046 -0.5452 0.9946
-1.2331 -0.2497 -0.5483 0.9945
-1.2310 -0.2951 -0.5517 0.9945
-1.2281 -0.3409 -0.5554 0.9945
-1.2243 -0.3872 -0.5596 0.9944
-2.7009 2.2214 -1.6187 0.9847
-2.7781 2.1241 -1.6187 0.9847
-2.8518 2.0241 -1.6187 0.9847
-1.1622 0.7064 -0.6295 0.9940
-1.1683 0.6546 -0.6199 0.9941
-1.1777 0.5539 -0.6024 0.9943
-1.1809 0.5050 -0.5945 0.9944
-1.1833 0.4570 -0.5871 0.9944
-1.1847 0.4098 -0.5803 0.9945
-1.1958 0.2312 -0.5638 0.9946
-1.1858 0.1003 -0.5509 0.9948
-1.1768 -0.0261 -0.5448 0.9948
-1.1822 -0.0683 -0.5481 0.9948
-1.1908 -0.1541 -0.5558 0.9947
-1.1940 -0.1979 -0.5602 0.9947
-1.1906 -0.3305 -0.5719 0.9946
-1.1867 -0.3753 -0.5761 0.9945
-1.1844 -0.4215 -0.5819 0.9945
-2.2262 2.4360 -1.6187 0.9854
-2.3113 2.3554 -1.6187 0.9854
-2.3935 2.2718 -1.6187 0.9854
-2.6215 2.0044 -1.6187 0.9854
-1.1149 0.7332 -0.6545 0.9941
-1.1291 0.6325 -0.6348 0.9943
-1.1428 0.4887 -0.6097 0.9945
-1.1455 0.4424 -0.6024 0.9945
-1.1474 0.3969 -0.5955 0.9946
-1.1555 0.3099 -0.5868 0.9947
-1.1571 0.2237 -0.5781 0.9948
-1.1483 0.0972 -0.5653 0.9949
-1.1438 0.0560 -0.5617 0.9949
-1.1450 -0.0661 -0.5626 0.9949
-1.1546 -0.3206 -0.5878 0.9947
-2.2631 2.1481 -1.6187 0.9860
-2.4099 1.9820 -1.6187 0.9860
-1.0513 0.8038 -0.6865 0.9941
-1.0737 0.7061 -0.6667 0.9942
-1.0847 0.6594 -0.6585 0.9943
-1.0916 0.6115 -0.6491 0.9944
-1.0974 0.5646 -0.6402 0.9945
-1.1122 0.3848 -0.6105 0.9947
-1.1170 0.3425 -0.6061 0.9947
-1.1209 0.3006 -0.6021 0.9948
-1.1211 0.2584 -0.5968 0.9948
-1.1183 0.1752 -0.5872 0.9949
-1.1157 0.1344 -0.5830 0.9949
-1.1123 0.0941 -0.5791 0.9950
-1.1082 0.0542 -0.5756 0.9950
-1.1033 0.0147 -0.5724 0.9950
-1.1046 -0.0245 -0.5732 0.9950
-1.1092 -0.0641 -0.5764 0.9950
-1.1132 -0.1041 -0.5800 0.9950
-1.1212 -0.2688 -0.5981 0.9948
-2.0700 2.1095 -1.6187 0.9866
-2.2145 1.9573 -1.6187 0.9866
-0.9844 0.7526 -0.6787 0.9944
-1.0047 0.7131 -0.6748 0.9944
-1.0238 0.6732 -0.6711 0.9944
-1.0415 0.6331 -0.6675 0.9945
-1.0618 0.5462 -0.6540 0.9946
-1.0850 0.2910 -0.6153 0.9949
-1.0845 0.2097 -0.6050 0.9950
-1.0807 0.1302 -0.5962 0.9950
-1.0705 -0.0237 -0.5865 0.9951
-1.0785 -0.1008 -0.5933 0.9951
-1.0814 -0.1400 -0.5972 0.9950
-1.0852 -0.2602 -0.6112 0.9949
-1.0849 -0.3012 -0.6167 0.9949
-1.0774 -0.3834 -0.6263 0.9948
-1.8914 2.0697 -1.6187 0.9871
-1.9637 2.0012 -1.6187 0.9871
-0.9588 0.6805 -0.6788 0.9946
-0.9772 0.6426 -0.6752 0.9946
-1.0102 0.5660 -0.6685 0.9947
-1.0248 0.5272 -0.6654 0.9947
-1.0331 0.4859 -0.6591 0.9947
-1.0376 0.4437 -0.6515 0.9948
-1.0412 0.4021 -0.6444 0.9949
-1.0464 0.3620 -0.6393 0.9949
-1.0490 0.3217 -0.6335 0.9949
-1.0503 0.2817 -0.6278 0.9950
-1.0507 0.2421 -0.6225 0.9950
-1.0503 0.2031 -0.6176 0.9951
-1.0491 0.1644 -0.6131 0.9951
-1.0444 0.0884 -0.6052 0.9952
-1.0452 -0.0977 -0.6061 0.9952
-1.0477 -0.1356 -0.6100 0.9951
-1.0451 -0.3719 -0.6404 0.9949
