ply
format ascii 1.0
element vertex 393
property float32 x
property float32 y
property float32 z
property float32 I
end_header
17.5928 30.1707 0.5900 0.8696
40.4935 28.0610 -0.2774 0.8211
17.5928 30.1707 -0.1966 0.8696
20.9855 39.2022 -1.2521 0.8370
28.5939 14.1798 -1.6186 0.8800
26.2336 18.1793 -1.6186 0.8800
25.5547 19.1222 -1.6186 0.8800
24.8417 20.0398 -1.6186 0.8800
23.3180 21.7940 -1.6187 0.8800
21.6708 23.4328 -1.6187 0.8800
19.9087 24.9474 -1.6187 0.8800
17.1998 23.2401 -1.4663 0.8907
16.3425 23.8508 -1.4663 0.8907
15.4635 24.4299 -1.4663 0.8907
14.5641 24.9767 -1.4663 0.8907
13.6454 25.4903 -1.4663 0.8907
12.7085 25.9702 -1.4663 0.8907
10.7855 26.8261 -1.4663 0.8907
8.8053 27.5397 -1.4663 0.8907
6.7785 28.1075 -1.4663 0.8907
5.7509 28.3357 -1.4663 0.8907
3.6742 28.6791 -1.4663 0.8907
2.6279 28.7939 -1.4663 0.8907
-0.5265 28.9090 -1.4663 0.8907
19.7776 9.8078 -1.6187 0.9153
18.5907 11.9053 -1.6187 0.9153
17.1823 13.8609 -1.6187 0.9153
16.6664 14.4771 -1.6187 0.9153
15.5690 15.6513 -1.6187 0.9153
14.9813 16.1993 -1.6178 0.9153
11.8966 16.0744 -1.4663 0.9229
11.3036 16.4968 -1.4663 0.9229
9.4380 17.6308 -1.4663 0.9229
8.7900 17.9626 -1.4663 0.9229
3.2617 19.7305 -1.4663 0.9229
0.3634 19.9953 -1.4663 0.9229
14.8223 8.0354 -1.6187 0.9345
13.8581 9.6033 -1.6187 0.9345
13.1227 10.5861 -1.6187 0.9345
12.7287 11.0567 -1.6187 0.9345
12.3179 11.5128 -1.6187 0.9345
11.8906 11.9535 -1.6187 0.9345
10.3937 11.2387 -1.4697 0.9403
9.9548 11.5830 -1.4663 0.9405
9.5267 11.9377 -1.4663 0.9405
9.0858 12.2766 -1.4663 0.9405
8.6329 12.5992 -1.4663 0.9405
7.6935 13.1939 -1.4663 0.9405
6.7133 13.7187 -1.4663 0.9405
6.2095 13.9540 -1.4663 0.9405
5.6974 14.1708 -1.4663 0.9405
5.1778 14.3688 -1.4663 0.9405
3.5807 14.8476 -1.4663 0.9405
3.0379 14.9681 -1.4663 0.9405
1.9409 15.1495 -1.4663 0.9405
1.3882 15.2102 -1.4663 0.9405
0.2779 15.2708 -1.4663 0.9405
-0.2781 15.2709 -1.4663 0.9405
12.2082 6.0541 -1.6187 0.9466
11.9797 6.4944 -1.6187 0.9466
11.4755 7.3487 -1.6187 0.9466
11.2004 7.7616 -1.6187 0.9466
10.9105 8.1642 -1.6187 0.9466
10.6061 8.5559 -1.6187 0.9466
10.2876 8.9363 -1.6187 0.9466
9.6103 9.6611 -1.6187 0.9466
8.0457 9.3617 -1.4663 0.9515
7.3433 9.9222 -1.4663 0.9515
6.2180 10.6636 -1.4663 0.9515
5.4258 11.0877 -1.4663 0.9515
3.3289 11.8868 -1.4663 0.9515
2.8940 12.0001 -1.4663 0.9515
2.4553 12.0975 -1.4663 0.9515
1.5687 12.2441 -1.4663 0.9515
0.6737 12.3258 -1.4663 0.9515
0.2246 12.3422 -1.4663 0.9515
9.8384 5.8066 -1.6187 0.9549
9.6206 6.1609 -1.6187 0.9549
9.1468 6.8445 -1.6187 0.9549
8.8917 7.1729 -1.6187 0.9549
8.0568 8.0994 -1.6187 0.9549
7.4183 8.6316 -1.6126 0.9551
6.5066 8.1533 -1.4780 0.9587
6.1563 8.3183 -1.4663 0.9591
5.8495 8.5369 -1.4663 0.9591
5.5349 8.7442 -1.4663 0.9591
5.2129 8.9399 -1.4663 0.9591
2.7115 6.7441 -1.0299 0.9711
3.5084 9.7359 -1.4663 0.9591
3.1517 9.8572 -1.4663 0.9591
2.7908 9.9654 -1.4663 0.9591
1.6879 10.2102 -1.4663 0.9591
1.3151 10.2649 -1.4663 0.9591
0.9406 10.3060 -1.4663 0.9591
0.1883 10.3471 -1.4663 0.9591
-0.1885 10.3471 -1.4663 0.9591
8.8028 4.3653 -1.6187 0.9610
8.6381 4.6828 -1.6187 0.9610
8.4619 4.9942 -1.6187 0.9610
7.8671 5.8868 -1.6187 0.9610
7.4180 6.4436 -1.6187 0.9610
6.6714 7.2138 -1.6187 0.9609
6.1119 7.6588 -1.6142 0.9611
5.6072 7.5763 -1.5528 0.9625
4.4836 7.6890 -1.4663 0.9646
4.2007 7.8471 -1.4663 0.9646
3.9123 7.9948 -1.4663 0.9646
2.8978 6.5121 -1.1742 0.9715
1.7704 8.7230 -1.4663 0.9646
1.4517 8.7816 -1.4663 0.9646
1.1311 8.8287 -1.4663 0.9646
0.8090 8.8640 -1.4663 0.9646
0.1620 8.8993 -1.4663 0.9646
7.7152 3.8260 -1.6187 0.9656
7.2522 4.6442 -1.6187 0.9656
6.7028 5.4071 -1.6187 0.9656
6.5015 5.6475 -1.6187 0.9656
6.2916 5.8804 -1.6187 0.9656
5.8472 6.3226 -1.6187 0.9656
5.3717 6.7312 -1.6187 0.9656
5.1163 6.9131 -1.6165 0.9656
4.3586 6.8858 -1.5318 0.9674
3.9296 6.7391 -1.4663 0.9687
3.4289 7.0071 -1.4663 0.9687
2.6944 6.7016 -1.3576 0.9710
2.3758 7.4306 -1.4663 0.9687
2.1037 7.5121 -1.4663 0.9687
1.5517 7.6453 -1.4663 0.9687
0.9914 7.7379 -1.4663 0.9687
0.4258 7.7895 -1.4663 0.9687
6.4487 4.1297 -1.6187 0.9692
6.2942 4.3617 -1.6187 0.9692
5.7812 5.0218 -1.6187 0.9692
4.9913 5.8076 -1.6187 0.9692
4.5555 6.1554 -1.6187 0.9692
3.8398 6.5851 -1.6113 0.9693
3.4382 6.4227 -1.5399 0.9707
2.8202 6.3376 -1.4663 0.9720
2.1126 6.6073 -1.4663 0.9720
1.8707 6.6799 -1.4663 0.9720
1.6263 6.7435 -1.4663 0.9720
0.8815 6.8806 -1.4663 0.9720
0.3786 6.9265 -1.4663 0.9720
0.1262 6.9357 -1.4663 0.9720
6.0549 3.2825 -1.6187 0.9721
5.9314 3.5007 -1.6187 0.9721
5.5144 4.1264 -1.6187 0.9721
5.0318 4.7029 -1.6187 0.9721
4.4892 5.2234 -1.6187 0.9721
4.2961 5.3833 -1.6187 0.9721
4.0973 5.5362 -1.6187 0.9721
3.4687 5.9485 -1.6184 0.9721
3.2432 6.0584 -1.6150 0.9722
2.7048 6.0782 -1.5636 0.9730
2.1151 5.8695 -1.4663 0.9747
1.4627 6.0651 -1.4663 0.9747
0.7928 6.1884 -1.4663 0.9747
0.5671 6.2132 -1.4663 0.9747
0.3405 6.2297 -1.4663 0.9747
0.1135 6.2380 -1.4663 0.9747
-0.1136 6.2380 -1.4663 0.9747
5.4961 2.9795 -1.6187 0.9745
5.2648 3.3715 -1.6187 0.9745
5.1385 3.5609 -1.6187 0.9745
5.0055 3.7456 -1.6187 0.9745
4.7198 4.0998 -1.6187 0.9745
4.4090 4.4323 -1.6187 0.9745
3.7191 5.0252 -1.6187 0.9745
3.5338 5.1573 -1.6187 0.9745
3.3437 5.2825 -1.6187 0.9745
3.1492 5.4007 -1.6187 0.9745
2.9505 5.5117 -1.6187 0.9745
2.3240 5.7803 -1.6131 0.9746
2.0945 5.8123 -1.5996 0.9748
1.3321 5.5237 -1.4712 0.9768
0.9236 5.5874 -1.4663 0.9769
0.7197 5.6173 -1.4663 0.9769
4.8152 3.0836 -1.6187 0.9765
4.5781 3.4257 -1.6187 0.9765
4.4504 3.5901 -1.6187 0.9765
3.8823 4.1979 -1.6187 0.9765
3.2320 4.7169 -1.6187 0.9765
2.8803 4.9395 -1.6187 0.9765
2.1330 5.3052 -1.6187 0.9765
1.7370 5.4326 -1.6146 0.9766
0.8824 5.3377 -1.5316 0.9778
0.2827 5.1719 -1.4663 0.9787
0.0943 5.1787 -1.4663 0.9787
4.7148 2.3381 -1.6187 0.9782
4.6266 2.5082 -1.6187 0.9782
4.5322 2.6749 -1.6187 0.9782
4.0961 3.3043 -1.6187 0.9782
3.9731 3.4512 -1.6187 0.9782
3.8448 3.5935 -1.6187 0.9782
3.7115 3.7311 -1.6187 0.9782
3.5732 3.8637 -1.6187 0.9782
3.4302 3.9912 -1.6187 0.9782
3.2826 4.1134 -1.6187 0.9782
3.1308 4.2302 -1.6187 0.9782
2.9747 4.3414 -1.6187 0.9782
2.4838 4.6398 -1.6187 0.9782
2.1396 4.8082 -1.6187 0.9782
1.4189 5.0667 -1.6184 0.9782
1.2322 5.1093 -1.6166 0.9782
1.0443 5.1453 -1.6149 0.9783
0.6659 5.1976 -1.6118 0.9783
0.4717 5.1682 -1.5962 0.9785
0.0917 5.0352 -1.5490 0.9791
4.3627 2.1635 -1.6187 0.9797
4.1937 2.4751 -1.6187 0.9797
4.0025 2.7736 -1.6187 0.9797
3.7901 3.0575 -1.6187 0.9797
3.6763 3.1934 -1.6187 0.9797
3.5577 3.3251 -1.6187 0.9797
3.4343 3.4524 -1.6187 0.9797
3.3063 3.5751 -1.6187 0.9797
2.8969 3.9143 -1.6187 0.9797
2.7525 4.0171 -1.6187 0.9797
1.6509 4.5813 -1.6187 0.9797
0.9686 4.7724 -1.6187 0.9797
0.7942 4.8045 -1.6187 0.9797
0.6183 4.8261 -1.6173 0.9797
0.4419 4.8415 -1.6160 0.9797
0.0883 4.8541 -1.6138 0.9797
-0.0884 4.8513 -1.6129 0.9798
4.0552 2.0110 -1.6187 0.9810
3.8118 2.4411 -1.6187 0.9810
3.7205 2.5782 -1.6187 0.9810
3.1923 3.2091 -1.6187 0.9810
3.0733 3.3232 -1.6187 0.9810
2.9503 3.4329 -1.6187 0.9810
2.6928 3.6384 -1.6187 0.9810
2.5585 3.7340 -1.6187 0.9810
2.4209 3.8247 -1.6187 0.9810
2.1363 3.9907 -1.6187 0.9810
1.9896 4.0658 -1.6187 0.9810
1.8403 4.1355 -1.6187 0.9810
1.5345 4.2584 -1.6187 0.9810
1.3785 4.3115 -1.6187 0.9810
1.2207 4.3588 -1.6187 0.9810
1.0612 4.4003 -1.6187 0.9810
0.5752 4.4898 -1.6187 0.9810
0.4114 4.5078 -1.6187 0.9810
-0.0824 4.5242 -1.6181 0.9810
3.7134 2.0131 -1.6187 0.9821
3.4718 2.4059 -1.6187 0.9821
3.3820 2.5307 -1.6187 0.9821
2.8679 3.1011 -1.6187 0.9821
2.5128 3.3952 -1.6187 0.9821
2.1277 3.6489 -1.6187 0.9821
1.2864 4.0233 -1.6187 0.9821
1.1391 4.0675 -1.6187 0.9821
0.9903 4.1062 -1.6187 0.9821
0.8401 4.1396 -1.6187 0.9821
0.6889 4.1674 -1.6187 0.9821
0.5368 4.1897 -1.6187 0.9821
0.3839 4.2065 -1.6187 0.9821
0.2305 4.2177 -1.6187 0.9821
3.5433 1.7571 -1.6187 0.9831
3.4770 1.8849 -1.6187 0.9831
3.3306 2.1329 -1.6187 0.9831
3.2508 2.2527 -1.6187 0.9831
3.1667 2.3695 -1.6187 0.9831
2.9858 2.5936 -1.6187 0.9831
2.7893 2.8040 -1.6187 0.9831
2.5779 2.9995 -1.6187 0.9831
2.4670 3.0913 -1.6187 0.9831
2.3528 3.1791 -1.6187 0.9831
2.2356 3.2626 -1.6187 0.9831
1.9923 3.4166 -1.6187 0.9831
1.8666 3.4869 -1.6187 0.9831
1.7384 3.5525 -1.6187 0.9831
1.0666 3.8085 -1.6187 0.9831
0.0720 3.9544 -1.6187 0.9831
3.3275 1.6501 -1.6187 0.9839
3.1278 2.0030 -1.6187 0.9839
3.0528 2.1155 -1.6187 0.9839
2.9738 2.2252 -1.6187 0.9839
2.8908 2.3320 -1.6187 0.9839
2.8040 2.4357 -1.6187 0.9839
2.7135 2.5361 -1.6187 0.9839
2.3168 2.9031 -1.6187 0.9839
2.2095 2.9855 -1.6187 0.9839
1.9865 3.1383 -1.6187 0.9839
1.6326 3.3362 -1.6187 0.9839
1.2592 3.4942 -1.6187 0.9839
0.6058 3.6645 -1.6187 0.9839
0.3376 3.6988 -1.6187 0.9839
0.2027 3.7087 -1.6187 0.9839
0.0676 3.7136 -1.6187 0.9839
-0.0676 3.7136 -1.6187 0.9839
3.1329 1.5536 -1.6187 0.9847
3.0116 1.7774 -1.6187 0.9847
2.8743 1.9918 -1.6187 0.9847
2.7999 2.0951 -1.6187 0.9847
2.7218 2.1956 -1.6187 0.9847
2.6400 2.2933 -1.6187 0.9847
2.5548 2.3878 -1.6187 0.9847
2.4662 2.4792 -1.6187 0.9847
2.0803 2.8109 -1.6187 0.9847
1.9766 2.8848 -1.6187 0.9847
1.8703 2.9548 -1.6187 0.9847
1.7615 3.0209 -1.6187 0.9847
1.6504 3.0830 -1.6187 0.9847
1.3045 3.2446 -1.6187 0.9847
1.1855 3.2899 -1.6187 0.9847
0.9430 3.3674 -1.6187 0.9847
0.8198 3.3995 -1.6187 0.9847
0.5703 3.4502 -1.6187 0.9847
0.3178 3.4825 -1.6187 0.9847
0.1909 3.4918 -1.6187 0.9847
0.0636 3.4964 -1.6187 0.9847
-0.0637 3.4964 -1.6187 0.9847
2.9011 1.5727 -1.6187 0.9854
2.7790 1.7796 -1.6187 0.9854
2.7124 1.8796 -1.6187 0.9854
2.6421 1.9771 -1.6187 0.9854
2.5684 2.0719 -1.6187 0.9854
2.4913 2.1641 -1.6187 0.9854
2.4109 2.2533 -1.6187 0.9854
2.1509 2.5027 -1.6187 0.9854
1.9631 2.6525 -1.6187 0.9854
1.8653 2.7222 -1.6187 0.9854
1.7650 2.7883 -1.6187 0.9854
1.5574 2.9093 -1.6187 0.9854
1.4505 2.9641 -1.6187 0.9854
1.3416 3.0149 -1.6187 0.9854
0.8899 3.1777 -1.6187 0.9854
0.6564 3.2340 -1.6187 0.9854
0.5382 3.2558 -1.6187 0.9854
0.4194 3.2732 -1.6187 0.9854
0.0600 3.2994 -1.6187 0.9854
2.7954 1.3862 -1.6187 0.9860
2.7431 1.4871 -1.6187 0.9860
2.6871 1.5859 -1.6187 0.9860
2.6276 1.6827 -1.6187 0.9860
2.5646 1.7772 -1.6187 0.9860
2.4982 1.8694 -1.6187 0.9860
2.3556 2.0462 -1.6187 0.9860
2.1185 2.2908 -1.6187 0.9860
1.9462 2.4388 -1.6187 0.9860
1.8562 2.5080 -1.6187 0.9860
1.6688 2.6364 -1.6187 0.9860
1.5717 2.6954 -1.6187 0.9860
1.4726 2.7509 -1.6187 0.9860
1.3715 2.8026 -1.6187 0.9860
1.2686 2.8507 -1.6187 0.9860
1.1639 2.8950 -1.6187 0.9860
0.9502 2.9720 -1.6187 0.9860
0.8414 3.0046 -1.6187 0.9860
0.5089 3.0784 -1.6187 0.9860
0.2836 3.1073 -1.6187 0.9860
0.1703 3.1156 -1.6187 0.9860
0.0568 3.1197 -1.6187 0.9860
-0.0568 3.1197 -1.6187 0.9860
2.5982 1.4085 -1.6187 0.9866
2.4889 1.5938 -1.6187 0.9866
2.4292 1.6833 -1.6187 0.9866
2.2312 1.9381 -1.6187 0.9866
2.0843 2.0953 -1.6187 0.9866
2.0066 2.1698 -1.6187 0.9866
1.9263 2.2414 -1.6187 0.9866
1.6705 2.4380 -1.6187 0.9866
1.4887 2.5531 -1.6187 0.9866
1.3948 2.6056 -1.6187 0.9866
1.2016 2.7002 -1.6187 0.9866
1.1025 2.7421 -1.6187 0.9866
1.0019 2.7804 -1.6187 0.9866
0.9001 2.8150 -1.6187 0.9866
0.7970 2.8459 -1.6187 0.9866
0.6929 2.8731 -1.6187 0.9866
0.5878 2.8964 -1.6187 0.9866
0.4820 2.9159 -1.6187 0.9866
0.3756 2.9315 -1.6187 0.9866
0.2686 2.9432 -1.6187 0.9866
0.0538 2.9550 -1.6187 0.9866
2.5118 1.2456 -1.6187 0.9871
2.4145 1.4250 -1.6187 0.9871
2.2448 1.6797 -1.6187 0.9871
2.1166 1.8386 -1.6187 0.9871
2.0483 1.9144 -1.6187 0.9871
1.7488 2.1914 -1.6187 0.9871
1.6679 2.2536 -1.6187 0.9871
1.4123 2.4220 -1.6187 0.9871
1.3232 2.4718 -1.6187 0.9871
1.2324 2.5183 -1.6187 0.9871
0.6573 2.7255 -1.6187 0.9871
0.5577 2.7477 -1.6187 0.9871
0.4573 2.7661 -1.6187 0.9871
0.3563 2.7810 -1.6187 0.9871
0.2548 2.7921 -1.6187 0.9871
0.1530 2.7995 -1.6187 0.9871
0.0510 2.8032 -1.6187 0.9871
