ply
format ascii 1.0
element vertex 514
property float32 x
property float32 y
property float32 z
property float32 I
end_header
-3.9600 -42.9913 7.6126 0.8392
3.9382 -45.0550 6.9285 0.8328
5.6280 -45.5273 7.0276 0.8306
7.3691 -46.0139 7.1389 0.8281
9.1687 -46.5169 7.2632 0.8254
-3.9569 -42.9579 5.6177 0.8403
-2.4322 -43.3528 5.6543 0.8393
-0.8886 -43.9050 5.7185 0.8377
7.3691 -46.0139 6.0683 0.8286
11.0344 -47.0384 6.2917 0.8229
14.3380 -46.0193 6.2768 0.8233
21.2790 -40.7664 5.9883 0.8307
-3.9599 -42.9901 4.6359 0.8406
5.6280 -45.5273 4.9260 0.8315
13.5459 -43.4768 4.8900 0.8326
-2.4332 -43.3705 3.6772 0.8400
-0.8861 -43.7819 3.7070 0.8388
3.9382 -45.0550 3.8286 0.8340
9.1686 -46.5169 4.0136 0.8267
6.3382 -23.2425 2.0394 0.9078
13.1488 -42.2023 3.7419 0.8374
14.6845 -41.7993 3.7504 0.8371
21.1114 -44.2377 4.1494 0.8214
21.2790 -40.7664 3.8928 0.8314
-3.9622 -43.0155 2.6787 0.8410
-0.8915 -44.0487 2.7320 0.8381
3.9382 -45.0550 2.8045 0.8342
7.3691 -46.0139 2.8897 0.8296
10.2097 -43.5226 2.7721 0.8360
15.8652 -40.4654 2.6952 0.8401
13.3710 -30.8099 2.0827 0.8741
20.0166 -41.9436 2.8819 0.8301
-2.4391 -43.4757 1.7170 0.8400
-0.8915 -44.0487 1.7372 0.8383
5.6280 -45.5273 1.8089 0.8322
7.3691 -46.0139 1.8375 0.8298
12.3236 -45.1913 1.8470 0.8290
13.1488 -42.2023 1.7430 0.8378
12.4009 -35.2990 1.4753 0.8609
16.9739 -39.1117 1.6812 0.8431
18.9218 -39.6495 1.7323 0.8387
20.9947 -40.2218 1.7890 0.8339
23.4347 -41.2274 1.8699 0.8271
25.8388 -41.8911 1.9408 0.8212
-3.9599 -42.9901 0.7292 0.8414
11.0344 -47.0384 0.8161 0.8242
13.1488 -42.2023 0.7467 0.8379
12.4008 -35.2990 0.6320 0.8610
18.0095 -37.7378 0.7063 0.8460
19.9825 -38.2824 0.7295 0.8413
-3.9599 -42.9901 -0.2431 0.8414
-2.4391 -43.4757 -0.2452 0.8401
5.6280 -45.5273 -0.2583 0.8324
9.1687 -46.5169 -0.2669 0.8272
11.0344 -47.0384 -0.2720 0.8243
12.3236 -45.1913 -0.2637 0.8291
12.4009 -35.2990 -0.2106 0.8610
15.3371 -35.3401 -0.2169 0.8572
17.0972 -35.8260 -0.2235 0.8532
18.9702 -36.3431 -0.2308 0.8488
23.1241 -37.4900 -0.2480 0.8385
-1.2178 -13.2206 -0.3738 0.9483
-2.4391 -43.4757 -1.2261 0.8401
-0.8886 -43.9037 -1.2365 0.8389
5.6280 -45.5273 -1.2917 0.8323
11.0344 -47.0384 -1.3605 0.8242
13.1488 -42.2024 -1.2447 0.8379
14.5526 -37.1177 -1.1226 0.8525
15.1576 -34.9265 -1.0721 0.8587
16.3673 -34.2966 -1.0701 0.8589
20.0773 -35.3209 -1.1440 0.8499
22.1370 -35.8895 -1.1873 0.8447
24.0902 -36.0968 -1.2220 0.8406
26.4805 -36.7567 -1.2756 0.8342
29.0937 -37.4781 -1.3360 0.8271
12.5215 -12.0800 -0.4899 0.9327
15.1799 -10.1290 -0.5139 0.9296
0.4639 -29.7262 -1.5077 0.8877
1.5246 -29.6543 -1.5059 0.8879
6.7711 -28.8643 -1.5036 0.8880
7.7933 -28.5783 -1.5022 0.8881
11.7758 -27.1341 -1.5001 0.8883
12.7287 -26.6722 -1.4988 0.8884
13.6726 -26.1939 -1.4985 0.8884
14.6007 -25.6862 -1.4984 0.8884
18.8748 -22.5955 -1.4931 0.8888
16.9704 -18.8974 -1.2881 0.9033
20.4213 -21.1643 -1.4915 0.8889
12.4907 -12.0502 -0.8802 0.9328
12.7077 -11.4101 -0.8661 0.9339
13.8968 -10.7860 -0.8921 0.9320
13.9769 -10.0676 -0.8736 0.9333
15.1816 -9.3625 -0.9046 0.9311
25.8563 -13.4937 -1.4791 0.8898
26.2988 -12.5479 -1.4778 0.8898
-1.1862 -12.8780 -0.9482 0.9495
-0.7147 -12.7391 -0.9355 0.9501
-0.2558 -12.6383 -0.9269 0.9506
0.2068 -13.2830 -0.9741 0.9481
1.0270 -19.9714 -1.4663 0.9229
5.2611 -19.2929 -1.4663 0.9229
5.9484 -19.0921 -1.4662 0.9229
7.9611 -18.3441 -1.4662 0.9229
9.2532 -17.7273 -1.4662 0.9229
9.8819 -17.3846 -1.4662 0.9229
10.4979 -17.0197 -1.4662 0.9229
11.6888 -16.2248 -1.4662 0.9229
12.8197 -15.3467 -1.4662 0.9229
13.3609 -14.8779 -1.4662 0.9229
12.6610 -12.2146 -1.2899 0.9319
13.8549 -10.7535 -1.2860 0.9321
14.0692 -10.1341 -1.2713 0.9328
16.6334 -11.0988 -1.4662 0.9229
15.1994 -9.3735 -1.3093 0.9309
17.7275 -9.2515 -1.4662 0.9229
-1.2000 -13.0275 -1.2560 0.9488
-0.7208 -12.8469 -1.2353 0.9496
-0.2568 -12.6861 -1.2182 0.9503
0.2116 -13.5872 -1.3046 0.9469
0.7844 -15.2529 -1.4663 0.9405
1.3299 -15.2150 -1.4663 0.9405
1.8738 -15.1576 -1.4663 0.9405
2.9535 -14.9846 -1.4663 0.9405
3.4881 -14.8692 -1.4663 0.9405
4.0182 -14.7348 -1.4663 0.9405
4.5431 -14.5814 -1.4663 0.9405
5.0622 -14.4094 -1.4663 0.9405
6.5779 -13.7835 -1.4662 0.9405
7.0671 -13.5392 -1.4662 0.9405
8.0177 -12.9987 -1.4662 0.9405
8.9273 -12.3916 -1.4662 0.9405
10.2043 -11.3630 -1.4662 0.9405
10.6961 -11.0853 -1.4789 0.9400
11.2279 -10.8321 -1.4978 0.9392
11.7740 -10.5717 -1.5191 0.9384
12.3281 -10.2964 -1.5421 0.9375
12.8870 -10.0023 -1.5662 0.9365
13.4642 -9.6983 -1.5930 0.9355
14.3315 -8.8382 -1.6165 0.9346
14.6577 -8.3303 -1.6186 0.9345
-0.2757 -13.6242 -1.6187 0.9466
0.6998 -13.6090 -1.6187 0.9466
3.5851 -13.1467 -1.6187 0.9466
4.0535 -13.0099 -1.6187 0.9466
4.5166 -12.8564 -1.6187 0.9466
5.4249 -12.5003 -1.6187 0.9466
6.3054 -12.0800 -1.6187 0.9466
7.1536 -11.5978 -1.6186 0.9466
7.5642 -11.3343 -1.6186 0.9466
8.7358 -10.4579 -1.6186 0.9466
9.4617 -9.8059 -1.6186 0.9466
10.1391 -9.1038 -1.6186 0.9466
10.4585 -8.7349 -1.6186 0.9466
11.3347 -7.5632 -1.6186 0.9466
11.5982 -7.1526 -1.6186 0.9466
11.8468 -6.7328 -1.6186 0.9466
12.0802 -6.3043 -1.6186 0.9466
12.2982 -5.8678 -1.6186 0.9466
-1.0479 -11.3762 -1.6187 0.9549
-0.6399 -11.4064 -1.6187 0.9549
-0.2312 -11.4220 -1.6187 0.9549
0.5867 -11.4092 -1.6187 0.9549
1.4016 -11.3379 -1.6187 0.9549
2.6091 -11.1222 -1.6187 0.9549
3.0056 -11.0217 -1.6187 0.9549
3.3982 -10.9070 -1.6187 0.9549
4.1700 -10.6358 -1.6187 0.9549
4.9203 -10.3102 -1.6187 0.9549
5.6454 -9.9316 -1.6187 0.9549
6.3416 -9.5022 -1.6187 0.9549
7.0052 -9.0241 -1.6186 0.9549
7.6330 -8.4996 -1.6186 0.9549
8.2215 -7.9317 -1.6186 0.9549
8.5002 -7.6322 -1.6186 0.9549
8.7680 -7.3230 -1.6186 0.9549
9.2695 -6.6768 -1.6186 0.9549
9.5026 -6.3407 -1.6186 0.9549
9.9319 -5.6445 -1.6186 0.9549
10.3103 -4.9194 -1.6186 0.9549
-0.5504 -9.8104 -1.6187 0.9609
-0.1988 -9.8238 -1.6187 0.9609
0.5046 -9.8128 -1.6187 0.9609
1.2055 -9.7515 -1.6187 0.9610
1.9002 -9.6403 -1.6187 0.9610
2.5851 -9.4796 -1.6187 0.9610
3.5865 -9.1477 -1.6187 0.9610
4.2319 -8.8676 -1.6187 0.9610
4.5466 -8.7104 -1.6187 0.9610
4.8555 -8.5421 -1.6187 0.9610
5.1582 -8.3627 -1.6187 0.9610
5.4543 -8.1727 -1.6187 0.9610
6.2991 -7.5408 -1.6187 0.9610
6.8225 -7.0707 -1.6187 0.9610
7.3109 -6.5644 -1.6186 0.9610
7.5413 -6.2984 -1.6186 0.9610
7.7619 -6.0244 -1.6186 0.9610
7.9726 -5.7427 -1.6186 0.9610
8.3631 -5.1575 -1.6186 0.9610
8.8678 -4.2311 -1.6186 0.9610
-0.4824 -8.5984 -1.6187 0.9656
0.7499 -8.5792 -1.6187 0.9656
1.0565 -8.5468 -1.6187 0.9656
1.3618 -8.5035 -1.6187 0.9656
1.6654 -8.4493 -1.6187 0.9656
1.9668 -8.3842 -1.6187 0.9656
2.2657 -8.3084 -1.6187 0.9656
2.5617 -8.2220 -1.6187 0.9656
2.8544 -8.1250 -1.6187 0.9656
3.4284 -7.8999 -1.6187 0.9656
3.7090 -7.7721 -1.6187 0.9656
3.9849 -7.6343 -1.6187 0.9656
4.2557 -7.4867 -1.6187 0.9656
4.7805 -7.1630 -1.6187 0.9656
5.0339 -6.9873 -1.6187 0.9656
5.2807 -6.8026 -1.6187 0.9656
5.5209 -6.6092 -1.6187 0.9656
5.7540 -6.4073 -1.6187 0.9656
6.6096 -5.5203 -1.6187 0.9656
6.9877 -5.0332 -1.6187 0.9656
7.6345 -3.9843 -1.6186 0.9656
-0.1550 -7.6562 -1.6187 0.9692
0.1192 -7.6569 -1.6187 0.9692
0.9395 -7.5999 -1.6187 0.9692
1.4809 -7.5132 -1.6187 0.9692
1.7489 -7.4553 -1.6187 0.9692
3.2982 -6.9110 -1.6187 0.9692
3.5434 -6.7885 -1.6187 0.9692
3.7842 -6.6573 -1.6187 0.9692
4.0201 -6.5175 -1.6187 0.9692
4.2508 -6.3695 -1.6187 0.9692
4.4761 -6.2132 -1.6187 0.9692
4.6957 -6.0489 -1.6187 0.9692
4.9092 -5.8770 -1.6187 0.9692
5.3172 -5.5106 -1.6187 0.9692
5.6978 -5.1160 -1.6187 0.9692
6.0493 -4.6952 -1.6187 0.9692
6.2135 -4.4756 -1.6187 0.9692
6.3697 -4.2503 -1.6187 0.9692
6.5178 -4.0195 -1.6187 0.9692
6.6575 -3.7836 -1.6187 0.9692
6.7887 -3.5428 -1.6187 0.9692
6.9112 -3.2975 -1.6187 0.9692
-0.6317 -6.8584 -1.6187 0.9721
-0.1394 -6.8860 -1.6187 0.9721
0.1072 -6.8866 -1.6187 0.9721
0.3537 -6.8783 -1.6187 0.9721
0.8450 -6.8354 -1.6187 0.9721
1.0892 -6.8007 -1.6187 0.9721
1.3319 -6.7574 -1.6187 0.9721
1.5730 -6.7054 -1.6187 0.9721
2.0487 -6.5756 -1.6187 0.9721
2.2828 -6.4980 -1.6187 0.9721
2.9663 -6.2158 -1.6187 0.9721
3.4035 -5.9876 -1.6187 0.9721
3.8232 -5.7287 -1.6187 0.9721
4.0258 -5.5882 -1.6187 0.9721
4.2233 -5.4404 -1.6187 0.9721
4.4154 -5.2858 -1.6187 0.9721
4.6018 -5.1243 -1.6187 0.9721
4.7823 -4.9563 -1.6187 0.9721
4.9566 -4.7819 -1.6187 0.9721
5.1246 -4.6013 -1.6187 0.9721
5.4408 -4.2229 -1.6187 0.9721
5.8621 -3.6152 -1.6187 0.9721
5.9878 -3.4030 -1.6187 0.9721
6.1058 -3.1864 -1.6187 0.9721
6.2160 -2.9658 -1.6187 0.9721
0.5444 -6.2280 -1.6187 0.9745
0.7670 -6.2046 -1.6187 0.9745
1.4278 -6.0865 -1.6187 0.9745
1.6448 -6.0315 -1.6187 0.9745
2.0722 -5.8984 -1.6187 0.9745
2.6926 -5.6421 -1.6187 0.9745
3.0894 -5.4350 -1.6187 0.9745
4.0079 -4.7980 -1.6187 0.9745
4.6517 -4.1767 -1.6187 0.9745
4.9387 -3.8331 -1.6187 0.9745
5.4352 -3.0889 -1.6187 0.9745
0.0890 -5.7172 -1.6187 0.9765
0.4979 -5.6962 -1.6187 0.9765
1.1057 -5.6100 -1.6187 0.9765
1.5043 -5.5165 -1.6187 0.9765
1.8952 -5.3947 -1.6187 0.9765
2.0871 -5.3233 -1.6187 0.9765
2.2763 -5.2452 -1.6187 0.9765
2.6458 -5.0689 -1.6187 0.9765
2.8256 -4.9709 -1.6187 0.9765
3.0017 -4.8666 -1.6187 0.9765
3.1740 -4.7560 -1.6187 0.9765
3.3423 -4.6393 -1.6187 0.9765
3.5062 -4.5167 -1.6187 0.9765
3.6656 -4.3882 -1.6187 0.9765
3.8204 -4.2542 -1.6187 0.9765
4.1150 -3.9699 -1.6187 0.9765
4.3885 -3.6653 -1.6187 0.9765
4.6395 -3.3419 -1.6187 0.9765
4.8668 -3.0013 -1.6187 0.9765
4.9711 -2.8252 -1.6187 0.9765
5.0691 -2.6454 -1.6187 0.9765
-0.4827 -5.2406 -1.6187 0.9782
0.0819 -5.2621 -1.6187 0.9782
0.2703 -5.2558 -1.6187 0.9782
0.4583 -5.2427 -1.6187 0.9782
0.6457 -5.2230 -1.6187 0.9782
0.8322 -5.1965 -1.6187 0.9782
1.2019 -5.1236 -1.6187 0.9782
1.9210 -4.8996 -1.6187 0.9782
2.0951 -4.8277 -1.6187 0.9782
2.6007 -4.5752 -1.6187 0.9782
3.0762 -4.2700 -1.6187 0.9782
3.3738 -4.0389 -1.6187 0.9782
3.5163 -3.9155 -1.6187 0.9782
3.7874 -3.6539 -1.6187 0.9782
3.9158 -3.5160 -1.6187 0.9782
4.0392 -3.3735 -1.6187 0.9782
4.2702 -3.0758 -1.6187 0.9782
4.4793 -2.7624 -1.6187 0.9782
4.5754 -2.6003 -1.6187 0.9782
4.6655 -2.4348 -1.6187 0.9782
-0.4467 -4.8492 -1.6187 0.9797
0.0758 -4.8691 -1.6187 0.9797
0.7701 -4.8084 -1.6187 0.9797
1.7775 -4.5336 -1.6187 0.9797
1.9386 -4.4671 -1.6187 0.9797
2.0973 -4.3948 -1.6187 0.9797
2.4064 -4.2335 -1.6187 0.9797
2.8464 -3.9511 -1.6187 0.9797
2.9861 -3.8466 -1.6187 0.9797
3.3813 -3.5043 -1.6187 0.9797
3.5045 -3.3810 -1.6187 0.9797
3.6234 -3.2533 -1.6187 0.9797
3.9513 -2.8461 -1.6187 0.9797
4.0506 -2.7028 -1.6187 0.9797
4.1448 -2.5561 -1.6187 0.9797
4.3171 -2.2529 -1.6187 0.9797
4.3950 -2.0970 -1.6187 0.9797
-0.4152 -4.5074 -1.6187 0.9810
-0.2536 -4.5194 -1.6187 0.9810
-0.0916 -4.5255 -1.6187 0.9810
0.2325 -4.5205 -1.6187 0.9810
0.3942 -4.5093 -1.6187 0.9810
0.5553 -4.4923 -1.6187 0.9810
1.0338 -4.4068 -1.6187 0.9810
1.6522 -4.2141 -1.6187 0.9810
1.9495 -4.0851 -1.6187 0.9810
2.0945 -4.0127 -1.6187 0.9810
2.5127 -3.7650 -1.6187 0.9810
2.6458 -3.6726 -1.6187 0.9810
3.1430 -3.2573 -1.6187 0.9810
3.3680 -3.0241 -1.6187 0.9810
3.4741 -2.9016 -1.6187 0.9810
3.6728 -2.6455 -1.6187 0.9810
3.7652 -2.5124 -1.6187 0.9810
3.8527 -2.3760 -1.6187 0.9810
4.0128 -2.0942 -1.6187 0.9810
-0.3874 -4.2062 -1.6187 0.9821
-0.0855 -4.2231 -1.6187 0.9821
0.0658 -4.2235 -1.6187 0.9821
0.6680 -4.1708 -1.6187 0.9821
0.9647 -4.1123 -1.6187 0.9821
1.2564 -4.0327 -1.6187 0.9821
1.4000 -3.9852 -1.6187 0.9821
1.5418 -3.9325 -1.6187 0.9821
1.9546 -3.7445 -1.6187 0.9821
2.0873 -3.6721 -1.6187 0.9821
2.2175 -3.5951 -1.6187 0.9821
2.3448 -3.5134 -1.6187 0.9821
2.4690 -3.4272 -1.6187 0.9821
2.5901 -3.3366 -1.6187 0.9821
2.7079 -3.2417 -1.6187 0.9821
2.8222 -3.1427 -1.6187 0.9821
3.0399 -2.9327 -1.6187 0.9821
3.1429 -2.8220 -1.6187 0.9821
3.3368 -2.5899 -1.6187 0.9821
3.4274 -2.4687 -1.6187 0.9821
3.5952 -2.2172 -1.6187 0.9821
3.6723 -2.0870 -1.6187 0.9821
3.8122 -1.8189 -1.6187 0.9821
-0.0800 -3.9543 -1.6187 0.9831
0.0616 -3.9546 -1.6187 0.9831
0.3444 -3.9400 -1.6187 0.9831
0.4852 -3.9252 -1.6187 0.9831
0.6254 -3.9053 -1.6187 0.9831
0.7648 -3.8804 -1.6187 0.9831
1.4436 -3.6821 -1.6187 0.9831
1.7034 -3.5694 -1.6187 0.9831
2.0763 -3.3662 -1.6187 0.9831
2.4253 -3.1242 -1.6187 0.9831
2.5355 -3.0353 -1.6187 0.9831
2.6426 -2.9426 -1.6187 0.9831
2.7462 -2.8461 -1.6187 0.9831
3.0355 -2.5353 -1.6187 0.9831
3.2899 -2.1952 -1.6187 0.9831
3.3663 -2.0760 -1.6187 0.9831
3.4385 -1.9542 -1.6187 0.9831
3.5695 -1.7031 -1.6187 0.9831
-0.3407 -3.6985 -1.6187 0.9839
-0.2080 -3.7084 -1.6187 0.9839
-0.0752 -3.7134 -1.6187 0.9839
0.0578 -3.7137 -1.6187 0.9839
0.4557 -3.6861 -1.6187 0.9839
0.7183 -3.6441 -1.6187 0.9839
1.1048 -3.5460 -1.6187 0.9839
1.3557 -3.4579 -1.6187 0.9839
1.7187 -3.2926 -1.6187 0.9839
1.8354 -3.2290 -1.6187 0.9839
1.9499 -3.1612 -1.6187 0.9839
2.1711 -3.0136 -1.6187 0.9839
2.3811 -2.8505 -1.6187 0.9839
2.4816 -2.7634 -1.6187 0.9839
2.5790 -2.6728 -1.6187 0.9839
2.6730 -2.5787 -1.6187 0.9839
2.7636 -2.4814 -1.6187 0.9839
2.8507 -2.3809 -1.6187 0.9839
2.9341 -2.2773 -1.6187 0.9839
3.1613 -1.9496 -1.6187 0.9839
3.2291 -1.8352 -1.6187 0.9839
3.3521 -1.5994 -1.6187 0.9839
-0.1959 -3.4915 -1.6187 0.9847
-0.0708 -3.4963 -1.6187 0.9847
0.0545 -3.4966 -1.6187 0.9847
0.1796 -3.4924 -1.6187 0.9847
0.3045 -3.4837 -1.6187 0.9847
0.5530 -3.4530 -1.6187 0.9847
0.6763 -3.4310 -1.6187 0.9847
0.7987 -3.4046 -1.6187 0.9847
1.0402 -3.3387 -1.6187 0.9847
1.1591 -3.2993 -1.6187 0.9847
1.2765 -3.2557 -1.6187 0.9847
1.5061 -3.1560 -1.6187 0.9847
1.6182 -3.1001 -1.6187 0.9847
1.7281 -3.0401 -1.6187 0.9847
1.9412 -2.9087 -1.6187 0.9847
2.0441 -2.8373 -1.6187 0.9847
2.1444 -2.7623 -1.6187 0.9847
2.2419 -2.6838 -1.6187 0.9847
2.6020 -2.3363 -1.6187 0.9847
2.6840 -2.2417 -1.6187 0.9847
2.9765 -1.8356 -1.6187 0.9847
3.0403 -1.7278 -1.6187 0.9847
-0.3027 -3.2860 -1.6187 0.9854
-0.1849 -3.2948 -1.6187 0.9854
-0.0668 -3.2993 -1.6187 0.9854
0.0514 -3.2996 -1.6187 0.9854
0.2873 -3.2874 -1.6187 0.9854
0.4049 -3.2750 -1.6187 0.9854
0.5218 -3.2584 -1.6187 0.9854
0.8682 -3.1837 -1.6187 0.9854
1.0938 -3.1134 -1.6187 0.9854
1.2045 -3.0723 -1.6187 0.9854
1.3137 -3.0271 -1.6187 0.9854
1.4213 -2.9782 -1.6187 0.9854
1.7324 -2.8086 -1.6187 0.9854
1.8318 -2.7448 -1.6187 0.9854
2.0235 -2.6067 -1.6187 0.9854
2.1155 -2.5326 -1.6187 0.9854
2.2049 -2.4552 -1.6187 0.9854
2.2913 -2.3747 -1.6187 0.9854
2.3749 -2.2912 -1.6187 0.9854
2.5327 -2.1154 -1.6187 0.9854
2.6068 -2.0233 -1.6187 0.9854
2.6776 -1.9287 -1.6187 0.9854
2.7449 -1.8316 -1.6187 0.9854
2.8690 -1.6305 -1.6187 0.9854
2.9255 -1.5267 -1.6187 0.9854
-0.2862 -3.1071 -1.6187 0.9860
-0.1748 -3.1153 -1.6187 0.9860
-0.0631 -3.1196 -1.6187 0.9860
0.2717 -3.1084 -1.6187 0.9860
0.7126 -3.0377 -1.6187 0.9860
1.1389 -2.9049 -1.6187 0.9860
1.2422 -2.8623 -1.6187 0.9860
1.4438 -2.7661 -1.6187 0.9860
1.7321 -2.5953 -1.6187 0.9860
1.8239 -2.5316 -1.6187 0.9860
1.9133 -2.4647 -1.6187 0.9860
2.1665 -2.2454 -1.6187 0.9860
2.4649 -1.9131 -1.6187 0.9860
2.5954 -1.7318 -1.6187 0.9860
2.7662 -1.4436 -1.6187 0.9860
2.8161 -1.3436 -1.6187 0.9860
-0.2711 -2.9430 -1.6187 0.9866
-0.0598 -2.9548 -1.6187 0.9866
0.0460 -2.9551 -1.6187 0.9866
0.1518 -2.9515 -1.6187 0.9866
0.2573 -2.9442 -1.6187 0.9866
0.5715 -2.8996 -1.6187 0.9866
0.7776 -2.8513 -1.6187 0.9866
1.0788 -2.7515 -1.6187 0.9866
1.1766 -2.7111 -1.6187 0.9866
1.3676 -2.6200 -1.6187 0.9866
1.5515 -2.5154 -1.6187 0.9866
1.6406 -2.4583 -1.6187 0.9866
1.7275 -2.3979 -1.6187 0.9866
1.8123 -2.3346 -1.6187 0.9866
2.1991 -1.9745 -1.6187 0.9866
2.2683 -1.8945 -1.6187 0.9866
2.3347 -1.8121 -1.6187 0.9866
2.4584 -1.6404 -1.6187 0.9866
2.5694 -1.4603 -1.6187 0.9866
2.6673 -1.2727 -1.6187 0.9866
-0.1570 -2.7993 -1.6187 0.9871
-0.0567 -2.8031 -1.6187 0.9871
0.2441 -2.7930 -1.6187 0.9871
0.3440 -2.7825 -1.6187 0.9871
0.4433 -2.7684 -1.6187 0.9871
1.2973 -2.4854 -1.6187 0.9871
1.6388 -2.2748 -1.6187 0.9871
1.7192 -2.2147 -1.6187 0.9871
1.7974 -2.1517 -1.6187 0.9871
1.9468 -2.0176 -1.6187 0.9871
2.0862 -1.8731 -1.6187 0.9871
2.4375 -1.3853 -1.6187 0.9871
2.5304 -1.2073 -1.6187 0.9871
