ply
format ascii 1.0
element vertex 487
property float32 x
property float32 y
property float32 z
property float32 I
end_header
6.0938 -45.6575 7.0565 0.8299
7.8501 -46.1484 7.1712 0.8274
6.0938 -45.6575 5.9983 0.8304
9.6670 -46.6562 6.2046 0.8251
11.5523 -47.1831 6.3257 0.8221
14.8775 -46.1683 6.3165 0.8223
6.0938 -45.6575 4.9463 0.8308
7.8502 -46.1484 5.0267 0.8283
9.6670 -46.6562 5.1164 0.8256
16.1281 -44.5217 5.0848 0.8265
6.0938 -45.6575 3.8993 0.8312
13.3567 -41.4490 3.6864 0.8396
15.1928 -41.9397 3.7761 0.8361
17.2813 -42.8483 3.9111 0.8307
19.5149 -43.7969 4.0589 0.8249
21.7245 -44.4069 4.1849 0.8200
27.7617 -19.5882 2.8762 0.8725
7.8502 -46.1484 2.9028 0.8289
9.6669 -46.6562 2.9546 0.8262
12.5568 -44.3467 2.8581 0.8313
22.8300 -42.7203 3.0036 0.8236
23.7939 -34.9124 2.6199 0.8442
27.3885 -20.8327 2.1338 0.8712
27.8895 -19.6784 2.1166 0.8721
6.0938 -45.6575 1.8163 0.8316
7.8501 -46.1484 1.8458 0.8291
9.6669 -46.6562 1.8788 0.8264
11.5523 -47.1832 1.9154 0.8233
12.5568 -44.3467 1.8174 0.8315
13.3567 -41.4490 1.7171 0.8400
14.0740 -38.8512 1.6294 0.8475
17.4909 -39.2545 1.6945 0.8420
19.4713 -39.8012 1.7471 0.8375
21.5813 -40.3837 1.8055 0.8325
17.2131 -18.7961 1.0050 0.9030
27.8895 -19.6784 1.3459 0.8723
7.8501 -46.1484 0.7907 0.8292
9.6670 -46.6562 0.8048 0.8265
12.5568 -44.3467 0.7785 0.8316
14.0740 -38.8512 0.6980 0.8476
16.6476 -37.3618 0.6909 0.8491
20.5408 -38.4366 0.7362 0.8400
25.0039 -39.6688 0.7921 0.8290
27.7852 -40.7686 0.8334 0.8209
27.8895 -19.6784 0.5766 0.8724
7.8501 -46.1484 -0.2636 0.8292
9.6670 -46.6562 -0.2683 0.8265
14.0740 -38.8512 -0.2326 0.8476
21.5412 -37.0529 -0.2413 0.8424
26.1130 -38.3151 -0.2611 0.8307
7.8501 -46.1484 -1.3181 0.8292
9.6669 -46.6562 -1.3416 0.8264
13.3568 -41.4491 -1.2262 0.8401
14.0740 -38.8513 -1.1635 0.8476
14.7222 -36.5032 -1.1083 0.8543
15.3125 -34.3654 -1.0594 0.8602
16.8426 -34.4279 -1.0792 0.8578
20.6216 -35.4712 -1.1553 0.8486
24.7196 -36.2706 -1.2359 0.8389
27.1671 -36.9463 -1.2913 0.8323
17.1179 -18.6920 -0.7137 0.9036
12.6915 -11.1739 -0.4761 0.9346
4.9789 -29.2696 -1.5057 0.8879
8.0675 -28.4925 -1.5018 0.8882
11.0697 -27.4469 -1.5009 0.8882
12.0346 -27.0091 -1.4996 0.8883
12.9829 -26.5383 -1.4983 0.8884
13.9291 -26.0648 -1.4988 0.8884
17.4687 -23.7568 -1.4955 0.8886
17.0497 -18.6176 -1.2803 0.9038
12.6225 -12.8291 -0.9127 0.9305
12.5437 -11.8676 -0.8757 0.9332
12.7688 -11.2420 -0.8628 0.9341
13.7726 -11.2767 -0.9027 0.9312
13.9880 -10.6398 -0.8913 0.9320
25.5143 -14.1724 -1.4802 0.8897
26.7949 -11.3160 -1.4751 0.8900
27.4687 -9.3467 -1.4715 0.8903
2.6454 -19.8208 -1.4662 0.9229
3.3534 -19.7132 -1.4662 0.9229
4.0570 -19.5803 -1.4662 0.9229
8.7868 -17.9612 -1.4661 0.9229
9.4242 -17.6350 -1.4661 0.9229
10.6619 -16.9152 -1.4661 0.9229
11.2606 -16.5225 -1.4661 0.9229
11.8449 -16.1086 -1.4661 0.9229
12.4140 -15.6741 -1.4661 0.9229
10.2190 -11.9941 -1.1553 0.9388
13.5037 -14.7455 -1.4660 0.9229
12.6416 -12.8486 -1.3216 0.9303
12.6161 -11.9360 -1.2734 0.9327
13.9470 -11.4194 -1.3217 0.9303
13.8764 -10.5550 -1.2783 0.9325
15.2654 -9.2096 -1.3072 0.9310
17.4784 -9.7087 -1.4660 0.9229
18.1282 -8.4330 -1.4660 0.9229
18.4184 -7.7785 -1.4660 0.9229
18.6851 -7.1140 -1.4660 0.9229
18.9278 -6.4405 -1.4660 0.9229
19.4902 -5.8621 -1.4923 0.9216
20.9458 -4.6959 -1.5739 0.9175
3.6319 -14.8337 -1.4662 0.9405
4.1607 -14.6941 -1.4662 0.9405
5.7122 -14.1631 -1.4661 0.9405
6.2156 -13.9494 -1.4661 0.9405
6.7110 -13.7179 -1.4661 0.9405
7.1978 -13.4688 -1.4661 0.9405
7.6754 -13.2024 -1.4661 0.9405
8.1431 -12.9190 -1.4661 0.9405
8.6004 -12.6192 -1.4661 0.9405
9.4813 -11.9712 -1.4661 0.9405
9.9038 -11.6241 -1.4661 0.9405
10.8396 -11.0170 -1.4838 0.9398
11.9254 -10.4994 -1.5254 0.9381
13.0424 -9.9205 -1.5732 0.9363
14.0690 -9.1905 -1.6133 0.9347
14.4263 -8.7034 -1.6175 0.9345
15.2848 -7.1103 -1.6184 0.9345
15.5296 -6.5585 -1.6184 0.9345
15.7544 -5.9982 -1.6184 0.9345
15.9590 -5.4303 -1.6184 0.9345
16.1432 -4.8554 -1.6184 0.9345
16.3067 -4.2744 -1.6184 0.9345
1.8027 -13.5065 -1.6186 0.9466
2.7646 -13.3427 -1.6186 0.9466
3.2405 -13.2351 -1.6186 0.9466
5.0966 -12.6368 -1.6186 0.9466
5.5458 -12.4462 -1.6186 0.9466
5.9878 -12.2396 -1.6185 0.9466
6.8483 -11.7796 -1.6185 0.9466
8.0718 -10.9773 -1.6185 0.9466
8.4596 -10.6812 -1.6185 0.9466
8.8366 -10.3715 -1.6185 0.9466
9.5560 -9.7125 -1.6185 0.9466
10.2265 -9.0037 -1.6185 0.9466
10.5423 -8.6318 -1.6185 0.9466
11.1329 -7.8552 -1.6185 0.9466
11.6664 -7.0384 -1.6185 0.9466
11.9109 -6.6161 -1.6185 0.9466
12.1401 -6.1854 -1.6185 0.9466
12.3538 -5.7468 -1.6185 0.9466
12.5516 -5.3008 -1.6185 0.9466
13.1797 -3.4547 -1.6185 0.9466
13.2949 -2.9806 -1.6185 0.9466
1.9158 -11.2619 -1.6186 0.9549
2.3177 -11.1860 -1.6186 0.9549
2.7167 -11.0958 -1.6186 0.9549
3.1122 -10.9914 -1.6186 0.9549
4.6494 -10.4344 -1.6186 0.9549
5.0200 -10.2613 -1.6186 0.9549
5.3841 -10.0749 -1.6186 0.9549
6.4333 -9.4394 -1.6185 0.9549
7.0923 -8.9548 -1.6185 0.9549
7.4083 -8.6951 -1.6185 0.9549
7.7148 -8.4243 -1.6185 0.9549
8.2979 -7.8506 -1.6185 0.9549
8.5736 -7.5484 -1.6185 0.9549
8.8383 -7.2366 -1.6185 0.9549
9.0917 -6.9155 -1.6185 0.9549
9.3335 -6.5856 -1.6185 0.9549
9.7808 -5.9007 -1.6185 0.9549
9.9858 -5.5468 -1.6185 0.9549
10.3571 -4.8180 -1.6185 0.9549
10.5229 -4.4440 -1.6185 0.9549
10.9387 -3.2901 -1.6185 0.9549
1.6477 -9.6862 -1.6186 0.9610
1.9934 -9.6209 -1.6186 0.9610
2.3366 -9.5434 -1.6186 0.9610
3.0135 -9.3517 -1.6186 0.9610
4.3176 -8.8256 -1.6186 0.9610
4.6308 -8.6653 -1.6186 0.9610
6.3718 -7.4786 -1.6185 0.9610
6.6354 -7.2456 -1.6185 0.9610
6.8906 -7.0034 -1.6185 0.9610
7.1369 -6.7522 -1.6185 0.9610
7.3741 -6.4923 -1.6185 0.9610
7.8197 -5.9480 -1.6185 0.9610
8.0276 -5.6642 -1.6185 0.9610
8.5887 -4.7707 -1.6185 0.9610
8.7540 -4.4602 -1.6185 0.9610
9.0507 -3.8223 -1.6185 0.9610
9.1817 -3.4958 -1.6185 0.9610
9.3010 -3.1648 -1.6185 0.9610
9.4083 -2.8298 -1.6185 0.9610
9.5867 -2.1493 -1.6185 0.9610
1.1393 -8.5358 -1.6186 0.9656
1.7472 -8.4324 -1.6186 0.9656
2.3461 -8.2857 -1.6186 0.9656
3.2210 -7.9863 -1.6186 0.9656
3.5048 -7.8658 -1.6186 0.9656
4.0587 -7.5948 -1.6186 0.9656
4.3280 -7.4446 -1.6186 0.9656
4.8496 -7.1158 -1.6186 0.9656
5.5846 -6.5547 -1.6186 0.9656
6.0394 -6.1382 -1.6186 0.9656
6.8537 -5.2132 -1.6185 0.9656
7.2092 -4.7094 -1.6185 0.9656
7.6725 -3.9092 -1.6185 0.9656
7.9326 -3.3501 -1.6185 0.9656
8.1520 -2.7739 -1.6185 0.9656
8.4024 -1.8837 -1.6185 0.9656
1.0130 -7.5901 -1.6186 0.9692
1.5536 -7.4981 -1.6186 0.9692
2.0862 -7.3677 -1.6186 0.9692
2.6080 -7.1995 -1.6186 0.9692
3.3650 -6.8783 -1.6186 0.9692
3.8485 -6.6198 -1.6186 0.9692
4.7541 -6.0026 -1.6186 0.9692
5.7471 -5.0599 -1.6186 0.9692
5.9245 -4.8509 -1.6186 0.9692
6.2565 -4.4145 -1.6186 0.9692
6.4105 -4.1876 -1.6185 0.9692
6.6937 -3.7181 -1.6185 0.9692
6.8225 -3.4761 -1.6185 0.9692
7.1559 -2.7245 -1.6185 0.9692
7.2489 -2.4665 -1.6185 0.9692
7.3325 -2.2054 -1.6185 0.9692
7.4715 -1.6751 -1.6185 0.9692
1.3973 -6.7438 -1.6186 0.9721
2.1124 -6.5551 -1.6186 0.9721
2.3457 -6.4752 -1.6186 0.9721
2.5760 -6.3871 -1.6186 0.9721
2.8030 -6.2908 -1.6186 0.9721
3.4614 -5.9539 -1.6186 0.9721
3.6723 -5.8262 -1.6186 0.9721
4.6512 -5.0789 -1.6186 0.9721
4.8300 -4.9091 -1.6186 0.9721
5.0027 -4.7330 -1.6186 0.9721
5.1689 -4.5509 -1.6186 0.9721
5.4814 -4.1693 -1.6186 0.9721
5.8968 -3.5575 -1.6186 0.9721
6.0204 -3.3441 -1.6186 0.9721
6.4361 -2.4504 -1.6186 0.9721
6.5197 -2.2185 -1.6185 0.9721
6.5949 -1.9836 -1.6185 0.9721
0.8270 -6.1966 -1.6186 0.9745
1.0484 -6.1630 -1.6186 0.9745
1.4867 -6.0721 -1.6186 0.9745
2.1292 -5.8777 -1.6186 0.9745
2.3383 -5.7977 -1.6186 0.9745
2.5444 -5.7102 -1.6186 0.9745
2.9465 -5.5135 -1.6186 0.9745
3.1420 -5.4045 -1.6186 0.9745
3.3334 -5.2885 -1.6186 0.9745
3.8813 -4.9006 -1.6186 0.9745
4.0542 -4.7584 -1.6186 0.9745
4.2220 -4.6102 -1.6186 0.9745
4.6920 -4.1309 -1.6186 0.9745
5.1078 -3.6040 -1.6186 0.9745
5.2336 -3.4188 -1.6186 0.9745
5.7588 -2.4321 -1.6186 0.9745
5.9180 -2.0137 -1.6186 0.9745
6.0470 -1.5851 -1.6186 0.9745
6.0999 -1.3675 -1.6186 0.9745
0.7564 -5.6674 -1.6186 0.9765
0.9589 -5.6367 -1.6186 0.9765
2.1386 -5.3026 -1.6186 0.9765
2.3271 -5.2226 -1.6186 0.9765
2.8737 -4.9429 -1.6186 0.9765
3.0488 -4.8369 -1.6186 0.9765
3.2200 -4.7246 -1.6186 0.9765
3.3871 -4.6063 -1.6186 0.9765
3.5498 -4.4821 -1.6186 0.9765
3.8615 -4.2166 -1.6186 0.9765
4.0099 -4.0756 -1.6186 0.9765
4.5507 -3.4614 -1.6186 0.9765
4.6717 -3.2962 -1.6186 0.9765
4.7867 -3.1269 -1.6186 0.9765
4.8955 -2.9535 -1.6186 0.9765
4.9982 -2.7763 -1.6186 0.9765
5.0943 -2.5956 -1.6186 0.9765
5.1840 -2.4115 -1.6186 0.9765
5.4127 -1.8418 -1.6186 0.9765
5.4751 -1.6468 -1.6186 0.9765
0.6962 -5.2162 -1.6186 0.9782
0.8825 -5.1880 -1.6186 0.9782
1.6141 -5.0088 -1.6186 0.9782
1.7924 -4.9478 -1.6186 0.9782
1.9683 -4.8805 -1.6186 0.9782
2.3125 -4.7271 -1.6186 0.9782
2.4803 -4.6413 -1.6186 0.9782
2.8061 -4.4519 -1.6186 0.9782
3.1175 -4.2396 -1.6186 0.9782
3.2672 -4.1253 -1.6186 0.9782
3.4128 -4.0057 -1.6186 0.9782
3.8227 -3.6166 -1.6186 0.9782
3.9497 -3.4774 -1.6186 0.9782
4.0717 -3.3338 -1.6186 0.9782
4.2998 -3.0338 -1.6186 0.9782
4.4056 -2.8779 -1.6186 0.9782
4.6003 -2.5553 -1.6186 0.9782
4.6888 -2.3889 -1.6186 0.9782
4.7713 -2.2196 -1.6186 0.9782
4.8478 -2.0473 -1.6186 0.9782
4.9179 -1.8724 -1.6186 0.9782
5.0393 -1.5157 -1.6186 0.9782
0.6442 -4.8267 -1.6186 0.9797
0.9880 -4.7682 -1.6186 0.9797
1.8214 -4.5160 -1.6186 0.9797
2.1399 -4.3740 -1.6186 0.9797
2.2951 -4.2946 -1.6186 0.9797
2.5965 -4.1194 -1.6186 0.9797
2.7423 -4.0237 -1.6186 0.9797
2.8846 -3.9230 -1.6186 0.9797
3.0232 -3.8172 -1.6186 0.9797
3.2886 -3.5910 -1.6186 0.9797
3.5372 -3.3465 -1.6186 0.9797
3.8756 -2.9479 -1.6186 0.9797
3.9787 -2.8073 -1.6186 0.9797
4.1693 -2.5154 -1.6186 0.9797
4.2567 -2.3645 -1.6186 0.9797
4.3386 -2.2105 -1.6186 0.9797
4.4150 -2.0538 -1.6186 0.9797
4.5506 -1.7326 -1.6186 0.9797
4.6629 -1.4025 -1.6186 0.9797
4.7102 -1.2346 -1.6186 0.9797
4.7514 -1.0652 -1.6186 0.9797
0.5988 -4.4865 -1.6186 0.9810
0.7591 -4.4622 -1.6186 0.9810
0.9183 -4.4321 -1.6186 0.9810
1.5416 -4.2556 -1.6186 0.9810
1.9891 -4.0658 -1.6186 0.9810
2.2749 -3.9130 -1.6186 0.9810
3.0569 -3.3380 -1.6186 0.9810
3.5021 -2.8674 -1.6186 0.9810
3.6025 -2.7402 -1.6186 0.9810
3.7893 -2.4754 -1.6186 0.9810
3.9567 -2.1978 -1.6186 0.9810
4.0329 -2.0548 -1.6186 0.9810
4.1696 -1.7609 -1.6186 0.9810
4.3343 -1.3037 -1.6186 0.9810
0.7083 -4.1640 -1.6186 0.9821
0.8570 -4.1359 -1.6186 0.9821
1.0045 -4.1026 -1.6186 0.9821
1.4386 -3.9712 -1.6186 0.9821
1.5798 -3.9172 -1.6186 0.9821
1.7191 -3.8581 -1.6186 0.9821
1.9908 -3.7252 -1.6186 0.9821
2.1229 -3.6515 -1.6186 0.9821
2.2522 -3.5732 -1.6186 0.9821
2.3787 -3.4902 -1.6186 0.9821
2.6224 -3.3111 -1.6186 0.9821
2.7392 -3.2150 -1.6186 0.9821
2.8526 -3.1149 -1.6186 0.9821
2.9623 -3.0108 -1.6186 0.9821
3.0682 -2.9028 -1.6186 0.9821
3.1701 -2.7911 -1.6186 0.9821
3.3617 -2.5571 -1.6186 0.9821
3.4511 -2.4350 -1.6186 0.9821
3.6165 -2.1819 -1.6186 0.9821
3.8296 -1.7815 -1.6186 0.9821
3.8909 -1.6432 -1.6186 0.9821
3.9985 -1.3606 -1.6186 0.9821
4.0857 -1.0709 -1.6186 0.9821
0.5232 -3.9201 -1.6186 0.9831
0.6632 -3.8989 -1.6186 0.9831
0.9405 -3.8414 -1.6186 0.9831
1.2130 -3.7642 -1.6186 0.9831
1.4793 -3.6678 -1.6186 0.9831
1.8640 -3.4880 -1.6186 0.9831
2.2273 -3.2680 -1.6186 0.9831
2.3429 -3.1862 -1.6186 0.9831
2.8728 -2.7180 -1.6186 0.9831
2.9683 -2.6134 -1.6186 0.9831
3.0600 -2.5054 -1.6186 0.9831
3.1477 -2.3943 -1.6186 0.9831
3.3110 -2.1629 -1.6186 0.9831
3.3863 -2.0429 -1.6186 0.9831
3.6960 -1.4072 -1.6186 0.9831
3.7440 -1.2740 -1.6186 0.9831
3.7872 -1.1391 -1.6186 0.9831
3.8256 -1.0028 -1.6186 0.9831
0.6229 -3.6614 -1.6186 0.9839
1.0119 -3.5735 -1.6186 0.9839
1.1391 -3.5350 -1.6186 0.9839
1.2650 -3.4920 -1.6186 0.9839
1.3892 -3.4444 -1.6186 0.9839
1.5116 -3.3925 -1.6186 0.9839
1.6321 -3.3362 -1.6186 0.9839
1.7505 -3.2756 -1.6186 0.9839
1.8667 -3.2108 -1.6186 0.9839
1.9804 -3.1419 -1.6186 0.9839
2.3059 -2.9115 -1.6186 0.9839
2.6048 -2.6474 -1.6186 0.9839
2.6979 -2.5524 -1.6186 0.9839
2.8736 -2.3528 -1.6186 0.9839
3.0346 -2.1412 -1.6186 0.9839
3.1093 -2.0312 -1.6186 0.9839
3.1801 -1.9185 -1.6186 0.9839
3.2467 -1.8034 -1.6186 0.9839
3.3674 -1.5665 -1.6186 0.9839
3.4214 -1.4449 -1.6186 0.9839
3.5566 -1.0697 -1.6186 0.9839
0.4626 -3.4661 -1.6186 0.9847
0.5864 -3.4473 -1.6186 0.9847
0.9527 -3.3646 -1.6186 0.9847
1.0725 -3.3283 -1.6186 0.9847
1.3080 -3.2430 -1.6186 0.9847
1.5367 -3.1411 -1.6186 0.9847
1.9693 -2.8896 -1.6186 0.9847
2.0715 -2.8172 -1.6186 0.9847
2.3616 -2.5788 -1.6186 0.9847
2.4525 -2.4926 -1.6186 0.9847
2.5401 -2.4032 -1.6186 0.9847
2.6245 -2.3107 -1.6186 0.9847
2.7056 -2.2153 -1.6186 0.9847
2.7832 -2.1170 -1.6186 0.9847
2.8572 -2.0160 -1.6186 0.9847
2.9941 -1.8063 -1.6186 0.9847
3.1157 -1.5874 -1.6186 0.9847
3.2213 -1.3604 -1.6186 0.9847
3.2679 -1.2442 -1.6186 0.9847
3.3104 -1.1264 -1.6186 0.9847
3.3825 -0.8866 -1.6186 0.9847
3.4121 -0.7650 -1.6186 0.9847
0.4366 -3.2708 -1.6186 0.9854
0.5534 -3.2531 -1.6186 0.9854
0.8990 -3.1750 -1.6186 0.9854
1.0121 -3.1408 -1.6186 0.9854
1.1239 -3.1025 -1.6186 0.9854
1.2342 -3.0603 -1.6186 0.9854
1.3430 -3.0141 -1.6186 0.9854
1.8584 -2.7267 -1.6186 0.9854
1.9548 -2.6584 -1.6186 0.9854
2.1400 -2.5117 -1.6186 0.9854
2.2286 -2.4335 -1.6186 0.9854
2.3143 -2.3522 -1.6186 0.9854
2.3970 -2.2678 -1.6186 0.9854
2.4767 -2.1805 -1.6186 0.9854
2.6962 -1.9024 -1.6186 0.9854
2.8254 -1.7046 -1.6186 0.9854
2.9401 -1.4980 -1.6186 0.9854
2.9919 -1.3918 -1.6186 0.9854
3.0398 -1.2838 -1.6186 0.9854
3.0838 -1.1741 -1.6186 0.9854
3.2198 -0.7219 -1.6186 0.9854
0.4128 -3.0927 -1.6186 0.9860
0.5233 -3.0759 -1.6186 0.9860
0.6330 -3.0552 -1.6186 0.9860
1.2699 -2.8499 -1.6186 0.9860
1.4706 -2.7518 -1.6186 0.9860
1.5682 -2.6974 -1.6186 0.9860
1.6637 -2.6395 -1.6186 0.9860
1.7571 -2.5782 -1.6186 0.9860
1.9371 -2.4459 -1.6186 0.9860
2.0235 -2.3749 -1.6186 0.9860
2.2664 -2.1443 -1.6186 0.9860
2.4833 -1.8889 -1.6186 0.9860
2.6715 -1.6117 -1.6186 0.9860
2.8289 -1.3160 -1.6186 0.9860
2.8742 -1.2139 -1.6186 0.9860
2.9878 -0.8987 -1.6186 0.9860
0.4956 -2.9135 -1.6186 0.9866
0.9065 -2.8129 -1.6186 0.9866
1.2028 -2.6995 -1.6186 0.9866
1.2987 -2.6547 -1.6186 0.9866
1.4853 -2.5549 -1.6186 0.9866
1.6644 -2.4421 -1.6186 0.9866
1.7507 -2.3809 -1.6186 0.9866
1.8348 -2.3167 -1.6186 0.9866
1.9959 -2.1795 -1.6186 0.9866
2.0727 -2.1066 -1.6186 0.9866
2.3522 -1.7891 -1.6186 0.9866
2.4147 -1.7038 -1.6186 0.9866
2.4742 -1.6162 -1.6186 0.9866
2.5835 -1.4350 -1.6186 0.9866
2.7225 -1.1498 -1.6186 0.9866
2.8300 -0.8512 -1.6186 0.9866
2.8837 -0.6465 -1.6186 0.9866
0.5688 -2.7453 -1.6186 0.9871
0.7638 -2.6975 -1.6186 0.9871
0.8599 -2.6684 -1.6186 0.9871
0.9549 -2.6359 -1.6186 0.9871
1.0487 -2.6000 -1.6186 0.9871
1.3214 -2.4726 -1.6186 0.9871
1.4091 -2.4237 -1.6186 0.9871
1.5789 -2.3167 -1.6186 0.9871
1.7406 -2.1977 -1.6186 0.9871
1.8182 -2.1340 -1.6186 0.9871
1.9662 -1.9984 -1.6186 0.9871
2.0365 -1.9268 -1.6186 0.9871
2.1692 -1.7761 -1.6186 0.9871
2.2907 -1.6163 -1.6186 0.9871
2.3471 -1.5332 -1.6186 0.9871
2.4005 -1.4482 -1.6186 0.9871
2.4508 -1.3614 -1.6186 0.9871
2.7119 -0.7108 -1.6186 0.9871
