ply
format ascii 1.0
element vertex 359
property float32 x
property float32 y
property float32 z
property float32 I
end_header
38.3777 25.2543 0.7761 0.8321
18.2043 28.8542 0.5763 0.8724
39.8531 28.3017 -0.2752 0.8224
17.5731 30.1762 -0.1966 0.8696
17.5731 30.1762 -0.9833 0.8696
30.9886 7.1594 -1.6130 0.8804
30.5070 9.3715 -1.6185 0.8800
30.1553 10.4483 -1.6185 0.8800
29.7656 11.5119 -1.6185 0.8800
29.3384 12.5611 -1.6185 0.8800
28.8742 13.5943 -1.6185 0.8800
28.3737 14.6105 -1.6185 0.8800
27.2660 16.5864 -1.6185 0.8800
22.3503 22.7830 -1.6186 0.8800
15.6212 19.7449 -1.2768 0.9041
17.1222 23.2957 -1.4662 0.8907
16.2847 23.8888 -1.4662 0.8907
13.6537 25.4847 -1.4662 0.8907
11.8117 26.3892 -1.4663 0.8907
10.8678 26.7920 -1.4663 0.8907
9.9102 27.1609 -1.4663 0.8907
21.1015 6.4822 -1.6186 0.9153
20.8582 7.2270 -1.6186 0.9153
20.5886 7.9627 -1.6186 0.9153
20.2931 8.6883 -1.6186 0.9153
18.4406 12.1347 -1.6186 0.9153
17.0465 14.0261 -1.6186 0.9153
16.0087 15.2000 -1.6186 0.9153
14.8614 16.2656 -1.6155 0.9154
12.9560 15.2324 -1.4662 0.9229
10.6703 16.9127 -1.4662 0.9229
8.8124 17.9512 -1.4663 0.9229
7.5169 18.5312 -1.4663 0.9229
6.8546 18.7863 -1.4663 0.9229
16.4268 3.7952 -1.6186 0.9345
16.1162 4.9508 -1.6186 0.9345
15.4988 6.6357 -1.6186 0.9345
14.7058 8.2455 -1.6186 0.9345
13.0192 10.7123 -1.6186 0.9345
12.6308 11.1677 -1.6186 0.9345
12.2266 11.6089 -1.6186 0.9345
11.8029 12.0314 -1.6181 0.9345
10.3017 11.2751 -1.4662 0.9405
9.4760 11.9775 -1.4663 0.9405
9.0450 12.3062 -1.4663 0.9405
8.6026 12.6195 -1.4663 0.9405
8.1494 12.9169 -1.4663 0.9405
7.2126 13.4625 -1.4663 0.9405
6.7304 13.7100 -1.4663 0.9405
5.7410 14.1529 -1.4663 0.9405
5.2351 14.3478 -1.4663 0.9405
12.7090 4.9152 -1.6186 0.9466
12.5266 5.3631 -1.6186 0.9466
11.3830 7.4905 -1.6186 0.9466
10.8231 8.2791 -1.6186 0.9466
10.5225 8.6580 -1.6186 0.9466
10.2086 9.0260 -1.6186 0.9466
9.8818 9.3826 -1.6186 0.9466
9.1533 10.0182 -1.6119 0.9468
7.6588 9.6805 -1.4663 0.9515
7.3104 9.9462 -1.4663 0.9515
6.9528 10.1994 -1.4663 0.9515
6.5865 10.4397 -1.4663 0.9515
5.4396 11.0807 -1.4663 0.9515
2.9340 6.5550 -0.8531 0.9715
2.7336 6.7389 -0.8638 0.9711
4.2311 11.5962 -1.4663 0.9515
10.7943 3.7400 -1.6186 0.9549
10.6548 4.1208 -1.6186 0.9549
10.5018 4.4963 -1.6186 0.9549
10.3356 4.8662 -1.6186 0.9549
9.7599 5.9371 -1.6186 0.9549
9.5431 6.2798 -1.6186 0.9549
8.5585 7.5670 -1.6187 0.9549
8.2845 7.8660 -1.6187 0.9549
8.0002 8.1551 -1.6187 0.9549
7.7034 8.4313 -1.6182 0.9549
7.3695 8.6643 -1.6117 0.9551
6.4208 8.1157 -1.4663 0.9591
5.2078 8.9427 -1.4663 0.9591
4.5603 9.2896 -1.4663 0.9591
9.2840 3.2168 -1.6186 0.9610
9.1640 3.5442 -1.6186 0.9610
9.0325 3.8672 -1.6186 0.9610
8.8896 4.1853 -1.6186 0.9610
8.7354 4.4982 -1.6187 0.9610
8.2079 5.4012 -1.6187 0.9610
8.0111 5.6890 -1.6187 0.9610
7.8041 5.9698 -1.6187 0.9610
7.5873 6.2430 -1.6187 0.9610
7.3610 6.5083 -1.6187 0.9610
7.1254 6.7654 -1.6187 0.9610
5.5416 7.5397 -1.5415 0.9628
4.7493 7.5277 -1.4663 0.9646
4.2034 7.8456 -1.4663 0.9646
8.3906 1.9385 -1.6186 0.9656
8.2320 2.5288 -1.6187 0.9656
8.1371 2.8194 -1.6187 0.9656
7.9166 3.3894 -1.6187 0.9656
7.7913 3.6683 -1.6187 0.9656
7.6562 3.9425 -1.6187 0.9656
7.5115 4.2117 -1.6187 0.9656
7.3573 4.4756 -1.6187 0.9656
7.1939 4.7339 -1.6187 0.9656
7.0213 4.9862 -1.6187 0.9656
5.8088 6.3577 -1.6187 0.9656
5.5795 6.5599 -1.6187 0.9656
5.0921 6.9280 -1.6161 0.9656
3.4377 7.0028 -1.4663 0.9687
2.9084 6.4977 -1.3381 0.9714
7.4610 1.7238 -1.6187 0.9692
7.3952 1.9875 -1.6187 0.9692
7.3200 2.2486 -1.6187 0.9692
7.2356 2.5070 -1.6187 0.9692
7.1420 2.7622 -1.6187 0.9692
7.0395 3.0139 -1.6187 0.9692
6.5422 3.9798 -1.6187 0.9692
6.0822 4.6526 -1.6187 0.9692
5.9133 4.8655 -1.6187 0.9692
5.7369 5.0723 -1.6187 0.9692
5.3626 5.4665 -1.6187 0.9692
4.9614 5.8331 -1.6187 0.9692
4.5351 6.1703 -1.6187 0.9692
4.3133 6.3274 -1.6187 0.9692
4.0768 6.4618 -1.6150 0.9692
2.3777 6.5166 -1.4663 0.9720
6.6513 1.7875 -1.6187 0.9721
6.5836 2.0224 -1.6187 0.9721
6.5077 2.2548 -1.6187 0.9721
6.3314 2.7107 -1.6187 0.9721
6.1232 3.1530 -1.6187 0.9721
6.0074 3.3683 -1.6187 0.9721
5.6154 3.9878 -1.6187 0.9721
5.4703 4.1845 -1.6187 0.9721
5.3184 4.3760 -1.6187 0.9721
5.1597 4.5620 -1.6187 0.9721
4.8232 4.9165 -1.6187 0.9721
4.6456 5.0846 -1.6187 0.9721
4.4623 5.2463 -1.6187 0.9721
4.0789 5.5496 -1.6187 0.9721
3.8794 5.6909 -1.6187 0.9721
3.6750 5.8250 -1.6187 0.9721
3.4651 5.9503 -1.6183 0.9721
3.0224 6.1568 -1.6119 0.9722
2.1397 5.8642 -1.4671 0.9747
5.7471 2.4606 -1.6187 0.9745
4.9655 3.7984 -1.6187 0.9745
4.6836 4.1410 -1.6187 0.9745
4.2169 4.6154 -1.6187 0.9745
3.8789 4.9029 -1.6187 0.9745
3.7025 5.0374 -1.6187 0.9745
2.9524 5.5107 -1.6187 0.9745
2.5496 5.6963 -1.6159 0.9745
2.3421 5.7739 -1.6133 0.9746
2.1251 5.8242 -1.6052 0.9747
5.4657 1.6790 -1.6187 0.9765
5.4027 1.8719 -1.6187 0.9765
5.3329 2.0625 -1.6187 0.9765
5.2563 2.2505 -1.6187 0.9765
5.1732 2.4356 -1.6187 0.9765
5.0835 2.6177 -1.6187 0.9765
4.9874 2.7964 -1.6187 0.9765
4.8850 2.9716 -1.6187 0.9765
4.7764 3.1431 -1.6187 0.9765
4.6619 3.3107 -1.6187 0.9765
4.1465 3.9370 -1.6187 0.9765
4.0042 4.0817 -1.6187 0.9765
3.0510 4.8359 -1.6187 0.9765
2.8775 4.9411 -1.6187 0.9765
2.5197 5.1328 -1.6187 0.9765
2.1493 5.2986 -1.6187 0.9765
5.1276 1.1846 -1.6187 0.9782
5.0823 1.3659 -1.6187 0.9782
4.6788 2.4093 -1.6187 0.9782
4.5904 2.5738 -1.6187 0.9782
4.4961 2.7351 -1.6187 0.9782
4.3962 2.8929 -1.6187 0.9782
4.1800 3.1975 -1.6187 0.9782
4.0639 3.3438 -1.6187 0.9782
3.9426 3.4859 -1.6187 0.9782
3.6854 3.7568 -1.6187 0.9782
3.5498 3.8852 -1.6187 0.9782
3.4097 4.0087 -1.6187 0.9782
3.2653 4.1272 -1.6187 0.9782
3.1168 4.2405 -1.6187 0.9782
2.4853 4.6389 -1.6187 0.9782
2.3191 4.7242 -1.6187 0.9782
1.8039 4.9439 -1.6187 0.9782
4.7446 1.0962 -1.6187 0.9797
4.7027 1.2639 -1.6187 0.9797
4.5417 1.7565 -1.6187 0.9797
4.3293 2.2293 -1.6187 0.9797
4.1603 2.5308 -1.6187 0.9797
3.9703 2.8195 -1.6187 0.9797
3.8678 2.9587 -1.6187 0.9797
3.6482 3.2255 -1.6187 0.9797
3.1550 3.7093 -1.6187 0.9797
2.7429 4.0237 -1.6187 0.9797
2.5984 4.1185 -1.6187 0.9797
2.1459 4.3713 -1.6187 0.9797
1.9895 4.4448 -1.6187 0.9797
4.2217 1.6328 -1.6187 0.9810
4.0242 2.0722 -1.6187 0.9810
3.9482 2.2137 -1.6187 0.9810
3.8671 2.3524 -1.6187 0.9810
3.6905 2.6208 -1.6187 0.9810
3.3911 2.9982 -1.6187 0.9810
3.1698 3.2312 -1.6187 0.9810
3.0532 3.3417 -1.6187 0.9810
2.8085 3.5499 -1.6187 0.9810
2.6807 3.6473 -1.6187 0.9810
2.5496 3.7401 -1.6187 0.9810
2.2779 3.9116 -1.6187 0.9810
1.7014 4.1945 -1.6187 0.9810
1.5515 4.2523 -1.6187 0.9810
4.1155 0.9508 -1.6187 0.9821
4.0792 1.0963 -1.6187 0.9821
4.0377 1.2404 -1.6187 0.9821
3.8830 1.6625 -1.6187 0.9821
3.8216 1.7992 -1.6187 0.9821
3.6843 2.0658 -1.6187 0.9821
3.5285 2.3219 -1.6187 0.9821
3.4439 2.4457 -1.6187 0.9821
3.2617 2.6838 -1.6187 0.9821
3.1644 2.7979 -1.6187 0.9821
3.0632 2.9084 -1.6187 0.9821
2.9580 3.0153 -1.6187 0.9821
2.8491 3.1183 -1.6187 0.9821
2.5016 3.4035 -1.6187 0.9821
2.3792 3.4902 -1.6187 0.9821
1.9948 3.7233 -1.6187 0.9821
1.7257 3.8554 -1.6187 0.9821
1.5878 3.9142 -1.6187 0.9821
1.4478 3.9681 -1.6187 0.9821
3.8535 0.8903 -1.6187 0.9831
3.8195 1.0265 -1.6187 0.9831
3.7371 1.2948 -1.6187 0.9831
3.6887 1.4266 -1.6187 0.9831
3.6358 1.5566 -1.6187 0.9831
3.5162 1.8106 -1.6187 0.9831
3.4497 1.9343 -1.6187 0.9831
3.3789 2.0555 -1.6187 0.9831
3.3039 2.1741 -1.6187 0.9831
3.2246 2.2900 -1.6187 0.9831
3.0541 2.5129 -1.6187 0.9831
2.5625 3.0127 -1.6187 0.9831
2.4539 3.1017 -1.6187 0.9831
2.3423 3.1868 -1.6187 0.9831
2.1104 3.3450 -1.6187 0.9831
1.9903 3.4177 -1.6187 0.9831
1.8678 3.4862 -1.6187 0.9831
1.7429 3.5503 -1.6187 0.9831
1.3557 3.7155 -1.6187 0.9831
3.6188 0.8361 -1.6187 0.9839
3.5869 0.9640 -1.6187 0.9839
3.5095 1.2160 -1.6187 0.9839
3.4641 1.3398 -1.6187 0.9839
3.4144 1.4618 -1.6187 0.9839
3.3603 1.5821 -1.6187 0.9839
3.3021 1.7004 -1.6187 0.9839
3.2397 1.8165 -1.6187 0.9839
3.0282 2.1505 -1.6187 0.9839
2.9500 2.2566 -1.6187 0.9839
2.8681 2.3599 -1.6187 0.9839
2.7825 2.4602 -1.6187 0.9839
2.6935 2.5574 -1.6187 0.9839
2.5053 2.7420 -1.6187 0.9839
2.1997 2.9928 -1.6187 0.9839
2.0921 3.0689 -1.6187 0.9839
1.9818 3.1413 -1.6187 0.9839
1.8691 3.2096 -1.6187 0.9839
1.7540 3.2739 -1.6187 0.9839
1.6367 3.3341 -1.6187 0.9839
1.3961 3.4418 -1.6187 0.9839
3.4072 0.7872 -1.6187 0.9847
3.3771 0.9076 -1.6187 0.9847
3.3428 1.0269 -1.6187 0.9847
3.3042 1.1449 -1.6187 0.9847
3.2615 1.2614 -1.6187 0.9847
3.1090 1.6009 -1.6187 0.9847
2.9876 1.8174 -1.6187 0.9847
2.9212 1.9223 -1.6187 0.9847
2.7775 2.1247 -1.6187 0.9847
2.7004 2.2219 -1.6187 0.9847
2.4489 2.4963 -1.6187 0.9847
2.2657 2.6637 -1.6187 0.9847
2.1697 2.7425 -1.6187 0.9847
1.3145 3.2405 -1.6187 0.9847
1.1987 3.2852 -1.6187 0.9847
3.1868 0.8565 -1.6187 0.9854
3.1181 1.0804 -1.6187 0.9854
3.0778 1.1904 -1.6187 0.9854
3.0336 1.2988 -1.6187 0.9854
2.9338 1.5107 -1.6187 0.9854
2.8783 1.6139 -1.6187 0.9854
2.8193 1.7150 -1.6187 0.9854
2.7566 1.8140 -1.6187 0.9854
2.6905 1.9107 -1.6187 0.9854
2.5482 2.0967 -1.6187 0.9854
2.4722 2.1858 -1.6187 0.9854
2.3109 2.3557 -1.6187 0.9854
2.2259 2.4362 -1.6187 0.9854
2.1380 2.5137 -1.6187 0.9854
2.0475 2.5879 -1.6187 0.9854
1.9543 2.6590 -1.6187 0.9854
1.7608 2.7909 -1.6187 0.9854
1.6607 2.8517 -1.6187 0.9854
1.5584 2.9088 -1.6187 0.9854
1.4542 2.9623 -1.6187 0.9854
1.3482 3.0120 -1.6187 0.9854
3.0401 0.7024 -1.6187 0.9860
3.0133 0.8098 -1.6187 0.9860
2.9101 1.1255 -1.6187 0.9860
2.8683 1.2281 -1.6187 0.9860
2.7740 1.4284 -1.6187 0.9860
2.5440 1.8066 -1.6187 0.9860
2.3375 2.0668 -1.6187 0.9860
2.1851 2.2274 -1.6187 0.9860
1.3750 2.8009 -1.6187 0.9860
1.2747 2.8479 -1.6187 0.9860
1.1729 2.8914 -1.6187 0.9860
1.0695 2.9312 -1.6187 0.9860
2.7925 0.9676 -1.6187 0.9866
2.6275 1.3530 -1.6187 0.9866
2.5779 1.4454 -1.6187 0.9866
2.4688 1.6246 -1.6187 0.9866
2.3474 1.7956 -1.6187 0.9866
2.1432 2.0350 -1.6187 0.9866
2.0697 2.1097 -1.6187 0.9866
1.9935 2.1819 -1.6187 0.9866
1.9148 2.2512 -1.6187 0.9866
1.8337 2.3178 -1.6187 0.9866
1.4873 2.5539 -1.6187 0.9866
1.3957 2.6051 -1.6187 0.9866
1.3024 2.6530 -1.6187 0.9866
1.2074 2.6975 -1.6187 0.9866
1.1109 2.7387 -1.6187 0.9866
1.0130 2.7764 -1.6187 0.9866
2.7076 0.7277 -1.6187 0.9871
2.6492 0.9179 -1.6187 0.9871
2.6149 1.0113 -1.6187 0.9871
2.5774 1.1035 -1.6187 0.9871
2.4926 1.2835 -1.6187 0.9871
2.3953 1.4571 -1.6187 0.9871
2.3421 1.5412 -1.6187 0.9871
2.2269 1.7034 -1.6187 0.9871
2.1650 1.7814 -1.6187 0.9871
2.1004 1.8571 -1.6187 0.9871
2.0332 1.9305 -1.6187 0.9871
1.9634 2.0014 -1.6187 0.9871
1.8911 2.0698 -1.6187 0.9871
1.8165 2.1357 -1.6187 0.9871
1.6604 2.2591 -1.6187 0.9871
1.5792 2.3166 -1.6187 0.9871
1.4960 2.3712 -1.6187 0.9871
1.2355 2.5168 -1.6187 0.9871
1.1454 2.5591 -1.6187 0.9871
1.0539 2.5981 -1.6187 0.9871
0.9610 2.6338 -1.6187 0.9871
