ply
format ascii 1.0
element vertex 405
property float32 x
property float32 y
property float32 z
property float32 I
end_header
35.1793 14.5233 4.9561 0.8577
40.4986 28.1644 0.8333 0.8209
35.2895 14.5688 -1.0750 0.8583
40.4987 28.1645 -1.3889 0.8209
28.7083 -3.2519 -1.4652 0.8907
28.8067 -2.2159 -1.4652 0.8907
28.8678 -1.1770 -1.4652 0.8907
28.8777 0.9040 -1.4652 0.8907
28.8264 1.9435 -1.4652 0.8907
28.7379 2.9804 -1.4652 0.8907
29.9799 5.3126 -1.5441 0.8852
30.9243 7.8117 -1.6176 0.8801
30.6232 8.9205 -1.6176 0.8801
29.9020 11.1018 -1.6176 0.8801
29.0259 13.2258 -1.6176 0.8801
27.9992 15.2811 -1.6177 0.8801
27.4310 16.2799 -1.6177 0.8801
26.8273 17.2574 -1.6177 0.8801
26.1887 18.2127 -1.6177 0.8801
21.6757 23.4076 -1.6179 0.8801
20.1928 -5.3044 -1.5308 0.9197
21.8212 -3.2716 -1.6179 0.9153
21.9249 -2.4836 -1.6179 0.9153
22.0001 -1.6923 -1.6179 0.9153
22.0648 -0.1043 -1.6179 0.9153
22.0543 0.6904 -1.6179 0.9153
21.8513 3.0651 -1.6179 0.9153
21.1850 6.1712 -1.6179 0.9153
20.9492 6.9302 -1.6179 0.9153
20.6861 7.6802 -1.6179 0.9153
20.0799 9.1495 -1.6179 0.9153
19.3695 10.5713 -1.6180 0.9153
18.9764 11.2621 -1.6180 0.9153
17.1633 13.8708 -1.6180 0.9153
16.6527 14.4801 -1.6181 0.9153
16.1206 15.0707 -1.6181 0.9153
15.5676 15.6416 -1.6181 0.9153
14.9887 16.1863 -1.6175 0.9153
13.0456 15.1476 -1.4658 0.9230
16.3008 -4.2821 -1.6181 0.9345
16.6674 -2.4989 -1.6180 0.9345
16.8040 -1.2926 -1.6180 0.9345
16.8535 -0.0797 -1.6180 0.9345
16.8455 0.5274 -1.6180 0.9345
16.8156 1.1337 -1.6180 0.9345
16.7638 1.7386 -1.6180 0.9345
16.5953 2.9408 -1.6180 0.9345
16.4786 3.5365 -1.6181 0.9345
16.3406 4.1278 -1.6181 0.9345
16.1814 4.7136 -1.6181 0.9345
15.8003 5.8662 -1.6181 0.9345
15.5788 6.4315 -1.6181 0.9345
15.3372 6.9884 -1.6181 0.9345
14.4942 8.6021 -1.6181 0.9345
13.8376 9.6232 -1.6181 0.9345
13.4822 10.1154 -1.6182 0.9345
12.3128 11.5109 -1.6182 0.9345
11.8904 11.9470 -1.6182 0.9345
13.1755 -3.4611 -1.6182 0.9466
13.2915 -2.9843 -1.6182 0.9466
13.4718 -2.0198 -1.6181 0.9466
13.5822 -1.0448 -1.6181 0.9466
13.6222 -0.0644 -1.6181 0.9466
13.5497 1.4052 -1.6182 0.9466
13.4135 2.3769 -1.6182 0.9466
12.9333 4.2784 -1.6182 0.9466
12.7708 4.7415 -1.6182 0.9466
12.3965 5.6485 -1.6182 0.9466
12.1851 6.0913 -1.6182 0.9466
11.9579 6.5263 -1.6182 0.9466
11.4572 7.3702 -1.6182 0.9466
10.2805 8.9392 -1.6183 0.9466
9.6104 9.6562 -1.6183 0.9466
9.2267 9.9639 -1.6131 0.9468
11.0462 -2.9017 -1.6182 0.9549
11.1435 -2.5020 -1.6182 0.9549
11.3873 -0.8760 -1.6182 0.9549
11.4114 -0.4653 -1.6182 0.9549
11.3951 0.7682 -1.6182 0.9549
11.3102 1.5865 -1.6182 0.9549
11.2458 1.9928 -1.6182 0.9549
10.8432 3.5870 -1.6182 0.9549
9.8219 5.8291 -1.6183 0.9549
9.6056 6.1791 -1.6183 0.9549
7.4266 8.6232 -1.6125 0.9551
9.5010 -2.4958 -1.6183 0.9610
9.5847 -2.1520 -1.6183 0.9610
9.7608 -1.1057 -1.6183 0.9610
9.7943 -0.7534 -1.6183 0.9610
9.8151 -0.4002 -1.6183 0.9610
9.7709 1.0133 -1.6183 0.9610
9.7281 1.3646 -1.6183 0.9610
9.6726 1.7140 -1.6183 0.9610
9.5241 2.4059 -1.6183 0.9610
9.3263 3.0852 -1.6183 0.9610
9.2092 3.4191 -1.6183 0.9610
8.9392 4.0732 -1.6183 0.9610
8.7867 4.3925 -1.6183 0.9610
8.6229 4.7061 -1.6183 0.9610
8.4478 5.0136 -1.6183 0.9610
8.2618 5.3147 -1.6183 0.9610
8.0651 5.6088 -1.6183 0.9610
7.8579 5.8956 -1.6183 0.9610
7.6405 6.1748 -1.6184 0.9610
6.9300 6.9630 -1.6184 0.9610
6.4109 7.4439 -1.6184 0.9610
8.3274 -2.1875 -1.6183 0.9656
8.4008 -1.8862 -1.6183 0.9656
8.4632 -1.5824 -1.6183 0.9656
8.5147 -1.2766 -1.6183 0.9656
8.6027 -0.3508 -1.6183 0.9656
8.5904 0.5792 -1.6183 0.9656
8.5639 0.8882 -1.6183 0.9656
8.5264 1.1960 -1.6183 0.9656
8.4778 1.5023 -1.6183 0.9656
8.4182 1.8067 -1.6183 0.9656
8.2664 2.4080 -1.6183 0.9656
7.9585 3.2855 -1.6183 0.9656
7.8350 3.5700 -1.6183 0.9656
7.5578 4.1248 -1.6184 0.9656
7.4043 4.3943 -1.6184 0.9656
7.2413 4.6582 -1.6184 0.9656
6.4975 5.6498 -1.6184 0.9656
6.2898 5.8801 -1.6184 0.9656
6.0740 6.1029 -1.6184 0.9656
7.5715 -1.1352 -1.6184 0.9692
7.6498 -0.3119 -1.6183 0.9692
7.6560 -0.0362 -1.6183 0.9692
7.6388 0.5150 -1.6184 0.9692
7.6153 0.7898 -1.6184 0.9692
7.5819 1.0635 -1.6184 0.9692
7.5387 1.3359 -1.6184 0.9692
7.4857 1.6065 -1.6184 0.9692
7.1775 2.6648 -1.6184 0.9692
7.0769 2.9216 -1.6184 0.9692
6.8482 3.4234 -1.6184 0.9692
6.5841 3.9075 -1.6184 0.9692
6.4391 4.1421 -1.6184 0.9692
6.1243 4.5949 -1.6184 0.9692
5.9548 4.8125 -1.6184 0.9692
5.7777 5.0239 -1.6184 0.9692
6.6601 -1.7496 -1.6184 0.9721
6.7687 -1.2656 -1.6184 0.9721
6.8658 -0.5282 -1.6184 0.9721
6.8803 -0.2805 -1.6184 0.9721
6.8860 -0.0326 -1.6184 0.9721
6.8704 0.4632 -1.6184 0.9721
6.7327 1.4449 -1.6184 0.9721
6.5376 2.1627 -1.6184 0.9721
6.4555 2.3968 -1.6184 0.9721
6.2663 2.8552 -1.6184 0.9721
5.9218 3.5145 -1.6184 0.9721
5.6535 3.9317 -1.6184 0.9721
5.5083 4.1327 -1.6184 0.9721
5.3558 4.3284 -1.6184 0.9721
4.8578 4.8809 -1.6185 0.9721
4.6789 5.0527 -1.6185 0.9721
4.4939 5.2180 -1.6185 0.9721
6.0455 -1.5881 -1.6184 0.9745
6.0988 -1.3694 -1.6184 0.9745
6.1442 -1.1488 -1.6184 0.9745
6.1816 -0.9268 -1.6184 0.9745
6.2109 -0.7036 -1.6184 0.9745
6.2322 -0.4794 -1.6184 0.9745
6.2506 -0.0296 -1.6184 0.9745
6.2476 0.1956 -1.6184 0.9745
6.2365 0.4204 -1.6184 0.9745
6.1900 0.8683 -1.6184 0.9745
6.1115 1.3116 -1.6184 0.9745
6.0012 1.7481 -1.6184 0.9745
5.9344 1.9631 -1.6184 0.9745
5.8599 2.1756 -1.6184 0.9745
5.5910 2.7950 -1.6184 0.9745
5.4867 2.9945 -1.6184 0.9745
5.3754 3.1902 -1.6184 0.9745
4.9999 3.7514 -1.6184 0.9745
4.5662 4.2688 -1.6185 0.9745
4.2471 4.5865 -1.6185 0.9745
4.0792 4.7365 -1.6185 0.9745
5.5780 -1.2524 -1.6184 0.9765
5.6195 -1.0507 -1.6184 0.9765
5.6537 -0.8477 -1.6184 0.9765
5.6806 -0.6435 -1.6184 0.9765
5.7000 -0.4385 -1.6184 0.9765
5.7121 -0.2329 -1.6184 0.9765
5.7168 -0.0271 -1.6184 0.9765
5.7141 0.1789 -1.6184 0.9765
5.7040 0.3846 -1.6184 0.9765
5.6864 0.5897 -1.6184 0.9765
5.6615 0.7941 -1.6184 0.9765
5.5428 1.4001 -1.6184 0.9765
5.4888 1.5989 -1.6184 0.9765
5.1136 2.5563 -1.6184 0.9765
4.9164 2.9178 -1.6184 0.9765
4.6936 3.2641 -1.6185 0.9765
4.5730 3.4310 -1.6185 0.9765
4.4465 3.5935 -1.6185 0.9765
4.1763 3.9043 -1.6185 0.9765
3.8845 4.1948 -1.6185 0.9765
5.0892 -1.3369 -1.6184 0.9782
5.1340 -1.1527 -1.6184 0.9782
5.1722 -0.9671 -1.6184 0.9782
5.2284 -0.5923 -1.6184 0.9782
5.2464 -0.4036 -1.6184 0.9782
5.2618 -0.0249 -1.6184 0.9782
5.2593 0.1646 -1.6184 0.9782
5.1812 0.9181 -1.6184 0.9782
4.9956 1.6526 -1.6184 0.9782
4.8637 2.0079 -1.6184 0.9782
4.7883 2.1818 -1.6184 0.9782
4.7066 2.3528 -1.6185 0.9782
4.6188 2.5208 -1.6185 0.9782
4.5250 2.6855 -1.6185 0.9782
4.4254 2.8467 -1.6185 0.9782
4.3200 3.0043 -1.6185 0.9782
4.2090 3.1579 -1.6185 0.9782
3.9708 3.4527 -1.6185 0.9782
3.8439 3.5935 -1.6185 0.9782
3.7120 3.7296 -1.6185 0.9782
3.5753 3.8609 -1.6185 0.9782
3.4339 3.9872 -1.6185 0.9782
4.7091 -1.2370 -1.6184 0.9797
4.7506 -1.0667 -1.6184 0.9797
4.7860 -0.8949 -1.6184 0.9797
4.8151 -0.7219 -1.6184 0.9797
4.8648 -0.1984 -1.6184 0.9797
4.8688 -0.0230 -1.6184 0.9797
4.8665 0.1523 -1.6184 0.9797
4.8429 0.5023 -1.6184 0.9797
4.7206 1.1925 -1.6185 0.9797
4.6746 1.3617 -1.6185 0.9797
4.6225 1.5292 -1.6185 0.9797
4.5645 1.6947 -1.6185 0.9797
4.5005 1.8579 -1.6185 0.9797
4.4307 2.0188 -1.6185 0.9797
4.3551 2.1771 -1.6185 0.9797
4.2739 2.3325 -1.6185 0.9797
4.1871 2.4850 -1.6185 0.9797
4.0949 2.6342 -1.6185 0.9797
3.9974 2.7799 -1.6185 0.9797
3.8947 2.9221 -1.6185 0.9797
3.7869 3.0605 -1.6185 0.9797
3.6742 3.1949 -1.6185 0.9797
3.3082 3.5726 -1.6185 0.9797
4.3773 -1.1499 -1.6185 0.9810
4.4159 -0.9915 -1.6185 0.9810
4.4487 -0.8318 -1.6185 0.9810
4.4758 -0.6710 -1.6185 0.9810
4.4970 -0.5094 -1.6185 0.9810
4.5124 -0.3471 -1.6185 0.9810
4.5221 -0.1844 -1.6185 0.9810
4.5257 -0.0214 -1.6185 0.9810
4.4819 0.6287 -1.6185 0.9810
4.4564 0.7897 -1.6185 0.9810
4.4250 0.9497 -1.6185 0.9810
4.2428 1.5752 -1.6185 0.9810
4.0482 2.0237 -1.6185 0.9810
3.9727 2.1682 -1.6185 0.9810
3.8063 2.4485 -1.6185 0.9810
3.7157 2.5840 -1.6185 0.9810
3.3061 3.0908 -1.6185 0.9810
3.0751 3.3208 -1.6185 0.9810
2.9535 3.4294 -1.6185 0.9810
4.0848 -1.0730 -1.6185 0.9821
4.1514 -0.7762 -1.6185 0.9821
4.1965 -0.4754 -1.6185 0.9821
4.2199 -0.1721 -1.6185 0.9821
4.2138 0.2841 -1.6185 0.9821
4.2008 0.4356 -1.6185 0.9821
4.1824 0.5867 -1.6185 0.9821
4.1293 0.8862 -1.6185 0.9821
3.8432 1.7512 -1.6185 0.9821
3.7072 2.0233 -1.6185 0.9821
3.4674 2.4113 -1.6185 0.9821
3.3783 2.5347 -1.6185 0.9821
3.2848 2.6547 -1.6185 0.9821
3.0852 2.8843 -1.6185 0.9821
2.9794 2.9935 -1.6185 0.9821
2.7561 3.2003 -1.6185 0.9821
3.8584 -0.8663 -1.6185 0.9831
3.8871 -0.7268 -1.6185 0.9831
3.9108 -0.5863 -1.6185 0.9831
3.9429 -0.3033 -1.6185 0.9831
3.9512 -0.1611 -1.6185 0.9831
3.9544 -0.0187 -1.6185 0.9831
3.9525 0.1237 -1.6185 0.9831
3.8341 0.9685 -1.6185 0.9831
3.7967 1.1060 -1.6185 0.9831
3.7544 1.2420 -1.6185 0.9831
3.6553 1.5090 -1.6185 0.9831
3.5986 1.6397 -1.6185 0.9831
3.4712 1.8945 -1.6185 0.9831
3.1632 2.3733 -1.6185 0.9831
2.8888 2.7007 -1.6185 0.9831
2.7897 2.8029 -1.6185 0.9831
2.6869 2.9016 -1.6185 0.9831
2.5807 2.9965 -1.6185 0.9831
3.5918 -0.9435 -1.6185 0.9839
3.6504 -0.6825 -1.6185 0.9839
3.6726 -0.5506 -1.6185 0.9839
3.7028 -0.2848 -1.6185 0.9839
3.7106 -0.1513 -1.6185 0.9839
3.7136 -0.0176 -1.6185 0.9839
3.7053 0.2498 -1.6185 0.9839
3.6939 0.3831 -1.6185 0.9839
3.6777 0.5159 -1.6185 0.9839
3.6310 0.7793 -1.6185 0.9839
3.5655 1.0386 -1.6185 0.9839
3.5258 1.1663 -1.6185 0.9839
3.4815 1.2926 -1.6185 0.9839
3.3218 1.6605 -1.6185 0.9839
3.1937 1.8954 -1.6185 0.9839
3.1233 2.0092 -1.6185 0.9839
3.0489 2.1203 -1.6185 0.9839
2.8884 2.3343 -1.6185 0.9839
2.4235 2.8140 -1.6185 0.9839
3.3818 -0.8884 -1.6185 0.9847
3.4370 -0.6426 -1.6185 0.9847
3.4743 -0.3936 -1.6185 0.9847
3.4862 -0.2682 -1.6185 0.9847
3.2779 1.2170 -1.6185 0.9847
3.1275 1.5634 -1.6185 0.9847
3.0692 1.6751 -1.6185 0.9847
2.7969 2.0984 -1.6185 0.9847
2.6386 2.2943 -1.6185 0.9847
2.2818 2.6495 -1.6185 0.9847
3.1913 -0.8383 -1.6185 0.9854
3.2194 -0.7228 -1.6185 0.9854
3.2433 -0.6064 -1.6185 0.9854
3.2786 -0.3714 -1.6185 0.9854
3.2898 -0.2531 -1.6185 0.9854
3.2968 -0.1344 -1.6185 0.9854
3.2995 -0.0156 -1.6185 0.9854
3.2979 0.1032 -1.6185 0.9854
3.2819 0.3404 -1.6185 0.9854
3.2675 0.4583 -1.6185 0.9854
3.1679 0.9228 -1.6185 0.9854
3.1326 1.0363 -1.6185 0.9854
2.9513 1.4754 -1.6185 0.9854
2.8375 1.6840 -1.6185 0.9854
2.7750 1.7851 -1.6185 0.9854
2.6393 1.9802 -1.6185 0.9854
2.5663 2.0740 -1.6185 0.9854
2.4899 2.1651 -1.6185 0.9854
2.4103 2.2533 -1.6185 0.9854
2.3276 2.3387 -1.6185 0.9854
2.2419 2.4210 -1.6185 0.9854
2.1533 2.5002 -1.6185 0.9854
3.0441 -0.6835 -1.6185 0.9860
3.0667 -0.5734 -1.6185 0.9860
3.0853 -0.4626 -1.6185 0.9860
3.1000 -0.3512 -1.6185 0.9860
3.1106 -0.2393 -1.6185 0.9860
3.1172 -0.1271 -1.6185 0.9860
3.1032 0.3218 -1.6185 0.9860
3.0720 0.5444 -1.6185 0.9860
3.0504 0.6546 -1.6185 0.9860
3.0248 0.7641 -1.6185 0.9860
2.9953 0.8725 -1.6185 0.9860
2.8390 1.2936 -1.6185 0.9860
2.7385 1.4946 -1.6185 0.9860
2.6829 1.5923 -1.6185 0.9860
2.4265 1.9610 -1.6185 0.9860
2.2791 2.1306 -1.6185 0.9860
2.1198 2.2892 -1.6185 0.9860
2.0360 2.3640 -1.6185 0.9860
2.8581 -0.7508 -1.6185 0.9866
2.8833 -0.6474 -1.6185 0.9866
2.9048 -0.5431 -1.6185 0.9866
2.9224 -0.4381 -1.6185 0.9866
2.9363 -0.3326 -1.6185 0.9866
2.9464 -0.2267 -1.6185 0.9866
2.9526 -0.1204 -1.6185 0.9866
2.9484 0.1988 -1.6185 0.9866
2.8893 0.6201 -1.6185 0.9866
2.8651 0.7237 -1.6185 0.9866
2.8372 0.8265 -1.6185 0.9866
2.8056 0.9281 -1.6185 0.9866
2.7703 1.0285 -1.6185 0.9866
2.6432 1.3213 -1.6185 0.9866
2.5413 1.5082 -1.6185 0.9866
2.4853 1.5987 -1.6185 0.9866
2.4261 1.6872 -1.6185 0.9866
2.3638 1.7735 -1.6185 0.9866
2.2984 1.8575 -1.6185 0.9866
2.2300 1.9391 -1.6185 0.9866
2.1587 2.0181 -1.6185 0.9866
2.0846 2.0945 -1.6185 0.9866
2.7352 -0.6141 -1.6185 0.9871
2.7556 -0.5153 -1.6185 0.9871
2.7724 -0.4157 -1.6185 0.9871
2.7855 -0.3155 -1.6185 0.9871
2.8010 -0.1142 -1.6185 0.9871
2.7409 0.5882 -1.6185 0.9871
2.7180 0.6866 -1.6185 0.9871
2.6915 0.7840 -1.6185 0.9871
2.6281 0.9757 -1.6185 0.9871
2.5912 1.0697 -1.6185 0.9871
2.5510 1.1624 -1.6185 0.9871
2.5075 1.2535 -1.6185 0.9871
2.4108 1.4307 -1.6185 0.9871
2.2424 1.6824 -1.6185 0.9871
2.1804 1.7621 -1.6185 0.9871
1.9776 1.9870 -1.6185 0.9871
1.8294 2.1242 -1.6186 0.9871
