ply
format ascii 1.0
element vertex 438
property float32 x
property float32 y
property float32 z
property float32 I
end_header
-36.1166 -18.2225 7.1330 0.8485
-34.8281 -19.1811 7.0109 0.8509
-34.5663 -22.4334 7.2661 0.8459
-34.7578 -24.3862 7.4867 0.8416
-18.9516 -38.9181 7.6327 0.8388
-15.9202 -39.7550 7.5511 0.8403
-15.1509 -42.1898 7.9044 0.8335
-13.5887 -42.6211 7.8880 0.8339
-12.0429 -43.0935 7.8897 0.8338
-10.4737 -43.4811 7.8862 0.8339
-8.7578 -43.1493 7.7635 0.8362
-5.4866 -42.6356 7.5798 0.8398
-38.0201 -19.1829 6.5238 0.8417
-36.1573 -21.6511 6.4562 0.8432
-34.4615 -22.3654 6.2937 0.8468
-34.8737 -24.4675 6.5262 0.8416
-37.1024 -28.0845 7.1286 0.8284
-22.1386 -38.1840 6.7616 0.8364
-10.4737 -43.4811 6.8516 0.8344
-8.7578 -43.1493 6.7450 0.8368
-7.0149 -42.3594 6.5776 0.8405
-5.4866 -42.6356 6.5854 0.8403
-35.7287 -19.6770 5.3115 0.8483
-34.4396 -22.3512 5.3464 0.8474
-36.9985 -25.9583 5.8855 0.8333
-22.0527 -38.0359 5.7254 0.8375
-20.4376 -38.3818 5.6625 0.8391
-15.8643 -39.6154 5.5570 0.8419
-12.8921 -40.4360 5.5268 0.8427
-5.4672 -42.4848 5.5780 0.8413
-35.5598 -19.5840 4.3593 0.8493
-36.2021 -21.6779 4.5311 0.8439
-20.5637 -38.6187 4.6982 0.8386
-17.4277 -39.3387 4.6202 0.8411
-14.4724 -40.3004 4.5981 0.8418
-11.4544 -40.9878 4.5700 0.8426
-9.9717 -41.3972 4.5724 0.8426
-8.4943 -41.8507 4.5856 0.8421
-6.9988 -42.2625 4.6000 0.8417
-2.7614 -21.4586 2.3233 0.9166
-38.8130 -25.1896 3.9169 0.8305
-24.8935 -23.4866 2.8972 0.8716
-12.9446 -24.3100 2.3315 0.8953
-17.4058 -39.2894 3.6377 0.8416
-12.9212 -40.5275 3.6009 0.8430
-11.4400 -40.9364 3.5981 0.8431
-6.9828 -42.1659 3.6181 0.8423
-5.4796 -42.5808 3.6343 0.8417
-20.5313 -38.5579 2.7088 0.8394
-17.4277 -39.3388 2.6681 0.8416
-9.9717 -41.3972 2.6405 0.8431
-8.4942 -41.8506 2.6481 0.8427
-6.9988 -42.2625 2.6564 0.8422
-17.4277 -39.3388 1.6966 0.8418
-15.9202 -39.7549 1.6886 0.8425
-14.2652 -39.7235 1.6643 0.8445
-11.4544 -40.9878 1.6781 0.8434
-9.9717 -41.3972 1.6790 0.8433
-12.2172 -25.0885 0.4714 0.8944
-15.9202 -39.7549 0.7234 0.8426
-13.4866 -37.5553 0.6740 0.8525
-12.0961 -37.9392 0.6726 0.8527
-8.4942 -41.8507 0.7213 0.8430
-6.9988 -42.2625 0.7236 0.8425
-35.8935 -18.1099 -0.2264 0.8514
-31.8753 -20.6869 -0.2139 0.8590
-32.1023 -22.5230 -0.2208 0.8548
-32.7282 -24.7734 -0.2311 0.8486
-22.1385 -38.1839 -0.2485 0.8382
-20.5637 -38.6187 -0.2463 0.8394
-14.3624 -39.9944 -0.2393 0.8437
-12.9802 -40.7123 -0.2406 0.8429
-7.0147 -42.3582 -0.2417 0.8422
-5.4788 -42.5749 -0.2417 0.8422
-36.0489 -18.1883 -1.1369 0.8508
-32.1772 -19.2678 -1.0561 0.8606
-31.6758 -20.5574 -1.0633 0.8598
-33.0864 -25.0446 -1.1685 0.8470
-33.3500 -27.1937 -1.2117 0.8418
-23.9024 -20.9722 -0.8954 0.8805
-26.0187 -28.3691 -1.0839 0.8572
-26.4976 -31.0737 -1.1499 0.8492
-28.9188 -39.3465 -1.3750 0.8225
-7.4810 -14.0494 -0.4482 0.9383
-6.2656 -14.1431 -0.4356 0.9400
-8.2263 -25.8018 -0.7626 0.8973
-11.4544 -40.9878 -1.1984 0.8434
-9.9717 -41.3972 -1.1990 0.8433
-1.7090 -13.2801 -0.3770 0.9478
-28.1681 -14.2121 -1.6001 0.8813
-26.5596 -14.6273 -1.5377 0.8856
-23.0559 -17.4521 -1.4665 0.8906
-21.0323 -19.8436 -1.4664 0.8906
-18.7619 -22.0021 -1.4664 0.8906
-6.7222 -13.8045 -0.7787 0.9404
-6.1100 -13.7919 -0.7650 0.9414
-5.6037 -13.9932 -0.7644 0.9414
-8.2264 -25.8020 -1.3734 0.8972
-3.8950 -13.9378 -0.7339 0.9437
-3.3114 -13.7470 -0.7171 0.9449
-2.8775 -14.1774 -0.7337 0.9437
-1.6886 -13.1219 -0.6710 0.9484
-19.3395 -10.6510 -1.6188 0.9153
-18.9421 -11.3426 -1.6188 0.9153
-17.1109 -13.9522 -1.6188 0.9153
-15.4958 -15.7161 -1.6183 0.9153
-14.8169 -16.1554 -1.6073 0.9158
-13.8015 -16.1851 -1.5596 0.9182
-9.5296 -13.9988 -1.2417 0.9343
-8.7800 -13.9560 -1.2089 0.9360
-8.0555 -13.8939 -1.1776 0.9376
-6.0951 -13.7582 -1.1033 0.9414
-5.5731 -13.9169 -1.0992 0.9416
-5.3339 -14.8532 -1.1572 0.9387
-6.0748 -19.0536 -1.4663 0.9229
-3.7983 -13.5918 -1.0348 0.9450
-2.6995 -13.3001 -0.9951 0.9470
-2.1823 -13.1779 -0.9794 0.9478
-1.6805 -13.0587 -0.9654 0.9486
-15.0542 -7.5955 -1.6188 0.9345
-13.8032 -9.6844 -1.6188 0.9345
-13.4443 -10.1766 -1.6188 0.9345
-13.0679 -10.6556 -1.6188 0.9345
-12.2645 -11.5713 -1.6188 0.9345
-11.8384 -12.0067 -1.6188 0.9345
-11.3970 -12.4265 -1.6188 0.9345
-8.9787 -14.2718 -1.6188 0.9345
-8.4572 -14.5868 -1.6188 0.9345
-7.3820 -15.1592 -1.6187 0.9345
-5.6362 -15.6947 -1.6010 0.9352
-4.9744 -15.6022 -1.5722 0.9363
-3.8125 -13.6423 -1.3599 0.9447
-2.7153 -13.3780 -1.3105 0.9466
-2.1926 -13.2398 -1.2884 0.9475
-1.6867 -13.1071 -1.2687 0.9483
-11.1559 -7.8270 -1.6188 0.9466
-10.8658 -8.2249 -1.6188 0.9466
-10.5616 -8.6120 -1.6188 0.9466
-10.2436 -8.9879 -1.6188 0.9466
-9.9123 -9.3520 -1.6188 0.9466
-9.5679 -9.7040 -1.6188 0.9466
-8.4619 -10.6820 -1.6188 0.9466
-6.8352 -11.7893 -1.6187 0.9466
-6.4049 -12.0285 -1.6187 0.9466
-5.9662 -12.2519 -1.6187 0.9466
-5.0660 -12.6506 -1.6187 0.9466
-2.7106 -13.3549 -1.6187 0.9466
-1.7393 -13.5157 -1.6187 0.9466
-10.2001 -5.1464 -1.6188 0.9549
-9.8019 -5.8694 -1.6188 0.9549
-9.5834 -6.2196 -1.6188 0.9549
-9.3525 -6.5618 -1.6188 0.9549
-9.1094 -6.8953 -1.6188 0.9549
-8.8543 -7.2198 -1.6188 0.9549
-8.5877 -7.5350 -1.6188 0.9549
-8.0213 -8.1353 -1.6188 0.9549
-7.4130 -8.6932 -1.6188 0.9549
-7.0941 -8.9553 -1.6188 0.9549
-6.0837 -9.6701 -1.6187 0.9549
-5.7303 -9.8835 -1.6187 0.9549
-5.3696 -10.0841 -1.6187 0.9549
-4.2471 -10.6057 -1.6187 0.9549
-3.8612 -10.7522 -1.6187 0.9549
-3.4703 -10.8846 -1.6187 0.9549
-3.0748 -11.0029 -1.6187 0.9549
-2.2724 -11.1961 -1.6187 0.9549
-8.7729 -4.4263 -1.6188 0.9609
-7.8348 -5.9305 -1.6188 0.9609
-7.1472 -6.7432 -1.6188 0.9609
-6.6417 -7.2416 -1.6188 0.9609
-6.3757 -7.4768 -1.6188 0.9609
-5.8193 -7.9176 -1.6187 0.9609
-3.9800 -8.9839 -1.6187 0.9609
-2.9848 -9.3617 -1.6187 0.9609
-2.3010 -9.5527 -1.6187 0.9609
-1.9545 -9.6296 -1.6187 0.9609
-1.6054 -9.6939 -1.6187 0.9609
-7.6890 -3.8794 -1.6188 0.9656
-7.5438 -4.1546 -1.6188 0.9656
-7.2242 -4.6884 -1.6188 0.9656
-6.8668 -5.1978 -1.6188 0.9656
-6.6745 -5.4424 -1.6188 0.9656
-6.4736 -5.6800 -1.6188 0.9656
-5.8211 -6.3470 -1.6187 0.9656
-5.5880 -6.5531 -1.6187 0.9656
-5.3477 -6.7506 -1.6187 0.9656
-5.1003 -6.9394 -1.6187 0.9656
-4.8463 -7.1191 -1.6187 0.9656
-4.5860 -7.2895 -1.6187 0.9656
-4.0477 -7.6016 -1.6187 0.9656
-3.7704 -7.7428 -1.6187 0.9656
-3.4883 -7.8739 -1.6187 0.9656
-3.2016 -7.9948 -1.6187 0.9656
-2.6160 -8.2051 -1.6187 0.9656
-2.3179 -8.2942 -1.6187 0.9656
-1.7130 -8.4399 -1.6187 0.9656
-1.0992 -8.5415 -1.6187 0.9656
-6.8371 -3.4496 -1.6188 0.9692
-6.7080 -3.6943 -1.6188 0.9692
-6.5702 -3.9342 -1.6188 0.9692
-6.4238 -4.1690 -1.6188 0.9692
-6.1060 -4.6219 -1.6188 0.9692
-5.9350 -4.8394 -1.6187 0.9692
-5.5701 -5.2553 -1.6187 0.9692
-5.3767 -5.4531 -1.6187 0.9692
-5.1762 -5.6437 -1.6187 0.9692
-4.9689 -5.8270 -1.6187 0.9692
-4.7552 -6.0027 -1.6187 0.9692
-4.5352 -6.1706 -1.6187 0.9692
-4.3094 -6.3304 -1.6187 0.9692
-4.0779 -6.4819 -1.6187 0.9692
-3.8411 -6.6250 -1.6187 0.9692
-3.5992 -6.7594 -1.6187 0.9692
-3.1018 -7.0016 -1.6187 0.9692
-2.5882 -7.2072 -1.6187 0.9692
-2.3262 -7.2960 -1.6187 0.9692
-1.7933 -7.4449 -1.6187 0.9692
-1.2511 -7.5549 -1.6187 0.9692
-0.9774 -7.5952 -1.6187 0.9692
-6.1493 -3.1026 -1.6188 0.9721
-5.9092 -3.5384 -1.6188 0.9721
-5.6383 -3.9558 -1.6187 0.9721
-5.4917 -4.1569 -1.6187 0.9721
-5.3380 -4.3526 -1.6187 0.9721
-5.1772 -4.5426 -1.6187 0.9721
-5.0098 -4.7266 -1.6187 0.9721
-4.8358 -4.9045 -1.6187 0.9721
-4.0790 -5.5498 -1.6187 0.9721
-3.8758 -5.6935 -1.6187 0.9721
-3.6676 -5.8298 -1.6187 0.9721
-3.4547 -5.9585 -1.6187 0.9721
-3.0154 -6.1923 -1.6187 0.9721
-2.7898 -6.2972 -1.6187 0.9721
-2.3278 -6.4822 -1.6187 0.9721
-1.8537 -6.6333 -1.6187 0.9721
-1.6129 -6.6960 -1.6187 0.9721
-0.8791 -6.8311 -1.6187 0.9721
-5.5817 -2.8162 -1.6187 0.9745
-5.2443 -3.4035 -1.6187 0.9745
-4.8453 -3.9509 -1.6187 0.9745
-4.6995 -4.1233 -1.6187 0.9745
-4.5474 -4.2904 -1.6187 0.9745
-4.0566 -4.7572 -1.6187 0.9745
-3.8821 -4.9006 -1.6187 0.9745
-3.7025 -5.0376 -1.6187 0.9745
-3.5182 -5.1681 -1.6187 0.9745
-3.3292 -5.2918 -1.6187 0.9745
-2.9384 -5.5183 -1.6187 0.9745
-2.7371 -5.6209 -1.6187 0.9745
-2.3242 -5.8038 -1.6187 0.9745
-2.1130 -5.8840 -1.6187 0.9745
-1.8991 -5.9564 -1.6187 0.9745
-1.4641 -6.0780 -1.6187 0.9745
-1.2435 -6.1269 -1.6187 0.9745
-5.1051 -2.5757 -1.6187 0.9765
-4.7965 -3.1129 -1.6187 0.9765
-4.6809 -3.2841 -1.6187 0.9765
-4.4315 -3.6135 -1.6187 0.9765
-4.2981 -3.7712 -1.6187 0.9765
-4.1591 -3.9240 -1.6187 0.9765
-3.8649 -4.2140 -1.6187 0.9765
-3.3863 -4.6074 -1.6187 0.9765
-3.2177 -4.7267 -1.6187 0.9765
-2.8680 -4.9467 -1.6187 0.9765
-2.5034 -5.1408 -1.6187 0.9765
-2.1257 -5.3082 -1.6187 0.9765
-1.7369 -5.4478 -1.6187 0.9765
-1.5390 -5.5070 -1.6187 0.9765
-1.3390 -5.5590 -1.6187 0.9765
-0.9342 -5.6411 -1.6187 0.9765
-1.6322 -0.8989 -0.5731 0.9922
-4.4146 -2.8651 -1.6187 0.9782
-4.3082 -3.0227 -1.6187 0.9782
-4.1962 -3.1763 -1.6187 0.9782
-4.0788 -3.3258 -1.6187 0.9782
-3.9560 -3.4710 -1.6187 0.9782
-3.5572 -3.8786 -1.6187 0.9782
-2.9616 -4.3504 -1.6187 0.9782
-2.8025 -4.4546 -1.6187 0.9782
-2.6397 -4.5529 -1.6187 0.9782
-2.4735 -4.6453 -1.6187 0.9782
-2.1317 -4.8117 -1.6187 0.9782
-1.5986 -5.0141 -1.6187 0.9782
-1.4164 -5.0686 -1.6187 0.9782
-1.0468 -5.1576 -1.6187 0.9782
-0.8598 -5.1921 -1.6187 0.9782
-0.6717 -5.2197 -1.6187 0.9782
-1.4022 -0.7075 -0.5221 0.9934
-1.5120 -0.9054 -0.5858 0.9926
-3.9865 -2.7969 -1.6187 0.9797
-3.8828 -2.9391 -1.6187 0.9797
-3.6605 -3.2117 -1.6187 0.9797
-3.4190 -3.4677 -1.6187 0.9797
-3.1598 -3.7054 -1.6187 0.9797
-3.0238 -3.8172 -1.6187 0.9797
-2.7404 -4.0255 -1.6187 0.9797
-2.2888 -4.2983 -1.6187 0.9797
-2.1320 -4.3782 -1.6187 0.9797
-1.9725 -4.4524 -1.6187 0.9797
-1.6459 -4.5831 -1.6187 0.9797
-1.1404 -4.7343 -1.6187 0.9797
-0.9686 -4.7724 -1.6187 0.9797
-0.6216 -4.8298 -1.6187 0.9797
-1.3491 -0.7430 -0.5508 0.9935
-3.5081 -2.8605 -1.6187 0.9810
-3.4025 -2.9854 -1.6187 0.9810
-3.2925 -3.1063 -1.6187 0.9810
-3.0596 -3.3360 -1.6187 0.9810
-2.9371 -3.4443 -1.6187 0.9810
-2.6807 -3.6474 -1.6187 0.9810
-2.5472 -3.7418 -1.6187 0.9810
-2.2704 -3.9159 -1.6187 0.9810
-2.1275 -3.9954 -1.6187 0.9810
-1.8335 -4.1386 -1.6187 0.9810
-1.3750 -4.3126 -1.6187 0.9810
-1.0600 -4.4006 -1.6187 0.9810
-0.7395 -4.4657 -1.6187 0.9810
-0.5777 -4.4895 -1.6187 0.9810
-1.3034 -0.6576 -0.5595 0.9938
-3.3680 -2.5494 -1.6187 0.9821
-3.1751 -2.7859 -1.6187 0.9821
-2.9657 -3.0078 -1.6187 0.9821
-2.8551 -3.1130 -1.6187 0.9821
-2.7408 -3.2141 -1.6187 0.9821
-2.6229 -3.3110 -1.6187 0.9821
-2.3770 -3.4917 -1.6187 0.9821
-2.2493 -3.5753 -1.6187 0.9821
-2.1187 -3.6542 -1.6187 0.9821
-1.8493 -3.7977 -1.6187 0.9821
-1.2831 -4.0244 -1.6187 0.9821
-1.1369 -4.0681 -1.6187 0.9821
-0.8402 -4.1396 -1.6187 0.9821
-0.6901 -4.1672 -1.6187 0.9821
-1.2579 -0.6347 -0.5767 0.9939
-1.2495 -0.7482 -0.5961 0.9937
-3.3177 -2.1531 -1.6187 0.9831
-3.1536 -2.3871 -1.6187 0.9831
-2.5663 -3.0095 -1.6187 0.9831
-2.4559 -3.1002 -1.6187 0.9831
-2.3423 -3.1869 -1.6187 0.9831
-2.1061 -3.3477 -1.6187 0.9831
-1.8589 -3.4910 -1.6187 0.9831
-1.7316 -3.5559 -1.6187 0.9831
-1.6020 -3.6161 -1.6187 0.9831
-1.2014 -3.7682 -1.6187 0.9831
-1.0645 -3.8091 -1.6187 0.9831
-0.9262 -3.8451 -1.6187 0.9831
-0.6462 -3.9019 -1.6187 0.9831
-0.5048 -3.9227 -1.6187 0.9831
-1.2106 -0.6667 -0.6023 0.9940
-1.2052 -0.7217 -0.6122 0.9939
-1.2491 -0.8107 -0.6490 0.9935
-3.0405 -2.1332 -1.6187 0.9839
-2.8786 -2.3472 -1.6187 0.9839
-2.7919 -2.4496 -1.6187 0.9839
-2.7016 -2.5489 -1.6187 0.9839
-2.4100 -2.8262 -1.6187 0.9839
-2.1997 -2.9928 -1.6187 0.9839
-2.0901 -3.0703 -1.6187 0.9839
-1.6261 -3.3393 -1.6187 0.9839
-1.3808 -3.4480 -1.6187 0.9839
-1.1282 -3.5387 -1.6187 0.9839
-0.9997 -3.5771 -1.6187 0.9839
-0.8698 -3.6109 -1.6187 0.9839
-0.7388 -3.6400 -1.6187 0.9839
-0.6068 -3.6643 -1.6187 0.9839
-1.1745 -0.5926 -0.6090 0.9942
-1.1695 -0.6441 -0.6180 0.9941
-1.1634 -0.6967 -0.6277 0.9940
-1.1564 -0.7505 -0.6381 0.9939
-2.8627 -2.0085 -1.6187 0.9847
-2.7102 -2.2099 -1.6187 0.9847
-2.5436 -2.3998 -1.6187 0.9847
-2.4553 -2.4902 -1.6187 0.9847
-2.3637 -2.5772 -1.6187 0.9847
-2.1714 -2.7412 -1.6187 0.9847
-2.0710 -2.8178 -1.6187 0.9847
-1.8622 -2.9600 -1.6187 0.9847
-1.7541 -3.0253 -1.6187 0.9847
-1.4165 -3.1973 -1.6187 0.9847
-1.3000 -3.2464 -1.6187 0.9847
-1.1819 -3.2912 -1.6187 0.9847
-0.8189 -3.3998 -1.6187 0.9847
-0.6956 -3.4271 -1.6187 0.9847
-0.5713 -3.4500 -1.6187 0.9847
-0.4463 -3.4684 -1.6187 0.9847
-1.1357 -0.5730 -0.6240 0.9943
-1.1303 -0.6225 -0.6330 0.9943
-1.1238 -0.6729 -0.6425 0.9942
-2.5575 -2.0854 -1.6187 0.9854
-2.4805 -2.1765 -1.6187 0.9854
-2.4003 -2.2646 -1.6187 0.9854
-2.3169 -2.3499 -1.6187 0.9854
-2.1412 -2.5110 -1.6187 0.9854
-1.9543 -2.6590 -1.6187 0.9854
-1.7572 -2.7932 -1.6187 0.9854
-1.6552 -2.8548 -1.6187 0.9854
-1.5510 -2.9128 -1.6187 0.9854
-1.4448 -2.9669 -1.6187 0.9854
-1.0024 -3.1440 -1.6187 0.9854
-0.6564 -3.2340 -1.6187 0.9854
-1.0986 -0.5543 -0.6384 0.9945
-1.0928 -0.6019 -0.6472 0.9944
-2.3454 -2.0579 -1.6187 0.9860
-1.9375 -2.4458 -1.6187 0.9860
-1.8479 -2.5142 -1.6187 0.9860
-1.2638 -2.8528 -1.6187 0.9860
-1.1600 -2.8966 -1.6187 0.9860
-1.0546 -2.9366 -1.6187 0.9860
-0.9478 -2.9728 -1.6187 0.9860
-0.5098 -3.0783 -1.6187 0.9860
-0.3983 -3.0947 -1.6187 0.9860
-1.0570 -0.5821 -0.6609 0.9945
-1.0269 -0.6664 -0.6705 0.9944
-0.9872 -0.7473 -0.6781 0.9944
-0.9873 -0.8050 -0.6977 0.9942
-2.0751 -2.1045 -1.6187 0.9866
-1.9977 -2.1781 -1.6187 0.9866
-1.9177 -2.2488 -1.6187 0.9866
-1.8352 -2.3167 -1.6187 0.9866
-1.7503 -2.3814 -1.6187 0.9866
-1.6631 -2.4431 -1.6187 0.9866
-1.5738 -2.5016 -1.6187 0.9866
-1.3891 -2.6087 -1.6187 0.9866
-1.2939 -2.6571 -1.6187 0.9866
-0.9989 -2.7815 -1.6187 0.9866
-0.8978 -2.8158 -1.6187 0.9866
-0.6921 -2.8733 -1.6187 0.9866
-0.9974 -0.5973 -0.6712 0.9946
-0.9617 -0.6747 -0.6783 0.9946
-0.9418 -0.7129 -0.6820 0.9946
-1.9685 -1.9965 -1.6187 0.9871
-1.8951 -2.0663 -1.6187 0.9871
-1.8192 -2.1334 -1.6187 0.9871
-1.7410 -2.1977 -1.6187 0.9871
-1.3177 -2.4747 -1.6187 0.9871
-1.2275 -2.5207 -1.6187 0.9871
-0.6566 -2.7257 -1.6187 0.9871
