ply
format ascii 1.0
element vertex 443
property float32 x
property float32 y
property float32 z
property float32 I
end_header
15.6977 -17.4014 4.1323 0.9092
16.8630 -17.3826 4.2703 0.9063
19.4914 -17.3752 4.6042 0.8994
13.5397 -17.3933 3.3767 0.9147
14.5788 -17.3890 3.4763 0.9123
15.6977 -17.4014 3.5902 0.9095
16.8630 -17.3826 3.7101 0.9066
18.1976 -17.4460 3.8620 0.9030
19.4914 -17.3752 4.0001 0.8997
20.9701 -17.3711 4.1716 0.8957
14.5788 -17.3890 2.9549 0.9125
15.6977 -17.4015 3.0518 0.9098
18.1976 -17.4460 3.2828 0.9033
19.4914 -17.3752 3.4003 0.9000
20.9701 -17.3711 3.5460 0.8960
13.5397 -17.3933 2.3669 0.9151
14.5788 -17.3890 2.4367 0.9128
15.6977 -17.4014 2.5166 0.9100
18.1976 -17.4460 2.7070 0.9036
19.4914 -17.3752 2.8039 0.9003
20.9701 -17.3711 2.9241 0.8962
19.4914 -17.3752 2.2104 0.9005
20.9701 -17.3711 2.3051 0.8965
22.5834 -17.3665 2.4116 0.8919
13.5397 -17.3933 1.3668 0.9155
15.6977 -17.4014 1.4533 0.9104
16.8630 -17.3826 1.5018 0.9075
18.1976 -17.4460 1.5633 0.9039
20.9701 -17.3711 1.6886 0.8966
46.9410 10.2302 2.9792 0.8249
15.6977 -17.4014 0.9241 0.9105
16.8630 -17.3826 0.9549 0.9076
18.1976 -17.4460 0.9940 0.9040
20.9701 -17.3711 1.0737 0.8967
13.5397 -17.3933 0.3723 0.9156
14.5788 -17.3890 0.3833 0.9132
15.6977 -17.4014 0.3959 0.9105
16.8630 -17.3826 0.4091 0.9077
18.1976 -17.4460 0.4258 0.9041
20.9701 -17.3711 0.4600 0.8968
13.5397 -17.3933 -0.1241 0.9156
15.6977 -17.4014 -0.1319 0.9105
18.1976 -17.4460 -0.1419 0.9041
20.9701 -17.3711 -0.1533 0.8968
22.7537 -17.4975 -0.1616 0.8915
36.0140 -25.6723 -0.2490 0.8379
13.5222 -17.3707 -0.6198 0.9157
14.5704 -17.3790 -0.6386 0.9132
18.1976 -17.4460 -0.7098 0.9040
19.4914 -17.3752 -0.7352 0.9008
20.9701 -17.3711 -0.7667 0.8968
39.2598 -21.9874 -1.2670 0.8352
16.8630 -17.3826 -1.2282 0.9076
19.4914 -17.3752 -1.3242 0.9007
20.9701 -17.3711 -1.3810 0.8967
18.5777 -12.2524 -1.1286 0.9147
25.2242 -14.1268 -1.4662 0.8907
25.7197 -13.2032 -1.4662 0.8907
26.6086 -11.3052 -1.4662 0.8907
30.2014 -10.3194 -1.6186 0.8800
30.5556 -9.2179 -1.6186 0.8800
30.8696 -8.1043 -1.6186 0.8800
31.1431 -6.9800 -1.6186 0.8800
31.3757 -5.8466 -1.6186 0.8800
31.7168 -3.5581 -1.6186 0.8800
31.8249 -2.4061 -1.6186 0.8800
31.8912 -1.2510 -1.6186 0.8800
31.9156 -0.0942 -1.6186 0.8800
31.5942 4.5191 -1.6186 0.8800
31.4096 5.6613 -1.6186 0.8800
31.1838 6.7961 -1.6186 0.8800
12.8471 -15.3235 -1.4662 0.9229
13.9235 -14.3525 -1.4662 0.9229
15.3992 -12.7563 -1.4662 0.9229
15.8515 -12.1897 -1.4662 0.9229
16.2829 -11.6071 -1.4662 0.9229
18.3012 -11.1397 -1.5709 0.9177
19.9910 -9.3629 -1.6186 0.9153
21.5406 -4.8278 -1.6186 0.9153
22.0580 -0.8652 -1.6186 0.9153
22.0216 1.5343 -1.6186 0.9153
21.9515 2.3315 -1.6186 0.9153
21.8526 3.1257 -1.6186 0.9153
21.5687 4.7006 -1.6186 0.9153
9.3811 -12.0510 -1.4662 0.9405
10.2295 -11.3397 -1.4662 0.9405
11.6888 -11.2060 -1.5546 0.9370
12.9811 -10.7532 -1.6183 0.9345
13.3647 -10.2774 -1.6186 0.9345
14.0741 -9.2821 -1.6186 0.9345
14.4013 -8.7659 -1.6186 0.9345
14.9985 -7.6995 -1.6186 0.9345
15.2678 -7.1508 -1.6186 0.9345
15.5169 -6.5927 -1.6186 0.9345
16.3068 -4.2811 -1.6186 0.9345
16.8114 -1.2710 -1.6186 0.9345
16.8593 -0.0497 -1.6186 0.9345
16.8500 0.5614 -1.6186 0.9345
16.8186 1.1718 -1.6186 0.9345
16.7651 1.7807 -1.6186 0.9345
16.6895 2.3872 -1.6186 0.9345
8.7543 -10.4418 -1.6186 0.9466
9.4878 -9.7801 -1.6186 0.9466
9.8361 -9.4298 -1.6186 0.9466
10.8016 -8.3064 -1.6186 0.9466
11.3749 -7.5020 -1.6186 0.9466
11.6394 -7.0847 -1.6186 0.9466
11.8886 -6.6582 -1.6186 0.9466
12.1221 -6.2229 -1.6186 0.9466
12.5411 -5.3283 -1.6186 0.9466
12.8941 -4.4058 -1.6186 0.9466
13.0454 -3.9355 -1.6186 0.9466
13.2962 -2.9800 -1.6186 0.9466
13.3955 -2.4961 -1.6186 0.9466
13.5873 -1.0273 -1.6186 0.9466
13.5931 0.9471 -1.6186 0.9466
13.4888 1.9294 -1.6186 0.9466
13.3135 2.9015 -1.6186 0.9466
7.0171 -9.0142 -1.6186 0.9549
8.2461 -7.9055 -1.6186 0.9549
8.5272 -7.6014 -1.6186 0.9549
8.7972 -7.2873 -1.6186 0.9549
9.0555 -6.9637 -1.6186 0.9549
9.3020 -6.6309 -1.6186 0.9549
9.5362 -6.2893 -1.6186 0.9549
9.7579 -5.9395 -1.6186 0.9549
9.9668 -5.5819 -1.6186 0.9549
10.1626 -5.2170 -1.6186 0.9549
10.6689 -4.0830 -1.6186 0.9549
10.9366 -3.2993 -1.6186 0.9549
11.0490 -2.9007 -1.6186 0.9549
11.1469 -2.4983 -1.6186 0.9549
11.2986 -1.6842 -1.6186 0.9549
11.3910 -0.8612 -1.6186 0.9549
11.4147 -0.4477 -1.6186 0.9549
11.4234 -0.0337 -1.6186 0.9549
11.4171 0.3804 -1.6186 0.9549
11.3958 0.7940 -1.6186 0.9549
11.3084 1.6175 -1.6186 0.9549
6.3123 -7.5291 -1.6186 0.9610
6.5811 -7.2954 -1.6186 0.9610
7.0923 -6.7994 -1.6186 0.9610
7.5663 -6.2677 -1.6186 0.9610
8.0005 -5.7031 -1.6186 0.9610
8.2020 -5.4094 -1.6186 0.9610
8.3926 -5.1085 -1.6186 0.9610
8.5723 -4.8009 -1.6186 0.9610
8.7407 -4.4870 -1.6186 0.9610
8.8976 -4.1673 -1.6186 0.9610
9.0428 -3.8420 -1.6186 0.9610
9.2974 -3.1768 -1.6186 0.9610
9.4064 -2.8377 -1.6186 0.9610
9.5031 -2.4949 -1.6186 0.9610
9.6589 -1.7998 -1.6186 0.9610
9.8176 -0.3851 -1.6186 0.9610
9.8197 0.3272 -1.6186 0.9610
9.8014 0.6829 -1.6186 0.9610
9.7261 1.3912 -1.6186 0.9610
5.2896 -6.7951 -1.6186 0.9656
5.5325 -6.5989 -1.6186 0.9656
6.2161 -5.9594 -1.6186 0.9656
6.6315 -5.4934 -1.6186 0.9656
7.0121 -4.9985 -1.6186 0.9656
7.3558 -4.4774 -1.6186 0.9656
7.5132 -4.2078 -1.6186 0.9656
7.7983 -3.6524 -1.6186 0.9656
7.9256 -3.3673 -1.6186 0.9656
8.0424 -3.0779 -1.6186 0.9656
8.1487 -2.7843 -1.6186 0.9656
8.2443 -2.4871 -1.6186 0.9656
8.5172 -1.2696 -1.6186 0.9656
8.5576 -0.9600 -1.6186 0.9656
8.6047 -0.3375 -1.6186 0.9656
8.6112 -0.0254 -1.6186 0.9656
8.5905 0.5985 -1.6186 0.9656
8.4747 1.5275 -1.6186 0.9656
4.7036 -6.0423 -1.6186 0.9692
4.9195 -5.8678 -1.6186 0.9692
5.3317 -5.4960 -1.6186 0.9692
6.5408 -3.9813 -1.6186 0.9692
6.8121 -3.4970 -1.6186 0.9692
6.9343 -3.2478 -1.6186 0.9692
7.0475 -2.9943 -1.6186 0.9692
7.3309 -2.2116 -1.6186 0.9692
7.4062 -1.9444 -1.6186 0.9692
7.4719 -1.6746 -1.6186 0.9692
7.6095 -0.8537 -1.6186 0.9692
7.6354 -0.5773 -1.6186 0.9692
7.6513 -0.3001 -1.6186 0.9692
7.6572 -0.0226 -1.6186 0.9692
7.5801 1.0842 -1.6186 0.9692
4.2304 -5.4344 -1.6186 0.9721
4.4246 -5.2775 -1.6186 0.9721
4.6130 -5.1137 -1.6186 0.9721
5.3036 -4.3934 -1.6186 0.9721
5.4594 -4.1982 -1.6186 0.9721
5.7492 -3.7917 -1.6186 0.9721
6.0087 -3.3652 -1.6186 0.9721
6.2368 -2.9210 -1.6186 0.9721
6.4320 -2.4615 -1.6186 0.9721
6.5170 -2.2268 -1.6186 0.9721
6.7704 -1.2616 -1.6186 0.9721
6.8440 -0.7678 -1.6186 0.9721
6.8673 -0.5192 -1.6186 0.9721
6.8869 -0.0203 -1.6186 0.9721
6.8703 0.4787 -1.6186 0.9721
6.8484 0.7274 -1.6186 0.9721
6.8175 0.9752 -1.6186 0.9721
6.7777 1.2216 -1.6186 0.9721
6.7290 1.4665 -1.6186 0.9721
4.6664 -4.1598 -1.6186 0.9745
4.8141 -3.9879 -1.6186 0.9745
4.9555 -3.8108 -1.6186 0.9745
5.0904 -3.6287 -1.6186 0.9745
5.4542 -3.0546 -1.6186 0.9745
5.6612 -2.6515 -1.6186 0.9745
6.1000 -1.3672 -1.6186 0.9745
6.1456 -1.1452 -1.6186 0.9745
6.1830 -0.9217 -1.6186 0.9745
6.2124 -0.6969 -1.6186 0.9745
6.2479 0.2082 -1.6186 0.9745
6.1884 0.8852 -1.6186 0.9745
6.1522 1.1089 -1.6186 0.9745
6.1080 1.3312 -1.6186 0.9745
3.5121 -4.5117 -1.6186 0.9765
3.6733 -4.3814 -1.6186 0.9765
4.4030 -3.6474 -1.6186 0.9765
4.6557 -3.3188 -1.6186 0.9765
4.8839 -2.9728 -1.6186 0.9765
4.9884 -2.7938 -1.6186 0.9765
5.1777 -2.4250 -1.6186 0.9765
5.3398 -2.0436 -1.6186 0.9765
5.4104 -1.8487 -1.6186 0.9765
5.4738 -1.6513 -1.6186 0.9765
5.6550 -0.8429 -1.6186 0.9765
5.6819 -0.6374 -1.6186 0.9765
5.7131 -0.2241 -1.6186 0.9765
5.7175 -0.0169 -1.6186 0.9765
5.6599 0.8096 -1.6186 0.9765
3.2325 -4.1525 -1.6186 0.9782
3.5248 -3.9074 -1.6186 0.9782
3.6642 -3.7771 -1.6186 0.9782
3.9282 -3.5017 -1.6186 0.9782
4.0525 -3.3570 -1.6186 0.9782
4.1715 -3.2079 -1.6186 0.9782
4.2851 -3.0546 -1.6186 0.9782
4.3930 -2.8973 -1.6186 0.9782
4.5913 -2.5714 -1.6186 0.9782
4.8433 -2.0578 -1.6186 0.9782
4.9147 -1.8809 -1.6186 0.9782
5.0381 -1.5199 -1.6186 0.9782
5.1350 -1.1509 -1.6186 0.9782
5.2048 -0.7758 -1.6186 0.9782
5.2583 -0.2063 -1.6186 0.9782
5.2623 -0.0155 -1.6186 0.9782
5.2594 0.1752 -1.6186 0.9782
5.2496 0.3658 -1.6186 0.9782
5.2329 0.5558 -1.6186 0.9782
5.2093 0.7451 -1.6186 0.9782
5.1789 0.9334 -1.6186 0.9782
5.1417 1.1206 -1.6186 0.9782
2.9911 -3.8424 -1.6186 0.9797
3.1284 -3.7314 -1.6186 0.9797
3.6348 -3.2402 -1.6186 0.9797
3.7498 -3.1063 -1.6186 0.9797
3.9650 -2.8264 -1.6186 0.9797
4.0649 -2.6809 -1.6186 0.9797
4.2484 -2.3793 -1.6186 0.9797
4.4096 -2.0653 -1.6186 0.9797
4.4816 -1.9041 -1.6186 0.9797
4.5477 -1.7404 -1.6186 0.9797
4.6077 -1.5744 -1.6186 0.9797
4.6618 -1.4064 -1.6186 0.9797
4.7514 -1.0649 -1.6186 0.9797
4.7869 -0.8920 -1.6186 0.9797
4.8390 -0.5429 -1.6186 0.9797
4.8554 -0.3671 -1.6186 0.9797
4.8575 0.3384 -1.6186 0.9797
4.8421 0.5143 -1.6186 0.9797
4.8202 0.6895 -1.6186 0.9797
2.9079 -3.4684 -1.6186 0.9810
3.0317 -3.3608 -1.6186 0.9810
3.2672 -3.1323 -1.6186 0.9810
3.4856 -2.8874 -1.6186 0.9810
3.6856 -2.6272 -1.6186 0.9810
3.7784 -2.4919 -1.6186 0.9810
4.0989 -1.9197 -1.6186 0.9810
4.1658 -1.7699 -1.6186 0.9810
4.2272 -1.6177 -1.6186 0.9810
4.3778 -1.1493 -1.6186 0.9810
4.4166 -0.9899 -1.6186 0.9810
4.4496 -0.8291 -1.6186 0.9810
4.4767 -0.6673 -1.6186 0.9810
4.5133 -0.3412 -1.6186 0.9810
4.5236 0.1507 -1.6186 0.9810
4.5152 0.3146 -1.6186 0.9810
4.5008 0.4780 -1.6186 0.9810
2.5945 -3.3329 -1.6186 0.9821
2.7136 -3.2367 -1.6186 0.9821
2.9409 -3.0315 -1.6186 0.9821
3.2526 -2.6944 -1.6186 0.9821
3.4393 -2.4517 -1.6186 0.9821
3.5259 -2.3254 -1.6186 0.9821
3.6079 -2.1960 -1.6186 0.9821
3.7575 -1.9289 -1.6186 0.9821
3.8874 -1.6516 -1.6186 0.9821
3.9968 -1.3657 -1.6186 0.9821
4.0852 -1.0725 -1.6186 0.9821
4.1214 -0.9237 -1.6186 0.9821
4.1973 -0.4709 -1.6186 0.9821
4.2236 -0.0125 -1.6186 0.9821
4.2213 0.1406 -1.6186 0.9821
4.2134 0.2936 -1.6186 0.9821
4.2000 0.4461 -1.6186 0.9821
4.1811 0.5981 -1.6186 0.9821
4.1567 0.7492 -1.6186 0.9821
4.1268 0.8994 -1.6186 0.9821
2.4293 -3.1207 -1.6186 0.9831
2.6490 -2.9365 -1.6186 0.9831
2.7537 -2.8385 -1.6186 0.9831
3.0455 -2.5229 -1.6186 0.9831
3.3014 -2.1773 -1.6186 0.9831
3.4505 -1.9324 -1.6186 0.9831
3.5183 -1.8061 -1.6186 0.9831
3.5814 -1.6774 -1.6186 0.9831
3.7423 -1.2787 -1.6186 0.9831
3.8590 -0.8649 -1.6186 0.9831
3.9115 -0.5830 -1.6186 0.9831
3.9547 -0.0117 -1.6186 0.9831
3.9452 0.2749 -1.6186 0.9831
3.9326 0.4177 -1.6186 0.9831
3.9149 0.5600 -1.6186 0.9831
3.8641 0.8421 -1.6186 0.9831
2.2813 -2.9306 -1.6186 0.9839
2.3861 -2.8460 -1.6186 0.9839
2.5860 -2.6657 -1.6186 0.9839
2.9441 -2.2640 -1.6186 0.9839
3.2403 -1.8148 -1.6186 0.9839
3.3633 -1.5752 -1.6186 0.9839
3.4182 -1.4523 -1.6186 0.9839
3.4686 -1.3274 -1.6186 0.9839
3.5556 -1.0727 -1.6186 0.9839
3.5922 -0.9431 -1.6186 0.9839
3.6733 -0.5476 -1.6186 0.9839
3.6908 -0.4140 -1.6186 0.9839
3.7033 -0.2800 -1.6186 0.9839
3.7111 -0.1456 -1.6186 0.9839
3.7049 0.2581 -1.6186 0.9839
3.6931 0.3923 -1.6186 0.9839
3.6765 0.5259 -1.6186 0.9839
3.6287 0.7908 -1.6186 0.9839
2.2465 -2.6796 -1.6186 0.9847
2.3422 -2.5964 -1.6186 0.9847
2.4348 -2.5098 -1.6186 0.9847
2.5241 -2.4199 -1.6186 0.9847
2.6102 -2.3268 -1.6186 0.9847
2.7719 -2.1316 -1.6186 0.9847
2.8474 -2.0297 -1.6186 0.9847
3.0509 -1.7086 -1.6186 0.9847
3.4376 -0.6406 -1.6186 0.9847
3.4585 -0.5155 -1.6186 0.9847
3.4868 -0.2636 -1.6186 0.9847
3.4940 -0.1371 -1.6186 0.9847
3.4967 -0.0103 -1.6186 0.9847
3.4948 0.1164 -1.6186 0.9847
3.4883 0.2430 -1.6186 0.9847
3.4615 0.4951 -1.6186 0.9847
3.4413 0.6203 -1.6186 0.9847
2.0269 -2.6038 -1.6186 0.9854
2.2102 -2.4501 -1.6186 0.9854
2.2976 -2.3684 -1.6186 0.9854
2.6869 -1.9153 -1.6186 0.9854
2.7546 -1.8167 -1.6186 0.9854
2.8186 -1.7157 -1.6186 0.9854
2.8790 -1.6124 -1.6186 0.9854
2.9882 -1.3995 -1.6186 0.9854
3.1591 -0.9530 -1.6186 0.9854
3.1916 -0.8379 -1.6186 0.9854
3.2198 -0.7217 -1.6186 0.9854
3.2439 -0.6045 -1.6186 0.9854
3.2636 -0.4865 -1.6186 0.9854
3.2903 -0.2488 -1.6186 0.9854
3.2240 0.7026 -1.6186 0.9854
1.9165 -2.4620 -1.6186 0.9860
2.0045 -2.3909 -1.6186 0.9860
2.0898 -2.3166 -1.6186 0.9860
2.4733 -1.9019 -1.6186 0.9860
2.5406 -1.8110 -1.6186 0.9860
2.6651 -1.6222 -1.6186 0.9860
2.7222 -1.5245 -1.6186 0.9860
2.7756 -1.4249 -1.6186 0.9860
2.8254 -1.3233 -1.6186 0.9860
2.9524 -1.0088 -1.6186 0.9860
2.9870 -0.9011 -1.6186 0.9860
3.0177 -0.7922 -1.6186 0.9860
3.0672 -0.5715 -1.6186 0.9860
3.0859 -0.4600 -1.6186 0.9860
3.1111 -0.2352 -1.6186 0.9860
3.1176 -0.1223 -1.6186 0.9860
3.1200 -0.0092 -1.6186 0.9860
3.1183 0.1039 -1.6186 0.9860
3.1124 0.2169 -1.6186 0.9860
3.1025 0.3295 -1.6186 0.9860
3.0886 0.4418 -1.6186 0.9860
3.0484 0.6644 -1.6186 0.9860
1.8153 -2.3320 -1.6186 0.9866
1.8986 -2.2646 -1.6186 0.9866
1.9795 -2.1943 -1.6186 0.9866
2.0577 -2.1211 -1.6186 0.9866
2.2060 -1.9665 -1.6186 0.9866
2.5244 -1.5365 -1.6186 0.9866
2.6290 -1.3496 -1.6186 0.9866
2.7199 -1.1556 -1.6186 0.9866
2.7600 -1.0563 -1.6186 0.9866
2.8293 -0.8535 -1.6186 0.9866
2.8584 -0.7504 -1.6186 0.9866
2.8837 -0.6463 -1.6186 0.9866
2.9052 -0.5414 -1.6186 0.9866
2.9229 -0.4357 -1.6186 0.9866
2.9468 -0.2228 -1.6186 0.9866
2.9529 -0.1158 -1.6186 0.9866
2.9552 -0.0087 -1.6186 0.9866
2.9481 0.2054 -1.6186 0.9866
2.9387 0.3121 -1.6186 0.9866
2.9084 0.5242 -1.6186 0.9866
1.7221 -2.2122 -1.6186 0.9871
1.8778 -2.0816 -1.6186 0.9871
1.9520 -2.0122 -1.6186 0.9871
2.1589 -1.7884 -1.6186 0.9871
2.2223 -1.7090 -1.6186 0.9871
2.2828 -1.6273 -1.6186 0.9871
2.3403 -1.5435 -1.6186 0.9871
2.4460 -1.3699 -1.6186 0.9871
2.4940 -1.2803 -1.6186 0.9871
2.5802 -1.0963 -1.6186 0.9871
2.6183 -1.0020 -1.6186 0.9871
2.7116 -0.7119 -1.6186 0.9871
2.7356 -0.6131 -1.6186 0.9871
2.7560 -0.5136 -1.6186 0.9871
2.7955 -0.2113 -1.6186 0.9871
2.8013 -0.1099 -1.6186 0.9871
2.8035 -0.0083 -1.6186 0.9871
2.7967 0.1949 -1.6186 0.9871
