ply
format ascii 1.0
element vertex 385
property float32 x
property float32 y
property float32 z
property float32 I
end_header
-39.2455 -18.4083 7.6435 0.8386
-35.4203 -18.2089 7.0225 0.8506
-34.7456 -19.4859 7.0243 0.8506
-34.4610 -22.7572 7.2818 0.8456
-19.7753 -16.4019 4.5301 0.9009
-39.0183 -18.3017 6.6023 0.8400
-37.0322 -19.0376 6.3789 0.8449
-35.8052 -21.8231 6.4237 0.8439
-19.7742 -16.4010 3.9353 0.9013
-32.9285 -36.5494 7.5364 0.8195
-35.9678 -20.1713 5.3700 0.8468
-34.9447 -21.2987 5.3291 0.8478
-19.7732 -16.4001 3.3450 0.9016
-34.4274 -35.5334 6.4428 0.8191
-37.2019 -19.1248 4.4918 0.8451
-37.2867 -20.9110 4.5906 0.8420
-36.2513 -22.0950 4.5588 0.8430
-36.8773 -26.3212 4.8652 0.8334
-39.2732 -11.8712 3.4731 0.8481
-37.3027 -24.6338 3.7842 0.8357
-19.7710 -16.3983 2.1741 0.9020
-23.1662 -37.6143 3.7396 0.8375
-25.4035 -22.6738 2.1115 0.8724
-19.7670 -16.3950 1.0126 0.9023
-39.2523 -11.8648 0.6927 0.8487
-19.7649 -16.3932 0.4338 0.9024
-39.2466 -11.8631 -0.2308 0.8487
-42.4613 -16.2771 -0.2560 0.8337
-39.9197 -16.9873 -0.2443 0.8407
-37.5956 -17.6344 -0.2338 0.8470
-35.3863 -18.1914 -0.2240 0.8529
-31.6886 -19.3141 -0.2089 0.8620
-31.8018 -21.0010 -0.2146 0.8586
-32.2381 -23.0100 -0.2230 0.8535
-19.7627 -16.3914 -0.1446 0.9024
-34.3741 -30.6805 -0.2594 0.8317
-39.1380 -11.8303 -1.1513 0.8491
-45.5036 -15.5760 -1.3543 0.8249
-42.6451 -16.3476 -1.2860 0.8330
-40.0925 -17.0608 -1.2269 0.8400
-33.6530 -18.8732 -1.0864 0.8569
-32.3902 -23.1186 -1.1205 0.8528
-19.7605 -16.3896 -0.7229 0.9024
-28.1154 -36.1662 -1.2899 0.8325
-31.7342 -3.5765 -1.6196 0.8799
-31.5836 -4.7246 -1.6196 0.8799
-31.1579 -7.0007 -1.6195 0.8799
-30.5684 -9.2400 -1.6195 0.8799
-29.3838 -12.5039 -1.6195 0.8799
-28.9073 -13.5591 -1.6193 0.8800
-26.2241 -14.7069 -1.5248 0.8865
-24.6995 -15.0542 -1.4669 0.8906
-22.9182 -17.6463 -1.4669 0.8906
-19.6247 -16.2770 -1.2930 0.9029
-19.3591 -21.4879 -1.4668 0.8906
-17.8140 -22.9106 -1.4717 0.8903
-17.0272 -23.6230 -1.4768 0.8899
-9.3430 -14.0061 -0.8538 0.9348
-2.4091 -0.1834 -0.1772 0.9904
-2.4102 -0.2716 -0.1778 0.9903
-2.4350 -0.3643 -0.1805 0.9902
-2.4762 -0.4628 -0.1847 0.9899
-21.3573 -5.6193 -1.6193 0.9152
-21.1394 -6.3899 -1.6192 0.9152
-20.6206 -7.9047 -1.6192 0.9152
-19.9934 -9.3780 -1.6192 0.9152
-19.6401 -10.0966 -1.6192 0.9152
-18.8566 -11.4930 -1.6192 0.9152
-17.9739 -12.8289 -1.6191 0.9152
-17.4968 -13.4720 -1.6191 0.9152
-16.4743 -14.7041 -1.6191 0.9152
-15.9303 -15.2915 -1.6191 0.9152
-15.3418 -15.8347 -1.6166 0.9154
-14.5638 -16.1653 -1.5954 0.9164
-13.5545 -16.1887 -1.5481 0.9188
-11.6954 -16.2259 -1.4666 0.9229
-9.3411 -14.0032 -1.2342 0.9347
-2.1541 -0.0856 -0.2070 0.9914
-2.1569 -0.2431 -0.2084 0.9913
-2.1579 -0.3228 -0.2095 0.9913
-2.2118 -0.4970 -0.2176 0.9909
-16.1434 -4.8797 -1.6191 0.9345
-15.9558 -5.4617 -1.6191 0.9345
-15.2683 -7.1617 -1.6191 0.9345
-14.9985 -7.7105 -1.6191 0.9345
-14.0725 -9.2931 -1.6190 0.9345
-13.7262 -9.7971 -1.6190 0.9345
-12.9800 -10.7658 -1.6190 0.9345
-10.8256 -12.9294 -1.6189 0.9345
-10.3496 -13.3132 -1.6189 0.9345
-8.8428 -14.3578 -1.6189 0.9345
-2.0018 -0.0795 -0.2380 0.9920
-2.0057 -0.1527 -0.2389 0.9919
-12.7265 -4.8786 -1.6190 0.9466
-12.5412 -5.3368 -1.6190 0.9466
-12.1214 -6.2314 -1.6190 0.9466
-11.8875 -6.6667 -1.6190 0.9466
-11.0932 -7.9178 -1.6189 0.9466
-10.4902 -8.7008 -1.6189 0.9466
-10.1678 -9.0753 -1.6189 0.9466
-9.8321 -9.4379 -1.6189 0.9466
-9.4834 -9.7881 -1.6189 0.9466
-9.1222 -10.1254 -1.6189 0.9466
-7.9688 -11.0557 -1.6188 0.9466
-1.9108 -0.0759 -0.2710 0.9923
-1.9176 -0.2162 -0.2734 0.9922
-1.9239 -0.3596 -0.2773 0.9921
-1.9629 -0.5934 -0.2906 0.9917
-10.5136 -4.4739 -1.6189 0.9549
-10.1617 -5.2240 -1.6189 0.9549
-9.9656 -5.5889 -1.6189 0.9549
-9.7564 -5.9465 -1.6189 0.9549
-9.5344 -6.2963 -1.6189 0.9549
-9.2998 -6.6378 -1.6189 0.9549
-7.9502 -8.2057 -1.6189 0.9549
-7.3347 -8.7601 -1.6188 0.9549
-6.3401 -9.5045 -1.6188 0.9549
-5.9913 -9.7280 -1.6188 0.9549
-1.8309 -0.1394 -0.3025 0.9926
-1.8359 -0.3431 -0.3077 0.9925
-1.8449 -0.4145 -0.3115 0.9924
-1.8754 -0.6420 -0.3266 0.9920
-8.8969 -4.1731 -1.6189 0.9609
-7.9984 -5.7089 -1.6189 0.9609
-7.7861 -5.9951 -1.6188 0.9609
-7.5636 -6.2734 -1.6188 0.9609
-7.0891 -6.8049 -1.6188 0.9609
-6.5773 -7.3007 -1.6188 0.9609
-6.3083 -7.5342 -1.6188 0.9609
-6.0310 -7.7580 -1.6188 0.9609
-5.7457 -7.9715 -1.6188 0.9609
-5.4529 -8.1745 -1.6188 0.9609
-5.1530 -8.3667 -1.6188 0.9609
-1.7480 -0.0695 -0.3288 0.9929
-1.7523 -0.1334 -0.3303 0.9929
-1.7558 -0.1979 -0.3321 0.9928
-1.7572 -0.2629 -0.3340 0.9928
-1.7619 -0.3959 -0.3394 0.9927
-1.7696 -0.4656 -0.3439 0.9926
-1.7767 -0.5371 -0.3489 0.9925
-1.7836 -0.6105 -0.3543 0.9924
-7.9250 -3.3724 -1.6189 0.9656
-7.6598 -3.9378 -1.6188 0.9656
-7.5120 -4.2129 -1.6188 0.9656
-7.1870 -4.7461 -1.6188 0.9656
-6.8241 -5.2543 -1.6188 0.9656
-6.6291 -5.4983 -1.6188 0.9656
-6.4254 -5.7349 -1.6188 0.9656
-5.7646 -6.3986 -1.6188 0.9656
-5.5289 -6.6033 -1.6188 0.9656
-5.2858 -6.7994 -1.6188 0.9656
-5.0358 -6.9865 -1.6188 0.9656
-1.6757 -0.0666 -0.3545 0.9932
-1.6795 -0.1278 -0.3560 0.9931
-1.6825 -0.1896 -0.3579 0.9931
-1.6847 -0.2521 -0.3601 0.9931
-1.6848 -0.3149 -0.3623 0.9930
-1.6854 -0.3787 -0.3651 0.9930
-1.6976 -0.5131 -0.3749 0.9928
-1.7025 -0.5828 -0.3804 0.9927
-1.7067 -0.6543 -0.3864 0.9926
-7.0469 -2.9987 -1.6188 0.9692
-6.9335 -3.2522 -1.6188 0.9692
-6.8111 -3.5014 -1.6188 0.9692
-6.0679 -4.6721 -1.6188 0.9692
-5.5248 -5.3033 -1.6188 0.9692
-4.2496 -6.3707 -1.6187 0.9692
-4.0159 -6.5205 -1.6187 0.9692
-1.6145 -0.1820 -0.3818 0.9933
-1.6162 -0.2418 -0.3841 0.9933
-1.6171 -0.3022 -0.3866 0.9933
-1.6159 -0.3631 -0.3892 0.9932
-1.6282 -0.5574 -0.4045 0.9930
-1.6311 -0.6253 -0.4105 0.9928
-6.2360 -2.9250 -1.6188 0.9721
-6.1258 -3.1492 -1.6188 0.9721
-6.0076 -3.3692 -1.6188 0.9721
-5.6062 -4.0015 -1.6188 0.9721
-5.4575 -4.2021 -1.6188 0.9721
-5.3015 -4.3972 -1.6188 0.9721
-4.6102 -5.1172 -1.6188 0.9721
-4.2273 -5.4378 -1.6187 0.9721
-4.0273 -5.5874 -1.6187 0.9721
-3.8221 -5.7297 -1.6187 0.9721
-1.5459 -0.0614 -0.4006 0.9936
-1.5524 -0.2322 -0.4064 0.9935
-1.5608 -0.5343 -0.4272 0.9932
-1.5656 -0.6002 -0.4341 0.9931
-1.5696 -0.6679 -0.4417 0.9930
-5.5604 -2.8585 -1.6188 0.9745
-5.4531 -3.0582 -1.6188 0.9745
-5.2171 -3.4453 -1.6188 0.9745
-4.9537 -3.8142 -1.6188 0.9745
-4.6643 -4.1631 -1.6188 0.9745
-4.3504 -4.4902 -1.6187 0.9745
-4.1847 -4.6449 -1.6187 0.9745
-4.0136 -4.7936 -1.6187 0.9745
-3.6556 -5.0717 -1.6187 0.9745
-3.4694 -5.2009 -1.6187 0.9745
-3.2785 -5.3233 -1.6187 0.9745
-1.4886 -0.0592 -0.4218 0.9938
-1.4913 -0.1135 -0.4234 0.9938
-1.4946 -0.2236 -0.4278 0.9937
-1.4947 -0.3359 -0.4337 0.9937
-1.4946 -0.3932 -0.4375 0.9936
-1.5039 -0.5148 -0.4500 0.9934
-1.5075 -0.5779 -0.4570 0.9933
-1.5104 -0.6427 -0.4647 0.9932
-5.0855 -2.6144 -1.6188 0.9765
-1.6216 -0.9094 -0.5263 0.9923
-1.6643 -1.0144 -0.5518 0.9919
-4.7716 -3.1510 -1.6188 0.9765
-4.6542 -3.3220 -1.6188 0.9765
-4.4012 -3.6504 -1.6188 0.9765
-4.2660 -3.8076 -1.6187 0.9765
-3.6708 -4.3842 -1.6187 0.9765
-1.4407 -0.0573 -0.4435 0.9940
-1.4432 -0.1099 -0.4452 0.9940
-1.4448 -0.1629 -0.4472 0.9939
-1.4459 -0.2702 -0.4524 0.9939
-1.4439 -0.3799 -0.4592 0.9938
-1.4469 -0.4374 -0.4649 0.9937
-1.4530 -0.5570 -0.4786 0.9935
-1.4549 -0.6191 -0.4863 0.9934
-1.4561 -0.7486 -0.5036 0.9932
-4.3917 -2.9002 -1.6188 0.9782
-4.0508 -3.3598 -1.6187 0.9782
-3.9264 -3.5045 -1.6187 0.9782
-3.7967 -3.6445 -1.6187 0.9782
-3.5226 -3.9100 -1.6187 0.9782
-3.3786 -4.0351 -1.6187 0.9782
-3.2300 -4.1550 -1.6187 0.9782
-1.3927 -0.0554 -0.4633 0.9941
-1.3984 -0.3142 -0.4764 0.9940
-1.3967 -0.3675 -0.4801 0.9939
-1.3998 -0.4792 -0.4918 0.9938
-1.4015 -0.5373 -0.4989 0.9937
-1.4026 -0.5968 -0.5067 0.9936
-1.4019 -0.7207 -0.5240 0.9934
-1.6054 -0.9004 -0.6118 0.9923
-1.4880 -0.9069 -0.5792 0.9927
-3.9637 -2.8291 -1.6187 0.9797
-3.5131 -3.3723 -1.6187 0.9797
-3.3885 -3.4974 -1.6187 0.9797
-2.9888 -3.8446 -1.6187 0.9797
-2.5537 -4.1464 -1.6187 0.9797
-1.3529 -0.1030 -0.4852 0.9943
-1.3554 -0.2028 -0.4901 0.9942
-1.3550 -0.2533 -0.4929 0.9942
-1.3538 -0.3042 -0.4962 0.9941
-1.3524 -0.4630 -0.5112 0.9939
-1.3531 -0.5187 -0.5182 0.9939
-1.3525 -0.6344 -0.5342 0.9937
-1.3510 -0.6945 -0.5432 0.9936
-1.3484 -0.7562 -0.5529 0.9935
-1.4880 -0.9069 -0.6232 0.9926
-3.6844 -2.6297 -1.6187 0.9810
-3.1497 -3.2509 -1.6187 0.9810
-3.0298 -3.3630 -1.6187 0.9810
-2.9059 -3.4706 -1.6187 0.9810
-2.7781 -3.5737 -1.6187 0.9810
-2.3737 -3.8541 -1.6187 0.9810
-1.3012 -0.0517 -0.4990 0.9944
-1.3132 -0.1480 -0.5064 0.9944
-1.3133 -0.1965 -0.5089 0.9943
-1.3127 -0.2453 -0.5118 0.9943
-1.3113 -0.2947 -0.5150 0.9943
-1.3074 -0.4475 -0.5296 0.9941
-1.3075 -0.5012 -0.5366 0.9940
-1.2995 -0.7288 -0.5710 0.9936
-3.6069 -2.1984 -1.6187 0.9821
-3.2513 -2.6966 -1.6187 0.9821
-3.1513 -2.8127 -1.6187 0.9821
-2.8273 -3.1382 -1.6187 0.9821
-2.5925 -3.3348 -1.6187 0.9821
-2.3440 -3.5139 -1.6187 0.9821
-1.2587 -0.0500 -0.5156 0.9946
-1.2724 -0.2378 -0.5298 0.9944
-1.2707 -0.2855 -0.5330 0.9944
-1.2683 -0.3337 -0.5367 0.9943
-1.2649 -0.3824 -0.5408 0.9943
-1.2646 -0.4329 -0.5471 0.9942
-1.2641 -0.4846 -0.5541 0.9942
-1.2533 -0.7029 -0.5881 0.9938
-3.0442 -2.5249 -1.6187 0.9831
-2.8533 -2.7389 -1.6187 0.9831
-2.6473 -2.9384 -1.6187 0.9831
-2.4274 -3.1225 -1.6187 0.9831
-2.3126 -3.2084 -1.6187 0.9831
-2.1947 -3.2902 -1.6187 0.9831
-1.2238 -0.0932 -0.5349 0.9947
-1.2337 -0.2306 -0.5470 0.9945
-1.2319 -0.2768 -0.5503 0.9945
-1.2257 -0.3705 -0.5581 0.9944
-1.2238 -0.4189 -0.5637 0.9944
-1.2181 -0.5714 -0.5864 0.9941
-1.2095 -0.6783 -0.6044 0.9940
-1.2039 -0.7338 -0.6145 0.9939
-3.0994 -2.0468 -1.6187 0.9839
-3.0232 -2.1578 -1.6187 0.9839
-2.8588 -2.3712 -1.6187 0.9839
-2.6795 -2.5721 -1.6187 0.9839
-2.5845 -2.6675 -1.6187 0.9839
-2.2796 -2.9323 -1.6187 0.9839
-2.1718 -3.0130 -1.6187 0.9839
-1.1847 -0.0902 -0.5500 0.9948
-1.1891 -0.1340 -0.5539 0.9947
-1.1946 -0.2684 -0.5668 0.9946
-1.1834 -0.4537 -0.5866 0.9944
-1.1811 -0.5026 -0.5941 0.9944
-1.1778 -0.5525 -0.6022 0.9943
-1.1683 -0.6552 -0.6200 0.9941
-1.1547 -0.7625 -0.6405 0.9939
-2.7708 -2.1334 -1.6187 0.9847
-2.6089 -2.3286 -1.6187 0.9847
-2.3407 -2.5981 -1.6187 0.9847
-2.0448 -2.8368 -1.6187 0.9847
-1.8338 -2.9775 -1.6187 0.9847
-1.1425 -0.0454 -0.5609 0.9949
-1.1513 -0.1298 -0.5683 0.9949
-1.1568 -0.2162 -0.5773 0.9948
-1.1521 -0.3483 -0.5904 0.9947
-1.1457 -0.4392 -0.6019 0.9945
-1.1430 -0.4864 -0.6093 0.9945
-1.1393 -0.5344 -0.6173 0.9944
-1.1346 -0.5833 -0.6258 0.9943
-1.1290 -0.6332 -0.6349 0.9942
-1.1223 -0.6840 -0.6447 0.9942
-1.1144 -0.7359 -0.6551 0.9941
-2.5400 -2.1067 -1.6187 0.9854
-2.3806 -2.2852 -1.6187 0.9854
-2.2962 -2.3700 -1.6187 0.9854
-2.1184 -2.5301 -1.6187 0.9854
-1.7305 -2.8098 -1.6187 0.9854
-1.1070 -0.0440 -0.5747 0.9950
-1.1150 -0.1257 -0.5821 0.9950
-1.1178 -0.1672 -0.5864 0.9949
-1.1210 -0.2519 -0.5960 0.9948
-1.1213 -0.2950 -0.6015 0.9948
-1.1095 -0.4253 -0.6164 0.9947
-1.1064 -0.4708 -0.6238 0.9946
-1.1025 -0.5171 -0.6317 0.9945
-1.0975 -0.5642 -0.6402 0.9945
-1.0844 -0.6610 -0.6588 0.9943
-2.3278 -2.0777 -1.6187 0.9860
-2.1712 -2.2409 -1.6187 0.9860
-2.0885 -2.3182 -1.6187 0.9860
-2.0031 -2.3923 -1.6187 0.9860
-1.9150 -2.4634 -1.6187 0.9860
-1.8245 -2.5312 -1.6187 0.9860
-1.7315 -2.5956 -1.6187 0.9860
-1.0728 -0.0426 -0.5880 0.9951
-1.0802 -0.1217 -0.5954 0.9951
-1.0748 -0.4120 -0.6304 0.9948
-1.0714 -0.4559 -0.6377 0.9947
-1.0671 -0.5006 -0.6456 0.9946
-1.0618 -0.5459 -0.6539 0.9946
-1.0556 -0.5920 -0.6628 0.9945
-1.0228 -0.6754 -0.6713 0.9944
-1.0033 -0.7161 -0.6751 0.9944
-0.9823 -0.7564 -0.6790 0.9944
-0.9929 -0.8236 -0.7066 0.9941
-2.2049 -1.9680 -1.6187 0.9866
-2.1321 -2.0466 -1.6187 0.9866
-2.0565 -2.1226 -1.6187 0.9866
-1.8139 -2.3333 -1.6187 0.9866
-1.7281 -2.3975 -1.6187 0.9866
-1.5498 -2.5164 -1.6187 0.9866
-1.0399 -0.0413 -0.6009 0.9952
-1.0488 -0.1569 -0.6123 0.9951
-1.0502 -0.1963 -0.6168 0.9951
-1.0507 -0.2361 -0.6218 0.9950
-1.0504 -0.2764 -0.6271 0.9950
-1.0469 -0.3584 -0.6389 0.9949
-1.0414 -0.3992 -0.6439 0.9949
-1.0378 -0.4416 -0.6511 0.9948
-1.0100 -0.5665 -0.6686 0.9947
-0.9762 -0.6447 -0.6754 0.9946
-0.9573 -0.6833 -0.6791 0.9946
-0.9371 -0.7216 -0.6829 0.9946
-0.9156 -0.7594 -0.6868 0.9945
-1.8766 -2.0830 -1.6187 0.9871
-1.7999 -2.1496 -1.6187 0.9871
-1.5558 -2.3323 -1.6187 0.9871
-1.4702 -2.3872 -1.6187 0.9871
