ply
format ascii 1.0
element vertex 352
property float32 x
property float32 y
property float32 z
property float32 I
end_header
39.9140 26.0713 0.8054 0.8264
17.5907 30.1713 0.5899 0.8696
17.5907 30.1713 -0.1966 0.8696
39.9140 26.0713 -1.3424 0.8263
17.5907 30.1713 -0.9834 0.8696
20.9384 39.0551 -1.2478 0.8375
30.2067 10.2988 -1.6185 0.8800
29.3947 12.4286 -1.6185 0.8800
28.4328 14.4951 -1.6185 0.8800
27.3259 16.4877 -1.6185 0.8800
26.0796 18.3962 -1.6185 0.8800
23.9629 21.0801 -1.6186 0.8800
21.5711 23.5223 -1.6186 0.8800
16.3074 23.8733 -1.4662 0.8907
15.4446 24.4405 -1.4662 0.8907
12.7423 25.9526 -1.4662 0.8907
10.8575 26.7961 -1.4663 0.8907
7.9295 27.8040 -1.4663 0.8907
20.8937 7.1236 -1.6186 0.9153
20.6260 7.8652 -1.6186 0.9153
19.6666 10.0261 -1.6186 0.9153
18.9009 11.4043 -1.6186 0.9153
18.0388 12.7243 -1.6186 0.9153
17.0847 13.9795 -1.6186 0.9153
15.4917 15.7267 -1.6186 0.9153
12.4292 15.6653 -1.4662 0.9229
11.2795 16.5126 -1.4662 0.9229
10.6826 16.9049 -1.4662 0.9229
9.4488 17.6244 -1.4663 0.9229
7.5098 18.5341 -1.4663 0.9229
6.8432 18.7905 -1.4663 0.9229
5.4846 19.2312 -1.4663 0.9229
15.9576 5.4406 -1.6186 0.9345
15.7531 6.0070 -1.6186 0.9345
15.2842 7.1161 -1.6186 0.9345
14.4355 8.7100 -1.6186 0.9345
14.1154 9.2200 -1.6186 0.9345
13.4213 10.2040 -1.6186 0.9345
12.6588 11.1360 -1.6186 0.9345
11.8317 12.0112 -1.6186 0.9345
9.9139 11.6176 -1.4662 0.9405
9.4927 11.9643 -1.4663 0.9405
8.6146 12.6114 -1.4663 0.9405
8.1588 12.9110 -1.4663 0.9405
7.2165 13.4604 -1.4663 0.9405
5.7355 14.1552 -1.4663 0.9405
5.2264 14.3510 -1.4663 0.9405
12.8974 4.3973 -1.6186 0.9466
12.7321 4.8550 -1.6186 0.9466
12.5506 5.3066 -1.6186 0.9466
12.3531 5.7515 -1.6186 0.9466
12.1399 6.1889 -1.6186 0.9466
11.6672 7.0397 -1.6186 0.9466
11.4084 7.4518 -1.6186 0.9466
10.8474 8.2471 -1.6186 0.9466
10.5460 8.6293 -1.6186 0.9466
10.2312 9.0004 -1.6186 0.9466
9.9032 9.3600 -1.6186 0.9466
9.1741 10.0039 -1.6123 0.9468
7.6722 9.6698 -1.4663 0.9515
6.9625 10.1928 -1.4663 0.9515
6.5941 10.4349 -1.4663 0.9515
2.9326 6.5547 -0.8530 0.9715
3.8072 11.7422 -1.4663 0.9515
3.3854 11.8707 -1.4663 0.9515
10.3564 4.8218 -1.6186 0.9549
9.9858 5.5487 -1.6186 0.9549
9.5644 6.2473 -1.6186 0.9549
9.0941 6.9141 -1.6187 0.9549
8.8414 7.2344 -1.6187 0.9549
8.0170 8.1386 -1.6187 0.9549
7.7206 8.4189 -1.6185 0.9549
7.3849 8.6540 -1.6119 0.9551
5.2123 8.9401 -1.4663 0.9591
2.7198 6.7124 -1.0262 0.9712
3.5413 9.7239 -1.4663 0.9591
2.8382 9.9519 -1.4663 0.9591
9.4071 2.8366 -1.6186 0.9610
9.2998 3.1707 -1.6186 0.9610
9.0498 3.8264 -1.6186 0.9610
8.7536 4.4626 -1.6186 0.9610
8.5887 4.7724 -1.6187 0.9610
8.4128 5.0760 -1.6187 0.9610
8.0291 5.6636 -1.6187 0.9610
7.6044 6.2222 -1.6187 0.9610
7.1409 6.7491 -1.6187 0.9610
6.8953 6.9999 -1.6187 0.9610
6.6409 7.2416 -1.6187 0.9610
6.0886 7.6738 -1.6138 0.9611
5.0204 7.3496 -1.4663 0.9646
4.7548 7.5242 -1.4663 0.9646
4.4830 7.6892 -1.4663 0.9646
4.2056 7.8444 -1.4663 0.9646
2.7139 6.6979 -1.1905 0.9711
2.7452 8.4668 -1.4663 0.9646
8.1509 2.7790 -1.6187 0.9656
8.0465 3.0683 -1.6187 0.9656
7.9318 3.3537 -1.6187 0.9656
7.8070 3.6348 -1.6187 0.9656
7.6722 3.9113 -1.6187 0.9656
7.5276 4.1828 -1.6187 0.9656
7.0371 4.9639 -1.6187 0.9656
6.8554 5.2120 -1.6187 0.9656
6.6649 5.4535 -1.6187 0.9656
6.4659 5.6881 -1.6187 0.9656
5.3527 6.7463 -1.6187 0.9656
5.1007 6.9227 -1.6162 0.9656
4.8366 7.0805 -1.6117 0.9657
4.3482 6.8809 -1.5299 0.9674
3.9292 6.7393 -1.4663 0.9687
3.6860 6.8753 -1.4663 0.9687
2.6695 7.3301 -1.4663 0.9687
2.4060 7.4208 -1.4663 0.9687
7.3315 2.2107 -1.6187 0.9692
7.2479 2.4712 -1.6187 0.9692
7.1550 2.7284 -1.6187 0.9692
6.9421 3.2321 -1.6187 0.9692
6.8222 3.4780 -1.6187 0.9692
6.6937 3.7194 -1.6187 0.9692
6.0959 4.6346 -1.6187 0.9692
5.9265 4.8493 -1.6187 0.9692
5.1757 5.6438 -1.6187 0.9692
4.9708 5.8251 -1.6187 0.9692
4.5424 6.1650 -1.6187 0.9692
4.3193 6.3233 -1.6187 0.9692
4.0817 6.4591 -1.6151 0.9692
3.4449 6.4257 -1.5411 0.9706
2.8329 6.3320 -1.4663 0.9720
2.6050 6.4291 -1.4663 0.9720
2.3737 6.5180 -1.4663 0.9720
2.1395 6.5986 -1.4663 0.9720
1.9025 6.6708 -1.4663 0.9720
6.5940 1.9883 -1.6187 0.9721
6.4353 2.4539 -1.6187 0.9721
6.3435 2.6822 -1.6187 0.9721
6.2437 2.9070 -1.6187 0.9721
6.1359 3.1281 -1.6187 0.9721
5.1712 4.5491 -1.6187 0.9721
5.0054 4.7309 -1.6187 0.9721
4.8333 4.9066 -1.6187 0.9721
4.4708 5.2391 -1.6187 0.9721
4.2808 5.3954 -1.6187 0.9721
4.0854 5.5448 -1.6187 0.9721
3.8848 5.6872 -1.6187 0.9721
3.6792 5.8223 -1.6187 0.9721
3.4682 5.9487 -1.6183 0.9721
3.0228 6.1566 -1.6119 0.9722
2.7225 6.0851 -1.5667 0.9730
2.4176 5.9667 -1.5130 0.9739
2.1352 5.8630 -1.4665 0.9747
1.9242 5.9348 -1.4663 0.9747
1.7111 5.9998 -1.4663 0.9747
5.7581 2.4346 -1.6187 0.9745
5.5697 2.8394 -1.6187 0.9745
5.4647 3.0365 -1.6187 0.9745
5.3528 3.2297 -1.6187 0.9745
5.2340 3.4188 -1.6187 0.9745
4.9767 3.7837 -1.6187 0.9745
4.8384 3.9590 -1.6187 0.9745
4.6939 4.1293 -1.6187 0.9745
4.3872 4.4538 -1.6187 0.9745
4.0582 4.7556 -1.6187 0.9745
3.5263 5.1623 -1.6187 0.9745
3.1489 5.4009 -1.6187 0.9745
2.7551 5.6113 -1.6185 0.9745
2.5487 5.6967 -1.6159 0.9745
2.3399 5.7747 -1.6133 0.9746
1.8543 5.7192 -1.5567 0.9755
5.4744 1.6507 -1.6187 0.9765
5.4119 1.8452 -1.6187 0.9765
5.3426 2.0373 -1.6187 0.9765
5.0941 2.5970 -1.6187 0.9765
4.8957 2.9539 -1.6187 0.9765
4.7871 3.1269 -1.6187 0.9765
4.5517 3.4606 -1.6187 0.9765
4.1555 3.9275 -1.6187 0.9765
4.0126 4.0735 -1.6187 0.9765
3.8646 4.2141 -1.6187 0.9765
3.5539 4.4792 -1.6187 0.9765
3.3917 4.6033 -1.6187 0.9765
2.5200 5.1326 -1.6187 0.9765
1.7593 5.4262 -1.6149 0.9766
1.5624 5.4784 -1.6127 0.9766
4.9811 1.6983 -1.6187 0.9782
4.7709 2.2213 -1.6187 0.9782
4.6885 2.3902 -1.6187 0.9782
4.4060 2.8779 -1.6187 0.9782
4.3004 3.0335 -1.6187 0.9782
4.0730 3.3327 -1.6187 0.9782
3.9514 3.4760 -1.6187 0.9782
3.8247 3.6149 -1.6187 0.9782
3.5569 3.8787 -1.6187 0.9782
3.1217 4.2369 -1.6187 0.9782
2.8113 4.4489 -1.6187 0.9782
2.6507 4.5464 -1.6187 0.9782
2.4866 4.6382 -1.6187 0.9782
1.9763 4.8775 -1.6187 0.9782
1.4433 5.0607 -1.6186 0.9782
4.6622 1.4058 -1.6187 0.9797
4.6091 1.5715 -1.6187 0.9797
4.4852 1.8964 -1.6187 0.9797
4.4146 2.0554 -1.6187 0.9797
4.3383 2.2117 -1.6187 0.9797
4.2566 2.3652 -1.6187 0.9797
4.0769 2.6630 -1.6187 0.9797
3.7687 3.0838 -1.6187 0.9797
3.4173 3.4692 -1.6187 0.9797
3.1610 3.7042 -1.6187 0.9797
3.0267 3.8148 -1.6187 0.9797
2.8886 3.9204 -1.6187 0.9797
2.7467 4.0211 -1.6187 0.9797
2.6014 4.1166 -1.6187 0.9797
2.3009 4.2918 -1.6187 0.9797
2.1462 4.3712 -1.6187 0.9797
1.8287 4.5133 -1.6187 0.9797
1.6664 4.5757 -1.6187 0.9797
4.2843 1.4607 -1.6187 0.9810
4.1035 1.9105 -1.6187 0.9810
4.0326 2.0558 -1.6187 0.9810
3.9567 2.1985 -1.6187 0.9810
3.8756 2.3384 -1.6187 0.9810
3.7896 2.4753 -1.6187 0.9810
3.6033 2.7395 -1.6187 0.9810
3.5032 2.8665 -1.6187 0.9810
3.2897 3.1092 -1.6187 0.9810
3.0593 3.3361 -1.6187 0.9810
2.9382 3.4432 -1.6187 0.9810
2.5532 3.7377 -1.6187 0.9810
2.4181 3.8265 -1.6187 0.9810
2.2799 3.9104 -1.6187 0.9810
2.1388 3.9893 -1.6187 0.9810
1.3961 4.3058 -1.6187 0.9810
4.0441 1.2194 -1.6187 0.9821
3.9979 1.3631 -1.6187 0.9821
3.9467 1.5050 -1.6187 0.9821
3.8292 1.7829 -1.6187 0.9821
3.7631 1.9185 -1.6187 0.9821
3.6166 2.1821 -1.6187 0.9821
3.5364 2.3099 -1.6187 0.9821
3.4516 2.4347 -1.6187 0.9821
3.2690 2.6749 -1.6187 0.9821
3.1714 2.7899 -1.6187 0.9821
1.9958 3.7227 -1.6187 0.9821
1.7251 3.8557 -1.6187 0.9821
1.3028 4.0181 -1.6187 0.9821
3.7866 1.1418 -1.6187 0.9831
3.7434 1.2763 -1.6187 0.9831
3.6954 1.4092 -1.6187 0.9831
3.5854 1.6693 -1.6187 0.9831
3.4572 1.9210 -1.6187 0.9831
3.3863 2.0432 -1.6187 0.9831
3.3112 2.1629 -1.6187 0.9831
3.1484 2.3937 -1.6187 0.9831
3.0609 2.5046 -1.6187 0.9831
2.9695 2.6123 -1.6187 0.9831
2.7755 2.8176 -1.6187 0.9831
2.6731 2.9149 -1.6187 0.9831
2.4583 3.0983 -1.6187 0.9831
2.3460 3.1841 -1.6187 0.9831
2.2308 3.2658 -1.6187 0.9831
1.3534 3.7163 -1.6187 0.9831
3.5560 1.0723 -1.6187 0.9839
3.5154 1.1986 -1.6187 0.9839
3.4209 1.4464 -1.6187 0.9839
3.2466 1.8040 -1.6187 0.9839
3.1801 1.9188 -1.6187 0.9839
3.0350 2.1409 -1.6187 0.9839
2.6065 2.6460 -1.6187 0.9839
2.5103 2.7374 -1.6187 0.9839
2.2032 2.9902 -1.6187 0.9839
1.8707 3.2087 -1.6187 0.9839
1.7550 3.2734 -1.6187 0.9839
1.5168 3.3903 -1.6187 0.9839
1.2710 3.4900 -1.6187 0.9839
3.3099 1.1285 -1.6187 0.9847
3.2675 1.2460 -1.6187 0.9847
3.2209 1.3619 -1.6187 0.9847
3.1702 1.4760 -1.6187 0.9847
3.0568 1.6985 -1.6187 0.9847
2.9277 1.9124 -1.6187 0.9847
2.5415 2.4020 -1.6187 0.9847
2.2700 2.6601 -1.6187 0.9847
2.1736 2.7395 -1.6187 0.9847
2.0743 2.8153 -1.6187 0.9847
1.8681 2.9562 -1.6187 0.9847
1.6523 3.0820 -1.6187 0.9847
1.5412 3.1391 -1.6187 0.9847
1.4281 3.1921 -1.6187 0.9847
1.3132 3.2411 -1.6187 0.9847
1.0786 3.3265 -1.6187 0.9847
0.9591 3.3629 -1.6187 0.9847
3.1234 1.0649 -1.6187 0.9854
3.0833 1.1758 -1.6187 0.9854
2.9916 1.3928 -1.6187 0.9854
2.9399 1.4988 -1.6187 0.9854
2.8845 1.6028 -1.6187 0.9854
2.7628 1.8046 -1.6187 0.9854
2.5539 2.0897 -1.6187 0.9854
2.3158 2.3509 -1.6187 0.9854
2.1421 2.5102 -1.6187 0.9854
1.9575 2.6567 -1.6187 0.9854
1.6621 2.8508 -1.6187 0.9854
1.5592 2.9083 -1.6187 0.9854
1.4544 2.9622 -1.6187 0.9854
1.3477 3.0122 -1.6187 0.9854
1.2392 3.0584 -1.6187 0.9854
1.1292 3.1007 -1.6187 0.9854
1.0178 3.1391 -1.6187 0.9854
2.8739 1.2151 -1.6187 0.9860
2.8286 1.3170 -1.6187 0.9860
2.7798 1.4171 -1.6187 0.9860
2.6123 1.7063 -1.6187 0.9860
2.4148 1.9759 -1.6187 0.9860
2.3427 2.0609 -1.6187 0.9860
2.1897 2.2229 -1.6187 0.9860
2.1089 2.2996 -1.6187 0.9860
1.9394 2.4443 -1.6187 0.9860
1.8508 2.5120 -1.6187 0.9860
1.7600 2.5765 -1.6187 0.9860
1.6668 2.6377 -1.6187 0.9860
1.5716 2.6955 -1.6187 0.9860
1.4743 2.7499 -1.6187 0.9860
1.2743 2.8482 -1.6187 0.9860
1.1717 2.8919 -1.6187 0.9860
2.7973 0.9537 -1.6187 0.9866
2.7615 1.0530 -1.6187 0.9866
2.6330 1.3423 -1.6187 0.9866
2.5305 1.5268 -1.6187 0.9866
2.4743 1.6162 -1.6187 0.9866
2.3527 1.7887 -1.6187 0.9866
2.1479 2.0301 -1.6187 0.9866
1.8369 2.3152 -1.6187 0.9866
1.7531 2.3793 -1.6187 0.9866
1.3025 2.6529 -1.6187 0.9866
0.8105 2.8421 -1.6187 0.9866
2.6843 0.8094 -1.6187 0.9871
2.5823 1.0918 -1.6187 0.9871
2.5417 1.1834 -1.6187 0.9871
2.4978 1.2734 -1.6187 0.9871
2.4507 1.3618 -1.6187 0.9871
2.3473 1.5332 -1.6187 0.9871
2.1698 1.7755 -1.6187 0.9871
2.1051 1.8518 -1.6187 0.9871
2.0376 1.9258 -1.6187 0.9871
1.9675 1.9973 -1.6187 0.9871
1.7426 2.1963 -1.6187 0.9871
1.4977 2.3701 -1.6187 0.9871
1.3248 2.4710 -1.6187 0.9871
1.2357 2.5167 -1.6187 0.9871
1.1450 2.5592 -1.6187 0.9871
0.8647 2.6670 -1.6187 0.9871
0.7689 2.6962 -1.6187 0.9871
