ply
format ascii 1.0
element vertex 421
property float32 x
property float32 y
property float32 z
property float32 I
end_header
7.3731 -46.0151 7.1392 0.8281
9.1875 -46.5222 7.2646 0.8254
9.1875 -46.5222 6.1752 0.8259
21.4153 -40.7624 5.9961 0.8305
12.3465 -45.1078 5.0219 0.8285
13.6101 -43.4946 4.8938 0.8325
15.6724 -44.3959 5.0556 0.8274
9.1875 -46.5222 4.0143 0.8267
11.0692 -47.0482 4.0915 0.8236
13.1754 -42.1055 3.7348 0.8377
14.7634 -41.8212 3.7544 0.8369
16.8406 -42.7266 3.8877 0.8316
18.8966 -43.2943 3.9989 0.8273
21.2604 -44.2788 4.1580 0.8210
9.1875 -46.5222 2.9406 0.8269
12.3466 -45.1079 2.9000 0.8291
15.9596 -40.4916 2.6989 0.8399
22.3784 -42.5956 2.9837 0.8246
22.4887 -36.1970 2.6425 0.8430
7.3731 -46.0151 1.8376 0.8298
11.0692 -47.0481 1.9058 0.8241
13.1754 -42.1056 1.7396 0.8381
13.9164 -39.4218 1.6485 0.8459
17.0844 -39.1422 1.6840 0.8429
21.1543 -40.2659 1.7935 0.8335
23.6262 -41.2803 1.8755 0.8266
26.0651 -41.9536 1.9475 0.8206
9.1875 -46.5222 0.8010 0.8272
11.0692 -47.0481 0.8164 0.8242
12.3466 -45.1081 0.7900 0.8294
13.9164 -39.4218 0.7062 0.8460
16.2606 -37.2549 0.6866 0.8499
18.1366 -37.7728 0.7078 0.8457
20.1344 -38.3244 0.7313 0.8410
22.2722 -38.9146 0.7574 0.8358
7.3731 -46.0151 -0.2624 0.8299
9.1875 -46.5222 -0.2670 0.8272
12.3466 -45.1081 -0.2633 0.8294
21.1439 -36.9433 -0.2397 0.8434
23.3267 -37.5459 -0.2489 0.8379
25.6872 -38.1976 -0.2592 0.8318
28.2550 -38.9065 -0.2707 0.8250
7.3731 -46.0150 -1.3122 0.8299
9.1875 -46.5222 -1.3353 0.8272
11.0692 -47.0481 -1.3609 0.8241
13.9164 -39.4219 -1.1772 0.8460
16.4828 -34.3285 -1.0723 0.8587
24.3165 -36.1593 -1.2270 0.8400
26.7473 -36.8303 -1.2817 0.8335
12.5493 -11.9804 -0.4885 0.9329
12.7341 -11.3072 -0.4795 0.9341
5.7503 -29.1088 -1.5047 0.8880
6.7887 -28.8536 -1.5032 0.8881
8.8368 -28.2401 -1.5006 0.8882
9.8504 -27.9037 -1.5007 0.8882
12.7873 -26.6320 -1.4982 0.8884
14.6702 -25.6321 -1.4978 0.8884
15.5709 -25.0623 -1.4963 0.8885
16.4576 -24.4725 -1.4956 0.8886
17.0085 -18.7627 -1.2843 0.9035
12.5437 -11.9751 -0.8795 0.9329
13.8790 -11.4553 -0.9126 0.9305
13.9447 -10.6875 -0.8910 0.9321
15.1369 -9.9549 -0.9188 0.9300
25.9445 -13.2918 -1.4784 0.8898
26.3736 -12.3312 -1.4765 0.8899
27.1236 -10.3698 -1.4727 0.8902
27.7325 -8.3658 -1.4690 0.8905
4.5792 -19.4631 -1.4660 0.9229
5.9709 -19.0815 -1.4660 0.9229
6.6555 -18.8533 -1.4660 0.9229
7.3314 -18.6006 -1.4659 0.9229
8.6536 -18.0228 -1.4659 0.9229
10.5503 -16.9813 -1.4658 0.9229
11.7473 -16.1757 -1.4658 0.9230
12.3232 -15.7410 -1.4658 0.9230
12.8830 -15.2859 -1.4658 0.9230
12.6147 -12.9447 -1.3253 0.9301
13.8896 -11.4640 -1.3205 0.9303
16.7010 -10.9835 -1.4656 0.9230
15.2602 -9.2649 -1.3090 0.9309
18.1070 -8.4661 -1.4656 0.9230
18.4006 -7.8071 -1.4656 0.9230
18.9156 -6.4595 -1.4656 0.9230
4.0315 -14.7290 -1.4661 0.9405
5.0832 -14.3995 -1.4660 0.9405
6.1084 -13.9950 -1.4660 0.9405
6.6094 -13.7653 -1.4660 0.9405
7.1018 -13.5177 -1.4660 0.9405
7.5849 -13.2525 -1.4659 0.9405
8.5208 -12.6706 -1.4659 0.9405
9.4123 -12.0228 -1.4659 0.9405
14.0353 -9.2304 -1.6127 0.9347
14.3965 -8.7405 -1.6169 0.9346
14.7133 -8.2213 -1.6181 0.9345
15.0003 -7.6850 -1.6181 0.9345
15.7428 -6.0187 -1.6181 0.9345
16.1358 -4.8675 -1.6181 0.9345
2.1558 -13.4540 -1.6185 0.9466
2.6399 -13.3673 -1.6185 0.9466
3.1205 -13.2632 -1.6185 0.9466
3.5971 -13.1418 -1.6185 0.9466
4.5355 -12.8479 -1.6185 0.9466
4.9961 -12.6757 -1.6184 0.9466
5.4502 -12.4871 -1.6184 0.9466
6.3366 -12.0612 -1.6184 0.9466
6.7676 -11.8246 -1.6184 0.9466
7.6027 -11.3055 -1.6183 0.9466
8.3982 -10.7275 -1.6183 0.9466
8.7798 -10.4174 -1.6183 0.9466
9.1499 -10.0937 -1.6183 0.9466
10.1870 -9.0455 -1.6183 0.9466
11.6448 -7.0699 -1.6182 0.9466
11.8923 -6.6450 -1.6182 0.9466
12.7244 -4.8648 -1.6182 0.9466
12.8917 -4.4024 -1.6182 0.9466
2.6161 -11.1194 -1.6185 0.9549
3.0157 -11.0177 -1.6185 0.9549
3.8024 -10.7713 -1.6185 0.9549
4.1886 -10.6270 -1.6185 0.9549
4.5693 -10.4688 -1.6185 0.9549
4.9441 -10.2970 -1.6184 0.9549
5.3124 -10.1118 -1.6184 0.9549
5.6738 -9.9135 -1.6184 0.9549
6.3740 -9.4783 -1.6184 0.9549
7.3608 -8.7337 -1.6184 0.9549
7.9715 -8.1800 -1.6183 0.9549
8.5406 -7.5836 -1.6183 0.9549
8.8087 -7.2704 -1.6183 0.9549
9.0653 -6.9478 -1.6183 0.9549
9.3100 -6.6161 -1.6183 0.9549
9.7629 -5.9273 -1.6183 0.9549
10.3461 -4.8374 -1.6183 0.9549
2.9340 -9.3764 -1.6185 0.9610
3.6026 -9.1402 -1.6185 0.9610
4.2524 -8.8564 -1.6185 0.9610
4.5692 -8.6971 -1.6185 0.9610
4.8800 -8.5266 -1.6184 0.9610
5.4822 -8.1523 -1.6184 0.9610
6.8563 -7.0356 -1.6184 0.9610
7.7971 -5.9758 -1.6183 0.9610
8.0076 -5.6905 -1.6183 0.9610
8.3971 -5.0981 -1.6183 0.9610
8.7429 -4.4792 -1.6183 0.9610
9.1757 -3.5080 -1.6183 0.9610
9.2963 -3.1746 -1.6183 0.9610
1.3624 -8.5027 -1.6186 0.9656
1.9721 -8.3822 -1.6185 0.9656
2.5715 -8.2180 -1.6185 0.9656
2.8664 -8.1198 -1.6185 0.9656
3.7271 -7.7624 -1.6185 0.9656
4.0047 -7.6227 -1.6185 0.9656
4.2772 -7.4732 -1.6185 0.9656
5.5490 -6.5840 -1.6184 0.9656
5.7829 -6.3794 -1.6184 0.9656
6.2279 -5.9456 -1.6184 0.9656
6.6405 -5.4809 -1.6184 0.9656
7.0185 -4.9876 -1.6184 0.9656
7.1938 -4.7311 -1.6184 0.9656
7.3599 -4.4684 -1.6184 0.9656
7.5163 -4.1999 -1.6184 0.9656
7.6629 -3.9259 -1.6184 0.9656
7.9261 -3.3629 -1.6183 0.9656
8.0423 -3.0747 -1.6183 0.9656
8.1480 -2.7825 -1.6183 0.9656
1.4835 -7.5120 -1.6186 0.9692
1.7537 -7.4536 -1.6186 0.9692
3.8033 -6.6453 -1.6185 0.9692
4.0407 -6.5037 -1.6185 0.9692
4.7198 -6.0289 -1.6185 0.9692
5.1423 -5.6727 -1.6184 0.9692
5.3436 -5.4834 -1.6184 0.9692
5.7252 -5.0837 -1.6184 0.9692
5.9049 -4.8737 -1.6184 0.9692
6.2410 -4.4351 -1.6184 0.9692
6.3969 -4.2070 -1.6184 0.9692
6.5446 -3.9734 -1.6184 0.9692
6.6837 -3.7346 -1.6184 0.9692
6.8141 -3.4910 -1.6184 0.9692
6.9356 -3.2428 -1.6184 0.9692
7.0481 -2.9904 -1.6184 0.9692
7.2454 -2.4742 -1.6184 0.9692
1.0896 -6.8001 -1.6186 0.9721
1.5772 -6.7038 -1.6186 0.9721
2.0566 -6.5725 -1.6185 0.9721
2.5253 -6.4070 -1.6185 0.9721
3.2029 -6.0964 -1.6185 0.9721
3.4208 -5.9769 -1.6185 0.9721
3.6342 -5.8495 -1.6185 0.9721
3.8429 -5.7145 -1.6185 0.9721
4.0466 -5.5721 -1.6185 0.9721
4.6250 -5.1021 -1.6185 0.9721
5.4656 -4.1890 -1.6184 0.9721
5.6132 -3.9890 -1.6184 0.9721
5.7535 -3.7838 -1.6184 0.9721
5.8863 -3.5737 -1.6184 0.9721
6.0114 -3.3590 -1.6184 0.9721
6.1287 -3.1398 -1.6184 0.9721
6.3392 -2.6896 -1.6184 0.9721
6.4321 -2.4591 -1.6184 0.9721
6.5166 -2.2253 -1.6184 0.9721
1.6503 -6.0295 -1.6186 0.9745
2.2922 -5.8157 -1.6185 0.9745
2.7057 -5.6352 -1.6185 0.9745
2.9073 -5.5339 -1.6185 0.9745
3.2988 -5.3097 -1.6185 0.9745
3.6732 -5.0579 -1.6185 0.9745
3.8533 -4.9221 -1.6185 0.9745
4.0284 -4.7798 -1.6185 0.9745
4.1983 -4.6313 -1.6185 0.9745
4.5213 -4.3164 -1.6185 0.9745
4.8208 -3.9790 -1.6185 0.9745
5.0952 -3.6209 -1.6184 0.9745
5.4567 -3.0490 -1.6184 0.9745
5.6624 -2.6475 -1.6184 0.9745
5.8386 -2.2322 -1.6184 0.9745
5.9153 -2.0200 -1.6184 0.9745
5.9843 -1.8052 -1.6184 0.9745
0.9046 -5.6455 -1.6186 0.9765
1.1077 -5.6092 -1.6186 0.9765
1.5094 -5.5146 -1.6186 0.9765
1.7074 -5.4565 -1.6186 0.9765
2.4747 -5.1540 -1.6185 0.9765
2.8400 -4.9621 -1.6185 0.9765
3.1904 -4.7442 -1.6185 0.9765
3.5243 -4.5018 -1.6185 0.9765
4.5377 -3.4778 -1.6185 0.9765
4.6602 -3.3117 -1.6185 0.9765
4.8869 -2.9670 -1.6184 0.9765
5.0881 -2.6067 -1.6184 0.9765
5.3400 -2.0416 -1.6184 0.9765
0.8326 -5.1961 -1.6186 0.9782
1.2052 -5.1225 -1.6186 0.9782
1.9296 -4.8957 -1.6185 0.9782
2.1050 -4.8228 -1.6185 0.9782
2.2777 -4.7437 -1.6185 0.9782
2.7770 -4.4697 -1.6185 0.9782
2.9365 -4.3666 -1.6185 0.9782
3.0921 -4.2578 -1.6185 0.9782
3.2438 -4.1434 -1.6185 0.9782
3.5341 -3.8986 -1.6185 0.9782
3.6725 -3.7685 -1.6185 0.9782
3.8061 -3.6336 -1.6185 0.9782
3.9347 -3.4938 -1.6185 0.9782
4.1765 -3.2009 -1.6185 0.9782
4.2892 -3.0481 -1.6185 0.9782
4.6831 -2.3992 -1.6185 0.9782
4.9150 -1.8791 -1.6184 0.9782
5.0377 -1.5197 -1.6184 0.9782
0.7704 -4.8080 -1.6186 0.9797
1.2855 -4.6965 -1.6186 0.9797
1.6209 -4.5915 -1.6186 0.9797
1.9478 -4.4626 -1.6185 0.9797
2.4187 -4.2260 -1.6185 0.9797
2.5696 -4.1359 -1.6185 0.9797
2.8612 -3.9398 -1.6185 0.9797
3.0015 -3.8339 -1.6185 0.9797
3.5219 -3.3622 -1.6185 0.9797
4.0681 -2.6754 -1.6185 0.9797
4.1619 -2.5269 -1.6185 0.9797
4.3334 -2.2201 -1.6185 0.9797
4.4107 -2.0623 -1.6185 0.9797
4.4822 -1.9017 -1.6185 0.9797
4.6077 -1.5735 -1.6185 0.9797
4.6614 -1.4062 -1.6185 0.9797
1.3517 -4.3196 -1.6186 0.9810
1.8106 -4.1482 -1.6186 0.9810
1.9590 -4.0801 -1.6185 0.9810
2.2482 -3.9282 -1.6185 0.9810
2.5257 -3.7558 -1.6185 0.9810
2.6596 -3.6622 -1.6185 0.9810
2.7900 -3.5638 -1.6185 0.9810
2.9167 -3.4608 -1.6185 0.9810
3.0397 -3.3533 -1.6185 0.9810
3.2737 -3.1253 -1.6185 0.9810
3.4905 -2.8810 -1.6185 0.9810
3.7814 -2.4869 -1.6185 0.9810
3.8687 -2.3488 -1.6185 0.9810
3.9509 -2.2076 -1.6185 0.9810
4.0280 -2.0636 -1.6185 0.9810
4.1663 -1.7677 -1.6185 0.9810
4.2830 -1.4626 -1.6185 0.9810
0.8183 -4.1437 -1.6186 0.9821
0.9673 -4.1114 -1.6186 0.9821
1.1150 -4.0738 -1.6186 0.9821
1.2613 -4.0309 -1.6186 0.9821
1.5488 -3.9294 -1.6186 0.9821
1.6896 -3.8710 -1.6186 0.9821
1.8281 -3.8075 -1.6186 0.9821
1.9643 -3.7390 -1.6185 0.9821
2.3569 -3.5048 -1.6185 0.9821
2.4818 -3.4174 -1.6185 0.9821
2.7218 -3.2295 -1.6185 0.9821
3.0549 -2.9164 -1.6185 0.9821
3.3522 -2.5692 -1.6185 0.9821
3.4427 -2.4465 -1.6185 0.9821
3.6101 -2.1918 -1.6185 0.9821
3.7588 -1.9257 -1.6185 0.9821
3.8259 -1.7888 -1.6185 0.9821
0.7662 -3.8799 -1.6186 0.9831
1.4502 -3.6792 -1.6186 0.9831
1.5820 -3.6245 -1.6186 0.9831
1.7117 -3.5651 -1.6186 0.9831
1.8393 -3.5010 -1.6186 0.9831
1.9644 -3.4323 -1.6185 0.9831
2.0870 -3.3592 -1.6185 0.9831
2.4378 -3.1139 -1.6185 0.9831
2.5486 -3.0239 -1.6185 0.9831
2.7600 -2.8322 -1.6185 0.9831
2.8604 -2.7307 -1.6185 0.9831
2.9571 -2.6257 -1.6185 0.9831
3.1388 -2.4056 -1.6185 0.9831
3.3041 -2.1729 -1.6185 0.9831
3.5195 -1.8031 -1.6185 0.9831
3.5823 -1.6750 -1.6185 0.9831
3.6404 -1.5446 -1.6185 0.9831
3.7860 -1.1421 -1.6185 0.9831
0.5876 -3.6672 -1.6186 0.9839
0.7196 -3.6436 -1.6186 0.9839
1.1091 -3.5444 -1.6186 0.9839
1.2363 -3.5021 -1.6186 0.9839
1.3618 -3.4552 -1.6186 0.9839
1.6075 -3.3479 -1.6186 0.9839
1.7273 -3.2878 -1.6186 0.9839
1.8448 -3.2233 -1.6186 0.9839
2.0725 -3.0818 -1.6185 0.9839
2.1823 -3.0050 -1.6185 0.9839
2.3933 -2.8398 -1.6185 0.9839
2.4943 -2.7515 -1.6185 0.9839
2.6862 -2.5645 -1.6185 0.9839
2.7770 -2.4658 -1.6185 0.9839
2.8642 -2.3640 -1.6185 0.9839
2.9476 -2.2591 -1.6185 0.9839
3.1029 -2.0406 -1.6185 0.9839
3.1745 -1.9273 -1.6185 0.9839
3.4187 -1.4505 -1.6185 0.9839
3.5144 -1.2002 -1.6185 0.9839
3.5555 -1.0726 -1.6185 0.9839
0.5533 -3.4527 -1.6186 0.9847
0.6775 -3.4305 -1.6186 0.9847
0.8008 -3.4038 -1.6186 0.9847
1.0442 -3.3372 -1.6186 0.9847
1.1640 -3.2973 -1.6186 0.9847
1.2822 -3.2531 -1.6186 0.9847
1.7369 -3.0348 -1.6186 0.9847
1.8453 -2.9701 -1.6186 0.9847
1.9513 -2.9016 -1.6185 0.9847
2.0547 -2.8293 -1.6185 0.9847
2.1554 -2.7533 -1.6185 0.9847
2.4404 -2.5042 -1.6185 0.9847
2.7753 -2.1270 -1.6185 0.9847
2.8502 -2.0255 -1.6185 0.9847
2.9889 -1.8146 -1.6185 0.9847
3.0524 -1.7056 -1.6185 0.9847
3.2188 -1.3657 -1.6185 0.9847
3.3089 -1.1300 -1.6185 0.9847
3.3476 -1.0098 -1.6185 0.9847
0.6393 -3.2372 -1.6186 0.9854
0.7557 -3.2120 -1.6186 0.9854
0.9854 -3.1492 -1.6186 0.9854
1.3200 -3.0242 -1.6186 0.9854
1.5346 -2.9211 -1.6186 0.9854
1.6391 -2.8638 -1.6186 0.9854
1.7413 -2.8028 -1.6186 0.9854
2.0340 -2.5982 -1.6185 0.9854
2.1264 -2.5231 -1.6185 0.9854
2.3029 -2.3631 -1.6185 0.9854
2.5447 -2.1004 -1.6185 0.9854
2.6896 -1.9114 -1.6185 0.9854
2.9890 -1.3975 -1.6185 0.9854
3.0820 -1.1783 -1.6185 0.9854
3.1225 -1.0663 -1.6185 0.9854
0.4936 -3.0807 -1.6186 0.9860
0.6045 -3.0609 -1.6186 0.9860
0.7145 -3.0371 -1.6186 0.9860
0.8237 -3.0093 -1.6186 0.9860
1.1441 -2.9026 -1.6186 0.9860
1.2481 -2.8595 -1.6186 0.9860
1.3505 -2.8126 -1.6186 0.9860
1.5498 -2.7078 -1.6186 0.9860
1.6465 -2.6501 -1.6186 0.9860
1.8333 -2.5245 -1.6186 0.9860
1.9232 -2.4566 -1.6186 0.9860
2.0106 -2.3856 -1.6185 0.9860
2.4763 -1.8979 -1.6185 0.9860
2.6067 -1.7143 -1.6185 0.9860
2.8262 -1.3214 -1.6185 0.9860
2.8720 -1.2186 -1.6185 0.9860
2.9142 -1.1141 -1.6185 0.9860
2.9524 -1.0083 -1.6185 0.9860
0.4676 -2.9180 -1.6186 0.9866
0.9837 -2.7867 -1.6186 0.9866
1.0836 -2.7494 -1.6186 0.9866
1.5595 -2.5102 -1.6186 0.9866
1.6491 -2.4523 -1.6186 0.9866
1.9045 -2.2597 -1.6186 0.9866
1.9848 -2.1895 -1.6185 0.9866
2.1375 -2.0406 -1.6185 0.9866
2.4691 -1.6238 -1.6185 0.9866
2.5260 -1.5336 -1.6185 0.9866
2.7603 -1.0553 -1.6185 0.9866
2.7966 -0.9550 -1.6185 0.9866
2.8292 -0.8535 -1.6185 0.9866
0.4436 -2.7682 -1.6186 0.9871
0.6421 -2.7290 -1.6186 0.9871
0.9332 -2.6436 -1.6186 0.9871
1.0280 -2.6082 -1.6186 0.9871
1.1215 -2.5694 -1.6186 0.9871
1.3039 -2.4818 -1.6186 0.9871
1.3926 -2.4331 -1.6186 0.9871
1.4795 -2.3813 -1.6186 0.9871
1.5644 -2.3263 -1.6186 0.9871
1.7281 -2.2074 -1.6186 0.9871
1.8829 -2.0770 -1.6186 0.9871
2.1621 -1.7845 -1.6185 0.9871
2.3423 -1.5404 -1.6185 0.9871
2.3963 -1.4549 -1.6185 0.9871
2.4473 -1.3675 -1.6185 0.9871
2.5807 -1.0950 -1.6185 0.9871
2.6529 -0.9060 -1.6185 0.9871
2.6839 -0.8096 -1.6185 0.9871
