ply
format ascii 1.0
element vertex 393
property float32 x
property float32 y
property float32 z
property float32 I
end_header
-36.2846 -17.6951 7.1182 0.8488
-35.5114 -18.9112 7.0942 0.8492
-34.3546 -23.3088 7.3203 0.8448
-38.3444 -18.6996 6.5354 0.8414
-34.9659 -21.9479 6.3244 0.8461
-34.6672 -23.5209 6.4178 0.8441
-33.9171 -24.8195 6.4385 0.8436
-35.0801 13.4059 4.8904 0.8594
-36.9983 -18.0432 5.3603 0.8470
-34.9271 -20.2276 5.2559 0.8498
-37.1059 -21.4893 4.6045 0.8416
-35.8630 -22.5110 4.5468 0.8434
-36.4415 -24.7247 4.7288 0.8376
-36.3878 -24.6883 3.7224 0.8382
-39.2773 -22.7469 2.8145 0.8337
-39.3127 -22.7674 1.7913 0.8337
-39.2549 -22.7339 0.7663 0.8340
-31.2782 -19.6332 0.6238 0.8627
-39.6680 -29.0279 0.8303 0.8215
-43.9069 -15.8754 -0.2629 0.8296
-38.8325 -17.2550 -0.2392 0.8437
-36.6828 -17.8893 -0.2298 0.8494
-32.8848 -19.0447 -0.2140 0.8590
-31.2296 -19.6026 -0.2076 0.8629
-31.8468 -21.6072 -0.2167 0.8573
-23.0766 8.8188 -0.6956 0.9059
-44.0970 -15.9441 -1.3204 0.8289
-41.5540 -16.7198 -1.2612 0.8359
-37.2463 -18.1641 -1.1668 0.8472
-32.9348 -19.0737 -1.0717 0.8587
-32.3665 -23.6849 -1.1293 0.8517
-27.9586 7.3847 -1.4665 0.8906
-28.2038 6.3849 -1.4665 0.8906
-2.9807 0.2397 -0.1517 0.9881
-2.9624 0.1323 -0.1504 0.9882
-2.9406 0.0266 -0.1491 0.9883
-2.9519 -0.0784 -0.1498 0.9882
-31.6393 -4.2444 -1.6189 0.8800
-31.2572 -6.4844 -1.6189 0.8800
-31.0066 -7.5927 -1.6189 0.8800
-30.7166 -8.6915 -1.6189 0.8800
-30.3877 -9.7791 -1.6189 0.8800
-29.6150 -11.9160 -1.6189 0.8800
-29.1721 -12.9624 -1.6189 0.8800
-28.5999 -13.9475 -1.6137 0.8803
-27.1771 -14.4728 -1.5615 0.8840
-24.4914 -15.3731 -1.4665 0.8906
-23.9286 -16.2350 -1.4665 0.8906
-23.3356 -17.0763 -1.4665 0.8906
-10.5494 4.0315 -0.8281 0.9557
-19.1431 5.7924 -1.4665 0.9229
-2.4794 0.4692 -0.1850 0.9899
-2.4093 0.1937 -0.1772 0.9904
-21.2446 -6.0113 -1.6189 0.9153
-20.7631 -7.5073 -1.6189 0.9153
-20.4828 -8.2415 -1.6189 0.9153
-20.1764 -8.9653 -1.6189 0.9153
-19.1057 -11.0648 -1.6188 0.9153
-17.8173 -13.0382 -1.6188 0.9153
-14.4531 4.9413 -1.4664 0.9405
-2.2389 0.5914 -0.2223 0.9907
-2.1601 0.3296 -0.2098 0.9913
-2.1569 0.2510 -0.2085 0.9913
-2.1544 0.0962 -0.2070 0.9914
-2.1513 0.0194 -0.2065 0.9914
-2.1530 -0.0572 -0.2068 0.9914
-2.1997 -0.4563 -0.2157 0.9910
-2.2258 -0.5450 -0.2200 0.9908
-2.2558 -0.6383 -0.2251 0.9906
-15.4091 -6.8469 -1.6188 0.9345
-14.8829 -7.9257 -1.6188 0.9345
-14.2814 -8.9643 -1.6188 0.9345
-13.6074 -9.9575 -1.6188 0.9345
-10.4948 4.0106 -1.3346 0.9558
-2.0720 0.6269 -0.2571 0.9913
-2.0556 0.5429 -0.2525 0.9915
-2.0391 0.4616 -0.2483 0.9916
-2.0224 0.3827 -0.2445 0.9917
-2.0062 0.1613 -0.2391 0.9919
-1.9974 0.0181 -0.2373 0.9920
-2.0002 -0.0531 -0.2377 0.9920
-2.0043 -0.1247 -0.2385 0.9919
-2.0107 -0.2697 -0.2410 0.9919
-2.0152 -0.3437 -0.2428 0.9918
-2.0472 -0.5013 -0.2504 0.9915
-12.2489 -5.9735 -1.6188 0.9466
-12.0285 -6.4056 -1.6188 0.9466
-11.5423 -7.2450 -1.6188 0.9466
-11.2771 -7.6513 -1.6188 0.9466
-9.6675 3.6944 -1.4664 0.9591
-1.9763 0.6757 -0.2959 0.9916
-1.9630 0.5940 -0.2906 0.9917
-1.9360 0.4383 -0.2812 0.9920
-1.9056 0.0172 -0.2700 0.9923
-1.9086 -0.0507 -0.2705 0.9923
-1.9137 -0.1191 -0.2717 0.9923
-1.9189 -0.2574 -0.2743 0.9922
-1.9206 -0.3276 -0.2761 0.9922
-1.9423 -0.4756 -0.2833 0.9920
-1.9561 -0.5535 -0.2880 0.9918
-1.9696 -0.6338 -0.2932 0.9917
-10.5991 -4.2647 -1.6188 0.9549
-10.2688 -5.0079 -1.6188 0.9549
-10.0841 -5.3701 -1.6188 0.9549
-9.8866 -5.7256 -1.6188 0.9549
-9.4542 -6.4144 -1.6188 0.9549
-8.3147 3.1775 -1.4664 0.9646
-1.8753 0.6412 -0.3265 0.9920
-1.8644 0.5641 -0.3209 0.9921
-1.8453 0.4178 -0.3117 0.9924
-1.8360 0.3474 -0.3078 0.9925
-1.8353 0.2801 -0.3058 0.9925
-1.8338 0.2134 -0.3041 0.9925
-1.8214 0.0165 -0.3001 0.9926
-1.8292 -0.1138 -0.3019 0.9926
-1.8328 -0.1797 -0.3034 0.9926
-1.8357 -0.3131 -0.3068 0.9925
-1.8499 -0.4530 -0.3138 0.9923
-1.8698 -0.6017 -0.3236 0.9921
-1.8805 -0.6799 -0.3294 0.9919
-9.1160 -3.6679 -1.6188 0.9609
-8.5032 -4.9245 -1.6188 0.9609
-8.3225 -5.2240 -1.6188 0.9609
-7.9298 -5.8028 -1.6188 0.9609
-1.7698 0.4675 -0.3441 0.9926
-1.7622 0.3990 -0.3396 0.9927
-1.7574 0.3326 -0.3362 0.9927
-1.7572 0.2682 -0.3341 0.9928
-1.7562 0.2043 -0.3323 0.9928
-1.7486 0.0781 -0.3290 0.9929
-1.7462 -0.0464 -0.3283 0.9929
-1.7569 -0.2357 -0.3332 0.9928
-1.7574 -0.2998 -0.3351 0.9928
-1.7661 -0.4325 -0.3418 0.9926
-1.7800 -0.5728 -0.3515 0.9924
-1.7876 -0.6464 -0.3573 0.9923
-7.9897 -3.2148 -1.6188 0.9656
-7.6015 -4.0481 -1.6188 0.9656
-7.2943 -4.5786 -1.6188 0.9656
-7.1267 -4.8353 -1.6188 0.9656
-1.7066 0.6522 -0.3862 0.9926
-1.7025 0.5821 -0.3803 0.9927
-1.6976 0.5137 -0.3749 0.9928
-1.6920 0.4469 -0.3699 0.9929
-1.6849 0.2571 -0.3603 0.9931
-1.6828 0.1958 -0.3581 0.9931
-1.6781 -0.1044 -0.3554 0.9931
-1.6843 -0.3494 -0.3636 0.9930
-1.6948 -0.4796 -0.3723 0.9928
-1.7001 -0.5471 -0.3775 0.9927
-1.7089 -0.6876 -0.3894 0.9925
-6.8832 -3.3568 -1.6188 0.9692
-6.6269 -3.8379 -1.6188 0.9692
-6.3371 -4.2996 -1.6188 0.9692
-6.1800 -4.5224 -1.6188 0.9692
-1.6281 0.5567 -0.4044 0.9930
-1.6245 0.4916 -0.3989 0.9931
-1.6200 0.4279 -0.3938 0.9931
-1.6158 0.3658 -0.3894 0.9932
-1.6123 0.1296 -0.3801 0.9934
-1.6091 0.0719 -0.3785 0.9934
-1.6050 0.0145 -0.3772 0.9934
-1.6071 -0.0427 -0.3778 0.9934
-1.6166 -0.3354 -0.3880 0.9932
-1.6296 -0.5892 -0.4073 0.9929
-1.6321 -0.6567 -0.4135 0.9928
-1.6349 -0.7265 -0.4205 0.9927
-6.0793 -3.2375 -1.6188 0.9721
-5.9602 -3.4518 -1.6188 0.9721
-5.8336 -3.6617 -1.6188 0.9721
-1.5654 0.5982 -0.4339 0.9931
-1.5608 0.5336 -0.4271 0.9932
-1.5533 0.4103 -0.4160 0.9934
-1.5529 0.2939 -0.4092 0.9935
-1.5525 0.2369 -0.4066 0.9935
-1.5492 0.1246 -0.4024 0.9936
-1.5446 -0.0410 -0.4001 0.9936
-1.5528 -0.2649 -0.4078 0.9935
-1.5551 -0.4400 -0.4184 0.9933
-1.5582 -0.5015 -0.4238 0.9933
-1.5632 -0.5652 -0.4304 0.9932
-1.5675 -0.6307 -0.4375 0.9930
-1.5711 -0.6981 -0.4451 0.9929
-5.5183 -2.9387 -1.6187 0.9745
-5.2952 -3.3238 -1.6187 0.9745
-5.0454 -3.6921 -1.6187 0.9745
-1.5074 0.5761 -0.4568 0.9933
-1.5038 0.5141 -0.4499 0.9934
-1.4996 0.4537 -0.4435 0.9935
-1.4950 0.2829 -0.4307 0.9937
-1.4935 0.1738 -0.4256 0.9938
-1.4916 0.1199 -0.4236 0.9938
-1.4890 0.0665 -0.4220 0.9938
-1.4858 0.0134 -0.4206 0.9938
-1.4875 -0.0395 -0.4212 0.9938
-1.4904 -0.0928 -0.4227 0.9938
-1.4926 -0.1464 -0.4246 0.9938
-1.4941 -0.2004 -0.4268 0.9938
-1.4950 -0.3101 -0.4322 0.9937
-1.4943 -0.3659 -0.4355 0.9936
-1.4971 -0.4236 -0.4405 0.9936
-1.5057 -0.5444 -0.4533 0.9934
-1.5089 -0.6071 -0.4604 0.9933
-1.5114 -0.6716 -0.4682 0.9931
-4.7318 -3.2104 -1.6187 0.9765
-4.6145 -3.3768 -1.6187 0.9765
-1.4529 0.5552 -0.4784 0.9935
-1.4502 0.4958 -0.4714 0.9936
-1.4438 0.3813 -0.4593 0.9938
-1.4453 0.3272 -0.4558 0.9938
-1.4459 0.2736 -0.4526 0.9939
-1.4458 0.2206 -0.4499 0.9939
-1.4450 0.1681 -0.4474 0.9939
-1.4391 -0.0382 -0.4428 0.9940
-1.4423 -0.0898 -0.4445 0.9940
-1.4443 -0.1416 -0.4464 0.9939
-1.4455 -0.1939 -0.4486 0.9939
-1.4460 -0.2467 -0.4512 0.9939
-1.4446 -0.3538 -0.4575 0.9938
-1.4486 -0.4662 -0.4681 0.9937
-1.4539 -0.5850 -0.4820 0.9935
-1.4554 -0.6467 -0.4899 0.9934
-1.4561 -0.7101 -0.4983 0.9932
-4.6452 -2.4738 -1.6187 0.9782
-4.3551 -2.9548 -1.6187 0.9782
-1.3998 0.4786 -0.4917 0.9938
-1.3966 0.3689 -0.4802 0.9939
-1.3983 0.3166 -0.4766 0.9940
-1.3995 0.2136 -0.4706 0.9941
-1.3976 0.1124 -0.4661 0.9941
-1.3856 0.0125 -0.4606 0.9942
-1.3897 -0.0369 -0.4621 0.9942
-1.3966 -0.0869 -0.4651 0.9941
-1.3989 -0.2902 -0.4749 0.9940
-1.3976 -0.3422 -0.4783 0.9940
-1.3962 -0.3951 -0.4823 0.9939
-1.5590 -0.9029 -0.5988 0.9924
-1.5751 -0.9887 -0.6182 0.9922
-4.0298 -2.7341 -1.6187 0.9797
-3.9299 -2.8758 -1.6187 0.9797
-1.3531 0.5171 -0.5180 0.9939
-1.3524 0.4624 -0.5111 0.9939
-1.3509 0.4088 -0.5047 0.9940
-1.3517 0.3570 -0.5000 0.9941
-1.3537 0.3065 -0.4964 0.9941
-1.3549 0.2564 -0.4931 0.9942
-1.3468 0.0602 -0.4821 0.9943
-1.3503 -0.0840 -0.4838 0.9943
-1.3546 -0.1328 -0.4867 0.9942
-1.3553 -0.2312 -0.4917 0.9942
-1.3544 -0.2810 -0.4947 0.9941
-1.3528 -0.3313 -0.4981 0.9941
-1.3517 -0.4350 -0.5078 0.9940
-1.3528 -0.4891 -0.5144 0.9939
-1.3531 -0.5445 -0.5216 0.9938
-1.3530 -0.6012 -0.5295 0.9937
-1.3520 -0.6593 -0.5379 0.9936
-1.5170 -0.8785 -0.6269 0.9926
-3.8339 -2.4065 -1.6187 0.9810
-1.3075 0.4996 -0.5364 0.9940
-1.3065 0.3954 -0.5231 0.9942
-1.3090 0.3457 -0.5188 0.9942
-1.3112 0.2968 -0.5152 0.9943
-1.3133 0.2004 -0.5091 0.9943
-1.3085 0.1052 -0.5030 0.9944
-1.2986 -0.0345 -0.4978 0.9945
-1.3133 -0.1762 -0.5078 0.9943
-1.3131 -0.2240 -0.5105 0.9943
-1.3102 -0.3208 -0.5169 0.9942
-1.3076 -0.3700 -0.5208 0.9942
-1.3071 -0.4206 -0.5262 0.9941
-3.5776 -2.2457 -1.6187 0.9821
-3.4088 -2.4945 -1.6187 0.9821
-1.2642 0.4831 -0.5539 0.9942
-1.2646 0.4324 -0.5470 0.9942
-1.2649 0.3827 -0.5409 0.9943
-1.2706 0.2876 -0.5332 0.9944
-1.2706 0.1478 -0.5235 0.9945
-1.2654 0.1017 -0.5196 0.9945
-1.2530 0.0113 -0.5128 0.9946
-1.2626 -0.0786 -0.5177 0.9945
-1.2681 -0.1244 -0.5215 0.9945
-1.2728 -0.1707 -0.5256 0.9945
-1.2728 -0.2171 -0.5285 0.9944
-1.2716 -0.2638 -0.5315 0.9944
-1.2695 -0.3109 -0.5349 0.9944
-1.2645 -0.4070 -0.5437 0.9943
-1.2645 -0.4572 -0.5503 0.9942
-1.2592 -0.6141 -0.5734 0.9940
-1.2516 -0.7248 -0.5919 0.9938
-3.2729 -2.2206 -1.6187 0.9831
-3.1918 -2.3357 -1.6187 0.9831
-1.2238 0.4184 -0.5637 0.9944
-1.2292 0.3247 -0.5541 0.9945
-1.2318 0.2789 -0.5504 0.9945
-1.2330 0.1882 -0.5436 0.9946
-1.2244 0.0985 -0.5354 0.9947
-1.2129 0.0110 -0.5286 0.9947
-1.2311 -0.1652 -0.5413 0.9946
-1.2328 -0.2557 -0.5487 0.9945
-1.2276 -0.3474 -0.5560 0.9944
-1.2240 -0.3939 -0.5604 0.9944
-1.2221 -0.4917 -0.5741 0.9943
-1.2198 -0.5420 -0.5817 0.9942
-1.2167 -0.5933 -0.5899 0.9941
-1.2125 -0.6457 -0.5987 0.9940
-1.2075 -0.6993 -0.6081 0.9939
-3.0736 -2.0853 -1.6187 0.9839
-2.9974 -2.1934 -1.6187 0.9839
-1.1929 0.1820 -0.5586 0.9947
-1.1853 0.0953 -0.5504 0.9948
-1.1803 0.0527 -0.5469 0.9948
-1.1746 0.0106 -0.5437 0.9948
-1.1828 -0.0736 -0.5486 0.9948
-1.1875 -0.1165 -0.5523 0.9948
-1.1913 -0.1598 -0.5564 0.9947
-1.1944 -0.2037 -0.5608 0.9947
-1.1957 -0.2480 -0.5652 0.9946
-1.1861 -0.3817 -0.5767 0.9945
-1.1798 -0.5242 -0.5976 0.9943
-1.1660 -0.6753 -0.6237 0.9941
-1.1927 -0.8092 -0.6672 0.9937
-2.8221 -2.0652 -1.6187 0.9847
-1.1475 0.3923 -0.5949 0.9946
-1.1521 0.3486 -0.5904 0.9947
-1.1558 0.3053 -0.5864 0.9947
-1.1478 0.0923 -0.5648 0.9949
-1.1432 0.0511 -0.5613 0.9949
-1.1379 0.0103 -0.5582 0.9949
-1.1498 -0.1128 -0.5667 0.9949
-1.1532 -0.1547 -0.5708 0.9948
-1.1559 -0.1972 -0.5752 0.9948
-1.1578 -0.2402 -0.5800 0.9947
-1.1541 -0.3266 -0.5883 0.9947
-1.1467 -0.4146 -0.5981 0.9946
-1.1445 -0.4605 -0.6052 0.9945
-1.1415 -0.5072 -0.6127 0.9945
-1.1375 -0.5547 -0.6208 0.9944
-1.1266 -0.6524 -0.6386 0.9942
-1.1195 -0.7027 -0.6484 0.9941
-1.1500 -0.8415 -0.6990 0.9937
-1.1127 0.3804 -0.6101 0.9947
-1.1174 0.3381 -0.6057 0.9948
-1.1210 0.2538 -0.5963 0.9948
-1.1180 0.1706 -0.5867 0.9949
-1.1118 0.0894 -0.5787 0.9950
-1.1076 0.0495 -0.5752 0.9950
-1.1136 -0.1092 -0.5805 0.9950
-1.1167 -0.1498 -0.5845 0.9949
-1.1190 -0.1909 -0.5889 0.9949
-1.1108 -0.4016 -0.6128 0.9947
-1.1005 -0.5367 -0.6352 0.9945
-1.0889 -0.6306 -0.6528 0.9943
-1.0816 -0.6789 -0.6625 0.9943
-1.0659 -0.7232 -0.6682 0.9942
-1.0456 -0.7651 -0.6721 0.9942
-1.0793 0.3690 -0.6247 0.9948
-1.0851 0.2866 -0.6147 0.9949
-1.0804 0.1257 -0.5958 0.9951
-1.0773 0.0866 -0.5919 0.9951
-1.0734 0.0479 -0.5885 0.9951
-1.0688 0.0097 -0.5854 0.9951
-1.0711 -0.0284 -0.5869 0.9951
-1.0789 -0.1058 -0.5938 0.9951
-1.0817 -0.1451 -0.5978 0.9950
-1.0849 -0.2251 -0.6068 0.9950
-1.0818 -0.3481 -0.6224 0.9948
-1.0734 -0.4319 -0.6337 0.9947
-1.0595 -0.5642 -0.6574 0.9945
-1.0514 -0.6089 -0.6655 0.9945
-1.0345 -0.6493 -0.6690 0.9944
-1.0162 -0.6895 -0.6726 0.9944
-1.0415 0.3980 -0.6437 0.9949
-1.0470 0.3579 -0.6388 0.9949
-1.0507 0.2379 -0.6220 0.9950
-1.0502 0.1988 -0.6171 0.9951
-1.0490 0.1601 -0.6126 0.9951
-1.0441 0.0840 -0.6047 0.9952
-1.0361 0.0094 -0.5982 0.9952
-1.0384 -0.0276 -0.5997 0.9952
-1.0455 -0.1025 -0.6065 0.9952
-1.0480 -0.1406 -0.6105 0.9951
-1.0497 -0.1791 -0.6148 0.9951
-1.0506 -0.2179 -0.6195 0.9951
-1.0506 -0.2573 -0.6245 0.9950
-1.0499 -0.2971 -0.6300 0.9950
-1.0483 -0.3373 -0.6358 0.9949
-1.0443 -0.3776 -0.6411 0.9949
-1.0399 -0.4184 -0.6471 0.9948
-1.0310 -0.5028 -0.6623 0.9947
-1.0191 -0.5427 -0.6666 0.9947
-1.0040 -0.5814 -0.6698 0.9947
-0.9876 -0.6199 -0.6732 0.9946
