ply
format ascii 1.0
element vertex 453
property float32 x
property float32 y
property float32 z
property float32 I
end_header
-39.9553 -19.2669 7.8215 0.8351
-35.2103 -18.5679 7.0189 0.8507
-35.5267 -25.8570 7.7478 0.8365
-35.9244 -28.1771 8.0505 0.8307
-22.9726 -37.8081 7.8007 0.8355
-18.3742 -39.2233 7.6374 0.8387
-16.8456 -39.6087 7.5895 0.8396
-14.5653 -42.4972 7.9213 0.8332
-13.0076 -42.9273 7.9091 0.8334
-9.8966 -43.7862 7.9154 0.8333
-7.9108 -41.9662 7.5301 0.8408
-6.4199 -42.3779 7.5576 0.8402
-38.4752 -18.5532 6.5437 0.8413
-36.6590 -19.3319 6.3490 0.8456
-35.8156 -22.3160 6.4647 0.8430
-34.1884 -23.0492 6.3166 0.8463
-33.9604 -24.7171 6.4346 0.8437
-32.6537 -36.7952 7.5364 0.8195
-21.3935 -38.2440 6.7131 0.8375
-19.8421 -38.6723 6.6587 0.8387
-18.3742 -39.2233 6.6354 0.8392
-15.3087 -39.9238 6.5503 0.8411
-13.0076 -42.9273 6.8715 0.8340
-11.4527 -43.3565 6.8698 0.8340
-9.8965 -43.7862 6.8770 0.8339
-6.4199 -42.3779 6.5661 0.8408
-35.7524 -18.8538 5.2634 0.8496
-34.3759 -21.4190 5.2743 0.8493
-22.9725 -37.8081 5.7610 0.8366
-16.7450 -39.3723 5.5715 0.8415
-15.2550 -39.7836 5.5485 0.8421
-10.8315 -41.0049 5.5228 0.8428
-9.3598 -41.4111 5.5286 0.8426
-7.8830 -41.8189 5.5416 0.8423
-6.3972 -42.2280 5.5617 0.8417
-36.1503 -19.0636 4.3886 0.8484
-36.6404 -21.0399 4.5370 0.8437
-35.3703 -23.8460 4.5807 0.8423
-35.0764 -25.5293 4.6586 0.8399
-21.3935 -38.2439 4.7056 0.8384
-18.3327 -39.1345 4.6406 0.8404
-15.3087 -39.9238 4.5914 0.8420
-13.6515 -39.8310 4.5214 0.8442
-12.3582 -40.7839 4.5761 0.8425
-9.3927 -41.5570 4.5750 0.8425
-6.4198 -42.3767 4.6024 0.8416
-22.9013 -37.6909 3.7334 0.8377
-18.2907 -39.0450 3.6500 0.8411
-13.7235 -40.0411 3.5831 0.8437
-6.4117 -42.3235 3.6237 0.8421
-25.3176 -22.9810 2.1203 0.8719
-27.4070 -33.2161 2.6704 0.8415
-21.3935 -38.2439 2.7174 0.8389
-19.8421 -38.6722 2.6953 0.8401
-13.8694 -40.4669 2.6527 0.8425
-10.9055 -41.2851 2.6479 0.8427
-9.3927 -41.5570 2.6420 0.8430
-27.4173 -33.2286 1.6987 0.8416
-22.9725 -37.8080 1.7444 0.8377
-18.3742 -39.2232 1.7079 0.8408
-13.8102 -40.2941 1.6796 0.8432
-9.3927 -41.5570 1.6800 0.8432
-6.4198 -42.3767 1.6900 0.8423
-39.3932 -22.6205 0.7673 0.8338
-39.7539 -28.9337 0.8305 0.8214
-22.9725 -37.8080 0.7473 0.8378
-21.3935 -38.2439 0.7402 0.8392
-19.8421 -38.6722 0.7342 0.8404
-16.8455 -39.6086 0.7271 0.8418
-15.1864 -39.6047 0.7165 0.8439
-11.5505 -38.1187 0.6728 0.8527
-10.8965 -41.2510 0.7207 0.8431
-9.3928 -41.5570 0.7197 0.8433
-7.9108 -41.9661 0.7214 0.8430
-41.6421 -16.5060 -0.2522 0.8360
-32.9610 -18.9270 -0.2140 0.8590
-31.2113 -19.4472 -0.2070 0.8632
-32.3218 -23.5244 -0.2251 0.8522
-34.4887 -31.3057 -0.2622 0.8300
-27.4173 -33.2286 -0.2426 0.8417
-19.8421 -38.6722 -0.2447 0.8404
-18.3742 -39.2232 -0.2439 0.8409
-12.2700 -40.4932 -0.2382 0.8443
-10.9055 -41.2851 -0.2404 0.8430
-9.3927 -41.5570 -0.2399 0.8433
-6.4198 -42.3767 -0.2413 0.8424
-41.9813 -16.6405 -1.2716 0.8347
-39.1085 -17.1536 -1.2025 0.8429
-34.8594 -18.3829 -1.1097 0.8541
-33.1342 -19.0265 -1.0759 0.8582
-34.5704 -29.1828 -1.2739 0.8344
-23.7009 -21.5135 -0.9013 0.8798
-25.3927 -26.6203 -1.0359 0.8631
-29.0472 -37.9021 -1.3446 0.8261
-22.9725 -37.8080 -1.2457 0.8378
-7.2021 -14.0370 -0.4442 0.9388
-6.5759 -14.0375 -0.4365 0.9399
-6.0837 -14.3046 -0.4377 0.9397
-13.8694 -40.4668 -1.2045 0.8427
-7.8668 -25.9616 -0.7638 0.8971
-10.8697 -41.1493 -1.1984 0.8434
-7.9108 -41.9661 -1.2025 0.8429
-29.6761 -11.7629 -1.6189 0.8800
-28.6876 -13.8335 -1.6152 0.8802
-25.7906 -14.8096 -1.5083 0.8877
-23.3796 -17.0161 -1.4665 0.8906
-21.4108 -19.4347 -1.4664 0.8906
-20.6980 -20.1921 -1.4664 0.8906
-19.1930 -21.6273 -1.4664 0.8906
-18.4173 -22.3210 -1.4676 0.8906
-17.6598 -23.0433 -1.4723 0.8902
-9.2065 -13.9921 -0.8494 0.9351
-8.4741 -13.9466 -0.8276 0.9367
-5.4602 -14.2397 -0.7734 0.9407
-9.8031 -28.6021 -1.5334 0.8859
-3.6600 -13.8556 -0.7268 0.9442
-1.9998 -13.2009 -0.6771 0.9479
-19.8871 -9.5898 -1.6188 0.9153
-19.5294 -10.2987 -1.6188 0.9153
-19.1464 -10.9944 -1.6188 0.9153
-18.7386 -11.6757 -1.6188 0.9153
-17.8509 -12.9922 -1.6188 0.9153
-17.3721 -13.6257 -1.6188 0.9153
-16.8708 -14.2416 -1.6188 0.9153
-15.2003 -15.9350 -1.6147 0.9155
-12.4121 -16.1958 -1.4961 0.9214
-11.5865 -16.3009 -1.4664 0.9229
-9.2072 -13.9931 -1.2282 0.9350
-8.4654 -13.9323 -1.1953 0.9367
-7.0845 -13.8077 -1.1379 0.9397
-5.8636 -13.7870 -1.0985 0.9417
-5.4248 -14.1474 -1.1110 0.9410
-6.4840 -18.9183 -1.4663 0.9229
-4.1486 -13.6910 -1.0489 0.9442
-3.0240 -13.3794 -1.0058 0.9465
-2.4983 -13.2531 -0.9889 0.9473
-1.9894 -13.1322 -0.9739 0.9481
-15.6754 -6.2133 -1.6188 0.9345
-13.9811 -9.4258 -1.6188 0.9345
-13.2674 -10.4062 -1.6188 0.9345
-12.0695 -11.7744 -1.6188 0.9345
-11.6383 -12.2008 -1.6188 0.9345
-10.2565 -13.3831 -1.6188 0.9345
-9.2293 -14.0268 -1.6120 0.9348
-8.7555 -14.4098 -1.6188 0.9345
-7.1527 -15.2688 -1.6187 0.9345
-6.0121 -15.6790 -1.6121 0.9347
-5.3662 -15.6571 -1.5890 0.9357
-3.0436 -13.4662 -1.3254 0.9460
-12.4802 -5.4740 -1.6188 0.9466
-12.2752 -5.9192 -1.6188 0.9466
-12.0544 -6.3568 -1.6188 0.9466
-11.5663 -7.2067 -1.6188 0.9466
-11.2996 -7.6180 -1.6188 0.9466
-11.0184 -8.0194 -1.6188 0.9466
-10.7228 -8.4104 -1.6188 0.9466
-10.0906 -9.1593 -1.6188 0.9466
-9.7547 -9.5162 -1.6188 0.9466
-9.4061 -9.8608 -1.6188 0.9466
-9.0454 -10.1927 -1.6188 0.9466
-7.8951 -11.1075 -1.6188 0.9466
-6.2209 -12.1246 -1.6187 0.9466
-5.3334 -12.5403 -1.6187 0.9466
-10.6210 -4.2099 -1.6188 0.9549
-10.4627 -4.5891 -1.6188 0.9549
-10.1058 -5.3292 -1.6188 0.9549
-9.4730 -6.3865 -1.6188 0.9549
-9.2373 -6.7230 -1.6188 0.9549
-8.4594 -7.6787 -1.6188 0.9549
-8.1778 -7.9779 -1.6188 0.9549
-7.8857 -8.2668 -1.6188 0.9549
-7.2711 -8.8122 -1.6188 0.9549
-6.9495 -9.0679 -1.6188 0.9549
-4.8464 -10.3456 -1.6187 0.9549
-4.4713 -10.5132 -1.6187 0.9549
-3.7041 -10.8073 -1.6187 0.9549
-2.1163 -11.2267 -1.6187 0.9549
-9.1348 -3.6208 -1.6188 0.9609
-8.9987 -3.9470 -1.6188 0.9609
-8.3398 -5.1964 -1.6188 0.9609
-7.9447 -5.7824 -1.6188 0.9609
-7.7317 -6.0643 -1.6188 0.9609
-7.2758 -6.6043 -1.6188 0.9609
-6.7823 -7.1101 -1.6188 0.9609
-5.9771 -7.7992 -1.6187 0.9609
-5.6927 -8.0090 -1.6187 0.9609
-5.4011 -8.2086 -1.6187 0.9609
-5.1024 -8.3975 -1.6187 0.9609
-4.7971 -8.5755 -1.6187 0.9609
-4.1683 -8.8981 -1.6187 0.9609
-3.8456 -9.0422 -1.6187 0.9609
-1.4718 -9.7150 -1.6187 0.9609
-1.7945 -0.7113 -0.3628 0.9922
-7.6179 -4.0172 -1.6188 0.9656
-7.4685 -4.2886 -1.6188 0.9656
-6.7764 -5.3151 -1.6188 0.9656
-6.3769 -5.7883 -1.6188 0.9656
-5.7164 -6.4414 -1.6187 0.9656
-4.9894 -7.0195 -1.6187 0.9656
-1.8986 -8.4001 -1.6187 0.9656
-1.5953 -8.4629 -1.6187 0.9656
-1.2899 -8.5148 -1.6187 0.9656
-1.7081 -0.6770 -0.3884 0.9925
-7.0131 -3.0761 -1.6188 0.9692
-6.3498 -4.2809 -1.6188 0.9692
-6.1917 -4.5064 -1.6188 0.9692
-6.0256 -4.7262 -1.6188 0.9692
-5.4816 -5.3476 -1.6187 0.9692
-5.2858 -5.5412 -1.6187 0.9692
-4.6582 -6.0783 -1.6187 0.9692
-4.4366 -6.2418 -1.6187 0.9692
-4.2093 -6.3973 -1.6187 0.9692
-3.7386 -6.6833 -1.6187 0.9692
-2.9971 -7.0470 -1.6187 0.9692
-2.4828 -7.2442 -1.6187 0.9692
-2.2208 -7.3288 -1.6187 0.9692
-1.9558 -7.4039 -1.6187 0.9692
-1.6882 -7.4694 -1.6187 0.9692
-1.4186 -7.5253 -1.6187 0.9692
-1.6318 -0.6468 -0.4125 0.9928
-6.2040 -2.9916 -1.6188 0.9721
-6.0924 -3.2128 -1.6188 0.9721
-5.9729 -3.4298 -1.6188 0.9721
-5.5688 -4.0531 -1.6187 0.9721
-4.1896 -5.4668 -1.6187 0.9721
-3.5765 -5.8862 -1.6187 0.9721
-2.9218 -6.2371 -1.6187 0.9721
-2.4659 -6.4309 -1.6187 0.9721
-1.9973 -6.5915 -1.6187 0.9721
-1.7590 -6.6591 -1.6187 0.9721
-1.0316 -6.8097 -1.6187 0.9721
-1.5669 -0.6211 -0.4364 0.9931
-5.6314 -2.7155 -1.6187 0.9745
-5.1839 -3.4949 -1.6187 0.9745
-4.7774 -4.0328 -1.6187 0.9745
-4.4752 -4.3658 -1.6187 0.9745
-4.3152 -4.5238 -1.6187 0.9745
-4.1498 -4.6761 -1.6187 0.9745
-3.9789 -4.8223 -1.6187 0.9745
-3.8030 -4.9623 -1.6187 0.9745
-3.6221 -5.0958 -1.6187 0.9745
-2.6521 -5.6615 -1.6187 0.9745
-1.8130 -5.9832 -1.6187 0.9745
-1.3783 -6.0980 -1.6187 0.9745
-1.1581 -6.1436 -1.6187 0.9745
-0.9364 -6.1813 -1.6187 0.9745
-1.5111 -0.6628 -0.4671 0.9932
-5.0579 -2.6672 -1.6187 0.9765
-4.8531 -3.0239 -1.6187 0.9765
-4.4992 -3.5289 -1.6187 0.9765
-4.3694 -3.6884 -1.6187 0.9765
-4.2339 -3.8432 -1.6187 0.9765
-3.7954 -4.2768 -1.6187 0.9765
-3.4782 -4.5385 -1.6187 0.9765
-3.3127 -4.6606 -1.6187 0.9765
-2.6103 -5.0874 -1.6187 0.9765
-2.0472 -5.3389 -1.6187 0.9765
-1.6582 -5.4723 -1.6187 0.9765
-1.4603 -5.5283 -1.6187 0.9765
-1.2606 -5.5773 -1.6187 0.9765
-1.0592 -5.6190 -1.6187 0.9765
-1.4536 -0.5762 -0.4809 0.9935
-1.4553 -0.6383 -0.4888 0.9934
-4.6552 -2.4549 -1.6187 0.9782
-4.3638 -2.9420 -1.6187 0.9782
-4.2551 -3.0970 -1.6187 0.9782
-4.1410 -3.2480 -1.6187 0.9782
-3.8969 -3.5372 -1.6187 0.9782
-3.7671 -3.6751 -1.6187 0.9782
-3.3494 -4.0594 -1.6187 0.9782
-3.2013 -4.1772 -1.6187 0.9782
-2.5693 -4.5930 -1.6187 0.9782
-2.4025 -4.6824 -1.6187 0.9782
-2.0597 -4.8430 -1.6187 0.9782
-1.8842 -4.9139 -1.6187 0.9782
-1.1602 -5.1333 -1.6187 0.9782
-0.9749 -5.1717 -1.6187 0.9782
-0.7883 -5.2034 -1.6187 0.9782
-1.4026 -0.6763 -0.5176 0.9935
-1.4016 -0.7391 -0.5267 0.9933
-1.5712 -0.9022 -0.6022 0.9924
-4.0378 -2.7222 -1.6187 0.9797
-3.9373 -2.8657 -1.6187 0.9797
-3.6058 -3.2730 -1.6187 0.9797
-3.4858 -3.4006 -1.6187 0.9797
-3.2324 -3.6423 -1.6187 0.9797
-2.9622 -3.8652 -1.6187 0.9797
-2.6767 -4.0681 -1.6187 0.9797
-2.5287 -4.1617 -1.6187 0.9797
-2.3774 -4.2500 -1.6187 0.9797
-2.2230 -4.3327 -1.6187 0.9797
-1.9059 -4.4813 -1.6187 0.9797
-1.7435 -4.5469 -1.6187 0.9797
-1.5789 -4.6066 -1.6187 0.9797
-1.3531 -0.5363 -0.5205 0.9938
-1.3503 -0.7121 -0.5459 0.9935
-1.5453 -0.9628 -0.6511 0.9923
-3.7533 -2.5304 -1.6187 0.9810
-3.4589 -2.9199 -1.6187 0.9810
-3.2401 -3.1609 -1.6187 0.9810
-2.8808 -3.4915 -1.6187 0.9810
-2.7534 -3.5928 -1.6187 0.9810
-2.4881 -3.7814 -1.6187 0.9810
-2.3505 -3.8684 -1.6187 0.9810
-2.2099 -3.9504 -1.6187 0.9810
-1.9202 -4.0991 -1.6187 0.9810
-1.6206 -4.2265 -1.6187 0.9810
-1.3127 -4.3320 -1.6187 0.9810
-0.9979 -4.4151 -1.6187 0.9810
-0.8385 -4.4482 -1.6187 0.9810
-0.6780 -4.4754 -1.6187 0.9810
-1.3062 -0.5729 -0.5466 0.9939
-1.3045 -0.6291 -0.5550 0.9938
-1.2984 -0.7456 -0.5738 0.9936
-3.2278 -2.7247 -1.6187 0.9821
-3.1277 -2.8390 -1.6187 0.9821
-2.9156 -3.0565 -1.6187 0.9821
-2.6883 -3.2581 -1.6187 0.9821
-2.5694 -3.3527 -1.6187 0.9821
-2.4472 -3.4429 -1.6187 0.9821
-2.3218 -3.5287 -1.6187 0.9821
-1.9283 -3.7582 -1.6187 0.9821
-1.6532 -3.8871 -1.6187 0.9821
-1.3695 -3.9958 -1.6187 0.9821
-1.2249 -4.0425 -1.6187 0.9821
-0.9312 -4.1201 -1.6187 0.9821
-0.7825 -4.1509 -1.6187 0.9821
-1.2638 -0.5009 -0.5564 0.9941
-1.2562 -0.6625 -0.5812 0.9939
-1.3320 -0.8299 -0.6423 0.9932
-3.2794 -2.2109 -1.6187 0.9831
-3.0223 -2.5512 -1.6187 0.9831
-2.8311 -2.7619 -1.6187 0.9831
-2.7299 -2.8619 -1.6187 0.9831
-2.5172 -3.0507 -1.6187 0.9831
-2.4058 -3.1392 -1.6187 0.9831
-2.0538 -3.3801 -1.6187 0.9831
-1.6778 -3.5816 -1.6187 0.9831
-1.2823 -3.7414 -1.6187 0.9831
-1.1470 -3.7851 -1.6187 0.9831
-1.0101 -3.8239 -1.6187 0.9831
-0.8719 -3.8578 -1.6187 0.9831
-0.5924 -3.9105 -1.6187 0.9831
-1.2202 -0.5352 -0.5807 0.9942
-1.2171 -0.5869 -0.5889 0.9941
-1.2130 -0.6397 -0.5977 0.9940
-1.2022 -0.7491 -0.6173 0.9938
-3.0797 -2.0763 -1.6187 0.9839
-3.0030 -2.1857 -1.6187 0.9839
-2.9225 -2.2923 -1.6187 0.9839
-2.7502 -2.4964 -1.6187 0.9839
-2.6586 -2.5937 -1.6187 0.9839
-2.5637 -2.6876 -1.6187 0.9839
-2.4654 -2.7780 -1.6187 0.9839
-2.3639 -2.8649 -1.6187 0.9839
-2.2593 -2.9480 -1.6187 0.9839
-2.1518 -3.0274 -1.6187 0.9839
-2.0416 -3.1028 -1.6187 0.9839
-1.9287 -3.1742 -1.6187 0.9839
-1.6955 -3.3046 -1.6187 0.9839
-1.5756 -3.3635 -1.6187 0.9839
-1.4537 -3.4179 -1.6187 0.9839
-1.0771 -3.5546 -1.6187 0.9839
-0.5563 -3.6723 -1.6187 0.9839
-1.1802 -0.5177 -0.5965 0.9943
-1.1767 -0.5674 -0.6047 0.9943
-1.1666 -0.6699 -0.6227 0.9941
-1.1600 -0.7228 -0.6327 0.9940
-2.5894 -2.3504 -1.6187 0.9847
-2.5032 -2.4420 -1.6187 0.9847
-2.4137 -2.5304 -1.6187 0.9847
-2.3212 -2.6156 -1.6187 0.9847
-2.1272 -2.7757 -1.6187 0.9847
-2.0260 -2.8504 -1.6187 0.9847
-1.9222 -2.9214 -1.6187 0.9847
-1.8159 -2.9886 -1.6187 0.9847
-1.4835 -3.1668 -1.6187 0.9847
-1.3687 -3.2181 -1.6187 0.9847
-1.2521 -3.2652 -1.6187 0.9847
-1.1338 -3.3081 -1.6187 0.9847
-0.8931 -3.3810 -1.6187 0.9847
-0.7710 -3.4110 -1.6187 0.9847
-0.6478 -3.4365 -1.6187 0.9847
-0.5238 -3.4576 -1.6187 0.9847
-1.1449 -0.4538 -0.6041 0.9945
-1.1331 -0.5976 -0.6284 0.9943
-1.1202 -0.6980 -0.6474 0.9941
-1.1442 -0.8328 -0.6942 0.9937
-2.5217 -2.1287 -1.6187 0.9854
-2.4435 -2.2180 -1.6187 0.9854
-2.2777 -2.3879 -1.6187 0.9854
-2.0073 -2.6193 -1.6187 0.9854
-1.9118 -2.6897 -1.6187 0.9854
-1.8139 -2.7568 -1.6187 0.9854
-1.6110 -2.8800 -1.6187 0.9854
-1.5065 -2.9361 -1.6187 0.9854
-1.2915 -3.0367 -1.6187 0.9854
-1.1815 -3.0812 -1.6187 0.9854
-1.0699 -3.1217 -1.6187 0.9854
-0.9570 -3.1582 -1.6187 0.9854
-0.7275 -3.2188 -1.6187 0.9854
-0.4943 -3.2627 -1.6187 0.9854
-1.1087 -0.4395 -0.6187 0.9946
-1.1054 -0.4848 -0.6262 0.9946
-1.0896 -0.6257 -0.6518 0.9944
-1.0823 -0.6744 -0.6616 0.9943
-1.0675 -0.7197 -0.6679 0.9942
-1.0619 -0.8329 -0.7002 0.9939
-2.3843 -2.0127 -1.6187 0.9860
-2.3104 -2.0971 -1.6187 0.9860
-2.2335 -2.1789 -1.6187 0.9860
-2.0711 -2.3338 -1.6187 0.9860
-1.4244 -2.7761 -1.6187 0.9860
-1.3236 -2.8256 -1.6187 0.9860
-1.0116 -2.9517 -1.6187 0.9860
-0.9049 -2.9862 -1.6187 0.9860
-0.7969 -3.0168 -1.6187 0.9860
-0.4674 -3.0850 -1.6187 0.9860
-1.0738 -0.4256 -0.6327 0.9947
-1.0178 -0.6862 -0.6723 0.9944
-0.9981 -0.7264 -0.6761 0.9944
-0.9769 -0.7663 -0.6800 0.9944
-0.9989 -0.8432 -0.7160 0.9941
-2.1884 -1.9864 -1.6187 0.9866
-2.1155 -2.0638 -1.6187 0.9866
-1.9617 -2.2105 -1.6187 0.9866
-1.8810 -2.2796 -1.6187 0.9866
-1.7978 -2.3458 -1.6187 0.9866
-1.7123 -2.4089 -1.6187 0.9866
-1.6245 -2.4690 -1.6187 0.9866
-1.5347 -2.5258 -1.6187 0.9866
-1.2537 -2.6764 -1.6187 0.9866
-1.0581 -2.7595 -1.6187 0.9866
-0.7548 -2.8574 -1.6187 0.9866
-0.6516 -2.8827 -1.6187 0.9866
-0.4427 -2.9221 -1.6187 0.9866
-1.0404 -0.4124 -0.6461 0.9948
-1.0365 -0.4546 -0.6534 0.9948
-1.0207 -0.5383 -0.6663 0.9947
-1.0056 -0.5774 -0.6695 0.9947
-0.9714 -0.6549 -0.6764 0.9946
-0.9523 -0.6931 -0.6800 0.9946
-0.9319 -0.7310 -0.6838 0.9945
-0.9172 -0.7743 -0.6930 0.9945
-0.9264 -0.8409 -0.7223 0.9942
-1.7054 -2.2253 -1.6187 0.9871
-1.6243 -2.2852 -1.6187 0.9871
-1.4559 -2.3961 -1.6187 0.9871
-1.1894 -2.5389 -1.6187 0.9871
-1.0973 -2.5800 -1.6187 0.9871
-0.8130 -2.6832 -1.6187 0.9871
-0.7160 -2.7107 -1.6187 0.9871
-0.6181 -2.7347 -1.6187 0.9871
