ply
format ascii 1.0
element vertex 486
property float32 x
property float32 y
property float32 z
property float32 I
end_header
-37.4577 -18.1701 7.3409 0.8444
-34.5531 -19.9021 7.0310 0.8505
-34.1545 -24.8489 7.4476 0.8424
-35.9357 -28.1464 8.0487 0.8308
-23.2257 -37.7382 7.8135 0.8353
-38.4059 -18.6301 6.5393 0.8414
-36.7334 -19.4570 6.3680 0.8452
-35.4229 -20.4031 6.2624 0.8475
-34.1906 -23.0666 6.3183 0.8463
-21.6637 -38.1694 6.7235 0.8373
-39.4698 -17.4454 5.6195 0.8402
-40.6840 -19.7351 5.8883 0.8333
-34.2830 -21.4002 5.2627 0.8496
-34.6990 -23.4096 5.4507 0.8446
-36.9301 -26.8682 5.9472 0.8318
-21.6509 -38.1468 5.7119 0.8378
-36.6063 -19.3896 4.4482 0.8465
-35.3811 -23.8697 4.5830 0.8422
-35.0775 -25.5204 4.6581 0.8399
-23.2256 -37.7381 4.7583 0.8367
-21.6637 -38.1693 4.7128 0.8381
-25.2943 -22.8822 2.1151 0.8722
-23.9737 -23.2855 2.0724 0.8746
-23.2256 -37.7381 2.7478 0.8373
-21.6637 -38.1693 2.7215 0.8387
-39.5433 -22.7764 1.7994 0.8330
-23.2256 -37.7381 1.7473 0.8375
-39.3282 -22.6525 0.7666 0.8340
-39.7617 -28.9284 0.8306 0.8214
-21.6637 -38.1693 0.7414 0.8390
-46.8487 -14.9955 -0.2770 0.8214
-41.4056 -16.5721 -0.2511 0.8366
-38.9254 -17.2048 -0.2396 0.8435
-36.8073 -17.8546 -0.2303 0.8490
-32.9296 -18.9670 -0.2140 0.8590
-31.8049 -21.4571 -0.2160 0.8577
-32.3187 -23.5132 -0.2250 0.8523
-33.0354 -25.8747 -0.2363 0.8455
-34.4492 -31.1639 -0.2615 0.8304
-23.2256 -37.7381 -0.2495 0.8376
-46.8487 -14.9955 -1.3851 0.8213
-44.2650 -15.9199 -1.3246 0.8284
-41.6362 -16.6644 -1.2628 0.8357
-37.2539 -18.0712 -1.1659 0.8473
-34.8861 -18.4785 -1.1116 0.8539
-31.9768 -21.5730 -1.0862 0.8570
-32.3186 -23.5132 -1.1254 0.8522
-33.8142 -26.4848 -1.2094 0.8421
-23.6919 -21.4325 -0.8996 0.8800
-35.5744 -34.5532 -1.3964 0.8200
-25.8009 -28.8871 -1.0906 0.8564
-28.0102 -36.2331 -1.2896 0.8325
-7.9859 -14.0703 -0.4556 0.9373
-28.2065 6.3731 -1.4665 0.8906
-31.3115 5.9162 -1.6160 0.8802
-31.7092 3.6889 -1.6190 0.8800
-2.9808 0.2400 -0.1517 0.9881
-2.9626 0.1331 -0.1504 0.9882
-2.9408 0.0277 -0.1491 0.9883
-2.9713 -0.1830 -0.1510 0.9881
-2.9974 -0.2916 -0.1527 0.9880
-31.6431 -4.2157 -1.6189 0.8800
-31.4737 -5.3351 -1.6189 0.8800
-31.2648 -6.4478 -1.6189 0.8800
-30.7291 -8.6473 -1.6189 0.8800
-30.4030 -9.7315 -1.6189 0.8800
-29.6368 -11.8617 -1.6189 0.8800
-28.6415 -13.8935 -1.6144 0.8803
-27.2751 -14.4471 -1.5653 0.8837
-24.5297 -15.3120 -1.4665 0.8906
-23.9712 -16.1721 -1.4665 0.8906
-19.6377 -16.5374 -1.3020 0.9023
-20.7421 -20.1467 -1.4664 0.8906
-19.2619 -21.5659 -1.4664 0.8906
-18.4938 -22.2458 -1.4671 0.8906
-17.7493 -22.9599 -1.4718 0.8903
-16.9812 -23.6544 -1.4767 0.8899
-8.5911 -13.9592 -0.8313 0.9365
-2.5297 0.5716 -0.1902 0.9897
-2.4093 0.1940 -0.1772 0.9904
-2.4189 -0.3223 -0.1789 0.9903
-2.4546 -0.4161 -0.1825 0.9901
-2.5026 -0.5161 -0.1874 0.9898
-21.0278 -6.7307 -1.6189 0.9153
-20.4979 -8.2040 -1.6189 0.9153
-19.5105 -10.3343 -1.6188 0.9153
-19.1318 -11.0197 -1.6188 0.9153
-18.3026 -12.3478 -1.6188 0.9153
-17.8532 -12.9890 -1.6188 0.9153
-17.3814 -13.6138 -1.6188 0.9153
-15.8372 -15.3825 -1.6188 0.9153
-14.4425 -16.1700 -1.5897 0.9167
-13.4594 -16.1900 -1.5437 0.9190
-11.6630 -16.2463 -1.4664 0.9229
-9.3186 -14.0034 -1.2333 0.9348
-7.8762 -13.8771 -1.1700 0.9380
-2.2127 0.4999 -0.2178 0.9909
-2.1865 0.4131 -0.2136 0.9911
-2.1600 0.3293 -0.2098 0.9913
-2.1569 0.2509 -0.2085 0.9913
-2.1544 0.0968 -0.2070 0.9914
-2.1554 -0.1328 -0.2073 0.9914
-2.1567 -0.2098 -0.2080 0.9913
-2.1725 -0.3683 -0.2115 0.9912
-2.1988 -0.4535 -0.2155 0.9910
-15.8669 -5.7065 -1.6188 0.9345
-14.6113 -8.4159 -1.6188 0.9345
-13.6349 -9.9200 -1.6188 0.9345
-13.2745 -10.3972 -1.6188 0.9345
-12.8975 -10.8613 -1.6188 0.9345
-12.5042 -11.3118 -1.6188 0.9345
-12.0953 -11.7480 -1.6188 0.9345
-11.6710 -12.1695 -1.6188 0.9345
-10.7791 -12.9660 -1.6188 0.9345
-10.3126 -13.3400 -1.6188 0.9345
-9.8330 -13.6973 -1.6188 0.9345
-9.3412 -14.0372 -1.6188 0.9345
-2.0222 0.3821 -0.2445 0.9917
-2.0120 0.3067 -0.2418 0.9918
-2.0024 0.0899 -0.2381 0.9920
-2.0077 -0.1953 -0.2396 0.9919
-2.0107 -0.2679 -0.2410 0.9919
-2.0301 -0.4187 -0.2462 0.9917
-2.0466 -0.4983 -0.2502 0.9916
-2.0630 -0.5806 -0.2546 0.9914
-12.8237 -4.6120 -1.6188 0.9466
-12.4646 -5.5093 -1.6188 0.9466
-12.2614 -5.9478 -1.6188 0.9466
-12.0428 -6.3788 -1.6188 0.9466
-11.5604 -7.2162 -1.6188 0.9466
-11.0198 -8.0174 -1.6188 0.9466
-10.4239 -8.7782 -1.6188 0.9466
-9.7755 -9.4949 -1.6188 0.9466
-9.4326 -9.8355 -1.6188 0.9466
-9.0779 -10.1638 -1.6188 0.9466
-8.3348 -10.7815 -1.6188 0.9466
-7.9472 -11.0703 -1.6188 0.9466
-7.5496 -11.3451 -1.6188 0.9466
-7.1426 -11.6056 -1.6188 0.9466
-1.9246 0.3636 -0.2775 0.9921
-1.9198 0.2927 -0.2752 0.9922
-1.9116 0.0858 -0.2711 0.9923
-1.9057 0.0179 -0.2700 0.9923
-1.9166 -0.1865 -0.2728 0.9923
-1.9299 -0.3980 -0.2792 0.9921
-10.6069 -4.2453 -1.6188 0.9549
-10.4497 -4.6187 -1.6188 0.9549
-10.2793 -4.9863 -1.6188 0.9549
-10.0960 -5.3477 -1.6188 0.9549
-9.9000 -5.7023 -1.6188 0.9549
-8.9943 -7.0447 -1.6188 0.9549
-8.7388 -7.3592 -1.6188 0.9549
-7.6105 -8.5208 -1.6188 0.9549
-6.9874 -9.0387 -1.6188 0.9549
-5.9880 -9.7296 -1.6187 0.9549
-1.8452 0.4169 -0.3116 0.9924
-1.8352 0.2798 -0.3058 0.9925
-1.8346 -0.2444 -0.3049 0.9925
-8.9875 -3.9724 -1.6188 0.9609
-8.8410 -4.2886 -1.6188 0.9609
-7.5161 -6.3295 -1.6188 0.9609
-7.2869 -6.5920 -1.6188 0.9609
-7.0486 -6.8462 -1.6188 0.9609
-6.8014 -7.0919 -1.6188 0.9609
-6.2817 -7.5560 -1.6187 0.9609
-6.0098 -7.7740 -1.6187 0.9609
-5.4437 -8.1804 -1.6187 0.9609
-5.1502 -8.3682 -1.6187 0.9609
-1.7621 0.3981 -0.3396 0.9927
-1.7572 0.2679 -0.3341 0.9928
-1.7562 0.2043 -0.3323 0.9928
-1.7438 0.0164 -0.3278 0.9929
-1.7544 -0.1707 -0.3313 0.9929
-1.7574 -0.2979 -0.3350 0.9928
-1.7578 -0.3625 -0.3374 0.9927
-1.7658 -0.4300 -0.3416 0.9926
-1.7731 -0.4990 -0.3462 0.9925
-7.9956 -3.2001 -1.6188 0.9656
-7.3057 -4.5604 -1.6188 0.9656
-6.7800 -5.3104 -1.6188 0.9656
-6.5875 -5.5475 -1.6188 0.9656
-5.9611 -6.2157 -1.6187 0.9656
-5.5055 -6.6225 -1.6187 0.9656
-5.2673 -6.8135 -1.6187 0.9656
-4.7711 -7.1697 -1.6187 0.9656
-1.6856 0.3808 -0.3653 0.9930
-1.6848 0.3183 -0.3624 0.9930
-1.6849 0.2569 -0.3603 0.9931
-1.6828 0.1958 -0.3581 0.9931
-1.6799 0.1353 -0.3562 0.9931
-1.6781 -0.1034 -0.3554 0.9931
-1.6814 -0.1636 -0.3571 0.9931
-1.6839 -0.2243 -0.3591 0.9931
-1.6844 -0.3474 -0.3635 0.9930
-1.6887 -0.4112 -0.3674 0.9929
-1.6946 -0.4769 -0.3721 0.9928
-1.6999 -0.5441 -0.3773 0.9927
-1.7086 -0.6839 -0.3890 0.9925
-7.0044 -3.0959 -1.6188 0.9692
-6.6360 -3.8222 -1.6188 0.9692
-6.1925 -4.5053 -1.6188 0.9692
-5.8576 -4.9329 -1.6187 0.9692
-5.1013 -5.7115 -1.6187 0.9692
-4.0138 -6.5218 -1.6187 0.9692
-1.6158 0.3651 -0.3893 0.9932
-1.6163 0.2464 -0.3843 0.9933
-1.6147 0.1878 -0.3820 0.9933
-1.6123 0.1298 -0.3801 0.9934
-1.6090 0.0723 -0.3785 0.9934
-1.6051 0.0151 -0.3772 0.9934
-1.6107 -0.0992 -0.3793 0.9934
-1.6156 -0.2152 -0.3830 0.9933
-1.6168 -0.2741 -0.3854 0.9933
-1.6173 -0.3938 -0.3912 0.9932
-1.6295 -0.5861 -0.4070 0.9929
-1.6320 -0.6532 -0.4131 0.9928
-1.6346 -0.7225 -0.4200 0.9927
-6.1970 -3.0061 -1.6188 0.9721
-5.9684 -3.4377 -1.6188 0.9721
-5.7097 -3.8520 -1.6187 0.9721
-4.5881 -5.1369 -1.6187 0.9721
-4.4031 -5.2964 -1.6187 0.9721
-3.6100 -5.8657 -1.6187 0.9721
-1.5524 0.3508 -0.4121 0.9934
-1.5528 0.2934 -0.4092 0.9935
-1.5525 0.2367 -0.4066 0.9935
-1.5492 0.1247 -0.4024 0.9936
-1.5464 0.0694 -0.4008 0.9936
-1.5428 0.0145 -0.3995 0.9936
-1.5503 -0.1508 -0.4033 0.9936
-1.5527 -0.3202 -0.4105 0.9935
-1.5514 -0.3778 -0.4134 0.9934
-1.5629 -0.5621 -0.4301 0.9932
-1.5672 -0.6273 -0.4371 0.9930
-1.5709 -0.6943 -0.4447 0.9929
-5.6251 -2.7286 -1.6187 0.9745
-5.5248 -2.9264 -1.6187 0.9745
-5.1828 -3.4965 -1.6187 0.9745
-4.7821 -4.0271 -1.6187 0.9745
-4.4847 -4.3559 -1.6187 0.9745
-3.9967 -4.8076 -1.6187 0.9745
-3.6459 -5.0787 -1.6187 0.9745
-3.4635 -5.2048 -1.6187 0.9745
-1.4947 0.3377 -0.4338 0.9936
-1.4950 0.2825 -0.4307 0.9937
-1.4935 0.1737 -0.4256 0.9938
-1.4916 0.1201 -0.4236 0.9938
-1.4891 0.0669 -0.4220 0.9938
-1.4858 0.0140 -0.4206 0.9938
-1.4926 -0.1452 -0.4245 0.9938
-1.4949 -0.2534 -0.4292 0.9937
-1.5016 -0.4806 -0.4463 0.9935
-1.5055 -0.5415 -0.4529 0.9934
-1.5113 -0.6680 -0.4678 0.9932
-4.3738 -3.6833 -1.6187 0.9765
-4.2404 -3.8360 -1.6187 0.9765
-3.8090 -4.2646 -1.6187 0.9765
-3.6554 -4.3970 -1.6187 0.9765
-3.3346 -4.6450 -1.6187 0.9765
-3.1678 -4.7603 -1.6187 0.9765
-2.8224 -4.9729 -1.6187 0.9765
-1.4453 0.3266 -0.4557 0.9938
-1.4459 0.2732 -0.4526 0.9939
-1.4458 0.2204 -0.4498 0.9939
-1.4450 0.1681 -0.4474 0.9939
-1.4434 0.1162 -0.4454 0.9940
-1.4348 0.0135 -0.4413 0.9940
-1.4390 -0.0375 -0.4428 0.9940
-1.4423 -0.0888 -0.4444 0.9940
-1.4454 -0.1926 -0.4485 0.9939
-1.4460 -0.2451 -0.4511 0.9939
-1.4457 -0.2982 -0.4540 0.9938
-1.4447 -0.3518 -0.4573 0.9938
-1.4484 -0.4636 -0.4678 0.9937
-1.4538 -0.5819 -0.4816 0.9935
-1.4553 -0.6433 -0.4894 0.9934
-1.4561 -0.7063 -0.4978 0.9933
-4.2557 -3.0962 -1.6187 0.9782
-4.1432 -3.2452 -1.6187 0.9782
-4.0256 -3.3900 -1.6187 0.9782
-3.9028 -3.5306 -1.6187 0.9782
-3.5058 -3.9251 -1.6187 0.9782
-3.2188 -4.1637 -1.6187 0.9782
-2.9156 -4.3814 -1.6187 0.9782
-2.7584 -4.4820 -1.6187 0.9782
-1.3983 0.3159 -0.4765 0.9940
-1.3989 0.1627 -0.4681 0.9941
-1.3976 0.1125 -0.4661 0.9941
-1.3857 0.0131 -0.4606 0.9942
-1.3993 -0.1864 -0.4692 0.9941
-1.3995 -0.2372 -0.4718 0.9940
-1.3977 -0.3403 -0.4782 0.9940
-1.3961 -0.3929 -0.4821 0.9939
-1.3987 -0.4477 -0.4882 0.9938
-1.4006 -0.5037 -0.4947 0.9937
-1.4020 -0.5612 -0.5020 0.9937
-1.4027 -0.6200 -0.5098 0.9936
-4.0370 -2.7235 -1.6187 0.9797
-3.9378 -2.8650 -1.6187 0.9797
-3.8338 -3.0028 -1.6187 0.9797
-3.7249 -3.1368 -1.6187 0.9797
-3.4932 -3.3929 -1.6187 0.9797
-3.3707 -3.5147 -1.6187 0.9797
-3.1131 -3.7447 -1.6187 0.9797
-2.9784 -3.8527 -1.6187 0.9797
-2.8399 -3.9559 -1.6187 0.9797
-2.6979 -4.0541 -1.6187 0.9797
-2.5524 -4.1472 -1.6187 0.9797
-2.4037 -4.2351 -1.6187 0.9797
-1.3537 0.1090 -0.4857 0.9942
-1.3545 -0.1318 -0.4867 0.9942
-1.3529 -0.3294 -0.4980 0.9941
-1.3505 -0.3800 -0.5017 0.9941
-1.3528 -0.4865 -0.5141 0.9939
-1.3531 -0.5416 -0.5212 0.9938
-1.3521 -0.6559 -0.5374 0.9936
-1.3502 -0.7152 -0.5464 0.9935
-3.5636 -2.7912 -1.6187 0.9810
-3.4624 -2.9158 -1.6187 0.9810
-3.3568 -3.0367 -1.6187 0.9810
-3.2470 -3.1538 -1.6187 0.9810
-3.1332 -3.2670 -1.6187 0.9810
-3.0153 -3.3760 -1.6187 0.9810
-2.8937 -3.4808 -1.6187 0.9810
-2.7685 -3.5812 -1.6187 0.9810
-2.5077 -3.7684 -1.6187 0.9810
-2.3725 -3.8550 -1.6187 0.9810
-2.2343 -3.9367 -1.6187 0.9810
-1.3127 0.2480 -0.5119 0.9943
-1.3133 0.2002 -0.5091 0.9943
-1.3132 0.1528 -0.5066 0.9944
-1.3085 0.1054 -0.5031 0.9944
-1.2951 0.0122 -0.4963 0.9945
-1.3133 -0.1750 -0.5077 0.9943
-1.3103 -0.3191 -0.5168 0.9942
-1.3077 -0.3680 -0.5206 0.9942
-1.3070 -0.4183 -0.5259 0.9941
-1.3075 -0.4703 -0.5325 0.9941
-1.3072 -0.5232 -0.5396 0.9940
-1.3044 -0.6327 -0.5556 0.9938
-1.2983 -0.7478 -0.5742 0.9936
-3.5017 -2.3624 -1.6187 0.9821
-3.3254 -2.6046 -1.6187 0.9821
-3.2310 -2.7209 -1.6187 0.9821
-3.1325 -2.8337 -1.6187 0.9821
-3.0300 -2.9430 -1.6187 0.9821
-2.8138 -3.1504 -1.6187 0.9821
-2.7004 -3.2482 -1.6187 0.9821
-2.4633 -3.4314 -1.6187 0.9821
-2.3401 -3.5166 -1.6187 0.9821
-2.2139 -3.5973 -1.6187 0.9821
-1.2707 0.2871 -0.5332 0.9944
-1.2731 0.1941 -0.5271 0.9944
-1.2706 0.1478 -0.5235 0.9945
-1.2655 0.1019 -0.5196 0.9945
-1.2596 0.0566 -0.5161 0.9946
-1.2562 -0.0327 -0.5143 0.9946
-1.2625 -0.0778 -0.5177 0.9945
-1.2728 -0.2158 -0.5284 0.9944
-1.2668 -0.3565 -0.5386 0.9943
-1.2645 -0.4548 -0.5500 0.9942
-1.2637 -0.5058 -0.5571 0.9941
-1.2620 -0.5578 -0.5647 0.9941
-1.2594 -0.6109 -0.5729 0.9940
-1.2519 -0.7211 -0.5913 0.9938
-3.2787 -2.2120 -1.6187 0.9831
-3.1982 -2.3269 -1.6187 0.9831
-3.1137 -2.4388 -1.6187 0.9831
-2.4190 -3.1291 -1.6187 0.9831
-2.3065 -3.2129 -1.6187 0.9831
-1.2318 0.2783 -0.5504 0.9945
-1.2336 0.2331 -0.5472 0.9945
-1.2330 0.1879 -0.5436 0.9946
-1.2291 0.1430 -0.5393 0.9946
-1.2217 -0.0753 -0.5334 0.9947
-1.2267 -0.1194 -0.5372 0.9946
-1.2310 -0.1640 -0.5412 0.9946
-1.2343 -0.2092 -0.5456 0.9946
-1.2307 -0.2997 -0.5520 0.9945
-1.2277 -0.3455 -0.5558 0.9945
-1.2240 -0.3918 -0.5601 0.9944
-1.2235 -0.4400 -0.5667 0.9943
-1.2200 -0.5392 -0.5813 0.9942
-1.2169 -0.5903 -0.5894 0.9941
-1.2128 -0.6424 -0.5981 0.9940
-3.0035 -2.1851 -1.6187 0.9839
-2.7544 -2.4917 -1.6187 0.9839
-2.6643 -2.5878 -1.6187 0.9839
-2.3744 -2.8561 -1.6187 0.9839
-2.1660 -3.0172 -1.6187 0.9839
-1.8334 -3.2302 -1.6187 0.9839
-1.1929 0.1819 -0.5586 0.9947
-1.1895 0.1384 -0.5543 0.9947
-1.1853 0.0954 -0.5504 0.9948
-1.1803 0.0530 -0.5469 0.9948
-1.1912 -0.1587 -0.5563 0.9947
-1.1957 -0.2466 -0.5651 0.9946
-1.1934 -0.2906 -0.5685 0.9946
-1.1902 -0.3349 -0.5723 0.9946
-1.1863 -0.3797 -0.5765 0.9945
-1.1843 -0.4259 -0.5826 0.9945
-1.1825 -0.4733 -0.5896 0.9944
-1.1799 -0.5215 -0.5971 0.9943
-1.1764 -0.5706 -0.6052 0.9943
-1.1719 -0.6207 -0.6138 0.9942
-1.1664 -0.6718 -0.6231 0.9941
-1.1587 -0.7817 -0.6470 0.9939
-2.6749 -2.2526 -1.6187 0.9847
-2.5933 -2.3460 -1.6187 0.9847
-2.5085 -2.4365 -1.6187 0.9847
-2.1388 -2.7667 -1.6187 0.9847
-1.8329 -2.9782 -1.6187 0.9847
-1.7262 -3.0413 -1.6187 0.9847
-1.1584 0.2617 -0.5825 0.9947
-1.1379 0.0107 -0.5582 0.9949
-1.1455 -0.0706 -0.5629 0.9949
-1.1497 -0.1119 -0.5666 0.9949
-1.1576 -0.2818 -0.5844 0.9947
-1.1502 -0.3681 -0.5924 0.9946
-1.1447 -0.4581 -0.6048 0.9945
-1.1377 -0.5519 -0.6203 0.9944
-1.1121 -0.7503 -0.6580 0.9940
-2.4472 -2.2138 -1.6187 0.9854
-2.2842 -2.3817 -1.6187 0.9854
-2.1983 -2.4612 -1.6187 0.9854
-2.0183 -2.6108 -1.6187 0.9854
-1.9244 -2.6807 -1.6187 0.9854
-1.8282 -2.7473 -1.6187 0.9854
-1.6289 -2.8700 -1.6187 0.9854
-1.1180 0.1704 -0.5867 0.9949
-1.1153 0.1298 -0.5825 0.9950
-1.1076 0.0497 -0.5752 0.9950
-1.1027 0.0104 -0.5721 0.9950
-1.1051 -0.0288 -0.5735 0.9950
-1.1136 -0.1083 -0.5804 0.9950
-1.1167 -0.1488 -0.5844 0.9949
-1.1212 -0.2730 -0.5987 0.9948
-1.1197 -0.3151 -0.6034 0.9948
-1.1154 -0.3570 -0.6076 0.9947
-1.1084 -0.4436 -0.6194 0.9946
-1.1050 -0.4884 -0.6268 0.9946
-1.0673 -0.7201 -0.6679 0.9942
-1.0613 -0.8313 -0.6994 0.9939
-2.3867 -2.0099 -1.6187 0.9860
-2.2382 -2.1740 -1.6187 0.9860
-2.0785 -2.3271 -1.6187 0.9860
-1.9084 -2.4686 -1.6187 0.9860
-1.8196 -2.5347 -1.6187 0.9860
-1.5402 -2.7136 -1.6187 0.9860
-1.0844 0.2049 -0.6044 0.9950
-1.0828 0.1651 -0.5999 0.9950
-1.0734 0.0482 -0.5885 0.9951
-1.0711 -0.0279 -0.5868 0.9951
-1.0817 -0.1441 -0.5977 0.9950
-1.0837 -0.1837 -0.6020 0.9950
-1.0848 -0.2237 -0.6067 0.9950
-1.0820 -0.3463 -0.6222 0.9948
-1.0736 -0.4297 -0.6333 0.9947
-1.0653 -0.5168 -0.6485 0.9946
-1.0525 -0.6062 -0.6652 0.9945
-1.0357 -0.6465 -0.6687 0.9944
-2.1917 -1.9827 -1.6187 0.9866
-1.9688 -2.2042 -1.6187 0.9866
-1.8894 -2.2727 -1.6187 0.9866
-1.8076 -2.3383 -1.6187 0.9866
-1.5491 -2.5170 -1.6187 0.9866
-1.4588 -2.5703 -1.6187 0.9866
-1.0507 0.2374 -0.6219 0.9950
-1.0502 0.1984 -0.6171 0.9951
-1.0489 0.1599 -0.6126 0.9951
-1.0405 0.0467 -0.6013 0.9952
-1.0383 -0.0271 -0.5997 0.9952
-1.0455 -0.1017 -0.6065 0.9952
-1.0506 -0.2167 -0.6193 0.9951
-1.0507 -0.2558 -0.6243 0.9950
-1.0500 -0.2954 -0.6297 0.9950
-1.0445 -0.3757 -0.6409 0.9949
-1.0400 -0.4162 -0.6468 0.9948
-1.0361 -0.4580 -0.6540 0.9948
-1.0200 -0.5403 -0.6664 0.9947
-0.9166 -0.7719 -0.6919 0.9945
-0.9269 -0.8385 -0.7216 0.9942
-2.0112 -1.9534 -1.6187 0.9871
-1.8677 -2.0911 -1.6187 0.9871
-1.7924 -2.1560 -1.6187 0.9871
-1.7148 -2.2182 -1.6187 0.9871
