ply
format ascii 1.0
element vertex 473
property float32 x
property float32 y
property float32 z
property float32 I
end_header
-21.6656 -38.1688 7.7388 0.8367
-18.6570 -39.1452 7.6462 0.8385
-17.0915 -39.4316 7.5779 0.8398
-15.6025 -39.8427 7.5448 0.8405
-14.8821 -42.4098 7.9250 0.8331
-13.2907 -42.7034 7.8860 0.8339
-6.7894 -42.4216 7.5753 0.8399
-5.2755 -42.6938 7.5853 0.8397
-3.7682 -43.1100 7.6304 0.8388
-20.1852 -38.7233 6.6898 0.8380
-14.8821 -42.4098 6.8853 0.8337
-13.2907 -42.7034 6.8514 0.8344
-11.7864 -43.2644 6.8694 0.8341
-3.7255 -15.8958 2.5011 0.9361
-5.2755 -42.6939 6.5902 0.8402
-3.7681 -43.1100 6.6294 0.8394
-2.2408 -43.5317 6.6776 0.8383
4.1439 -45.1125 6.9401 0.8325
5.8372 -45.5857 7.0405 0.8303
7.5826 -46.0736 7.1532 0.8278
-21.6528 -38.1463 5.7119 0.8378
-18.5534 -38.9281 5.6156 0.8403
-12.6093 -40.5140 5.5254 0.8427
-3.7253 -15.8950 2.1259 0.9363
-8.2179 -41.7264 5.5380 0.8424
-5.2605 -42.5720 5.5859 0.8411
-1.9401 -22.1962 2.9014 0.9140
-1.1321 -21.9930 2.8677 0.9150
-0.6890 -43.9601 5.7252 0.8375
9.3871 -46.5779 6.1874 0.8256
14.5657 -46.0822 6.2935 0.8229
-15.6024 -39.8427 4.5947 0.8419
-3.7250 -15.8935 1.7529 0.9364
-6.7739 -42.3246 4.6027 0.8416
-3.7681 -43.1088 4.6467 0.8402
-1.1287 -21.9279 2.3578 0.9155
2.5203 -45.0854 4.8489 0.8339
4.1439 -45.1125 4.8646 0.8334
11.2586 -47.1010 5.2003 0.8230
12.4245 -44.8257 4.9949 0.8293
15.8133 -44.4348 5.0646 0.8272
17.8504 -44.9972 5.1982 0.8230
-20.0704 -38.5031 3.6756 0.8400
-17.0700 -39.3821 3.6335 0.8417
-11.1723 -41.0103 3.5982 0.8431
-6.7584 -42.2278 3.6202 0.8423
-5.2687 -42.6390 3.6370 0.8416
-2.2352 -43.4233 3.6808 0.8398
4.1439 -45.1125 3.8350 0.8337
11.2586 -47.1010 4.0996 0.8233
6.8967 -24.8823 2.1858 0.9015
16.9630 -42.7603 3.8942 0.8314
21.3567 -44.3054 4.1636 0.8208
-21.6655 -38.1688 2.7216 0.8387
-20.1534 -38.6622 2.7036 0.8397
-18.6147 -39.0566 2.6829 0.8408
-17.0914 -39.4316 2.6650 0.8418
-15.6024 -39.8427 2.6533 0.8424
-12.6537 -40.6567 2.6404 0.8431
-3.7241 -15.8899 1.0120 0.9367
-8.2468 -41.8734 2.6465 0.8428
-5.2754 -42.6926 2.6675 0.8416
-3.7680 -43.1088 2.6834 0.8408
-2.2407 -43.5305 2.7029 0.8397
4.1439 -45.1125 2.8092 0.8340
5.8372 -45.5857 2.8499 0.8318
7.5826 -46.0736 2.8955 0.8293
11.2586 -47.1010 3.0030 0.8236
12.4246 -44.8257 2.8845 0.8299
13.5823 -30.9606 2.0965 0.8733
20.2492 -42.0078 2.8918 0.8295
-21.6656 -38.1688 1.7306 0.8389
-18.6569 -39.1451 1.7099 0.8406
-17.0914 -39.4316 1.6946 0.8419
-13.9885 -39.8633 1.6658 0.8444
-3.7237 -15.8881 0.6435 0.9368
-6.7893 -42.4205 1.6940 0.8420
-2.2407 -43.5305 1.7187 0.8399
-0.6890 -43.9589 1.7336 0.8386
4.1439 -45.1125 1.7863 0.8341
5.8372 -45.5858 1.8122 0.8320
9.3871 -46.5779 1.8735 0.8268
11.2586 -47.1010 1.9096 0.8238
12.4245 -44.8257 1.8342 0.8301
17.1836 -39.1696 1.6866 0.8426
19.1417 -39.7102 1.7382 0.8382
-21.6656 -38.1688 0.7414 0.8390
-20.1685 -38.6912 0.7370 0.8398
-17.0914 -39.4316 0.7259 0.8420
-5.2653 -42.6106 0.7253 0.8422
-3.7681 -43.1088 0.7310 0.8410
-2.2407 -43.5304 0.7363 0.8400
2.5203 -45.0854 0.7628 0.8347
7.5826 -46.0736 0.7887 0.8296
9.3871 -46.5779 0.8026 0.8269
12.4245 -44.8257 0.7857 0.8302
13.2376 -41.8806 0.7419 0.8389
14.6231 -36.8620 0.6699 0.8533
16.3551 -37.2810 0.6877 0.8497
18.2188 -37.7955 0.7087 0.8455
-20.1852 -38.7232 -0.2459 0.8397
-18.6569 -39.1451 -0.2442 0.8408
-17.0914 -39.4316 -0.2420 0.8421
-14.1711 -40.3836 -0.2410 0.8427
-12.5991 -40.4812 -0.2387 0.8440
-3.7229 -15.8845 -0.0919 0.9368
-6.7892 -42.4205 -0.2419 0.8421
4.1439 -45.1125 -0.2551 0.8343
7.5826 -46.0736 -0.2629 0.8296
9.3871 -46.5779 -0.2675 0.8269
12.4246 -44.8258 -0.2619 0.8302
13.9658 -39.2432 -0.2345 0.8465
15.5266 -35.3924 -0.2176 0.8568
-6.6871 -14.0306 -0.4376 0.9397
-15.6024 -39.8426 -1.2048 0.8426
-8.0410 -25.8359 -0.7619 0.8974
-11.1864 -41.0618 -1.1984 0.8434
-3.7225 -15.8827 -0.4593 0.9368
-1.1622 -13.2966 -0.3758 0.9480
-0.6889 -43.9589 -1.2379 0.8387
2.5203 -45.0855 -1.2716 0.8347
5.8372 -45.5857 -1.2941 0.8320
7.5826 -46.0736 -1.3148 0.8296
9.3871 -46.5779 -1.3379 0.8268
11.2586 -47.1010 -1.3636 0.8238
13.9658 -39.2433 -1.1729 0.8465
14.6232 -36.8621 -1.1166 0.8533
16.5575 -34.3491 -1.0737 0.8585
-7.2094 -13.8306 -0.7910 0.9394
-6.5753 -13.7959 -0.7751 0.9406
-5.5269 -14.1136 -0.7687 0.9411
-8.0414 -25.8372 -1.3723 0.8973
-3.7867 -13.8997 -0.7306 0.9439
-2.6307 -13.3574 -0.6904 0.9469
-2.1178 -13.2328 -0.6796 0.9477
-1.6195 -13.1060 -0.6697 0.9485
-1.1346 -12.9810 -0.6608 0.9491
0.5970 -29.7183 -1.5074 0.8878
2.7133 -29.5383 -1.5043 0.8880
3.7662 -29.4121 -1.5038 0.8880
4.8209 -29.2928 -1.5055 0.8879
5.8618 -29.0877 -1.5048 0.8879
7.9133 -28.5435 -1.5021 0.8881
10.9159 -27.5167 -1.5013 0.8882
11.8818 -27.0846 -1.4999 0.8883
13.7750 -26.1441 -1.4987 0.8884
-7.8770 -13.8772 -1.1700 0.9380
-6.6463 -13.9450 -1.1327 0.9399
-5.4864 -14.0102 -1.1032 0.9414
-6.6219 -18.8705 -1.4663 0.9229
-3.6943 -13.5608 -1.0305 0.9452
-3.1430 -13.4103 -1.0099 0.9463
-2.6155 -13.2803 -0.9924 0.9472
-1.1235 -12.8543 -0.9461 0.9496
1.1162 -19.9666 -1.4663 0.9229
1.8292 -19.9139 -1.4663 0.9229
2.5400 -19.8357 -1.4663 0.9229
3.2474 -19.7321 -1.4663 0.9229
5.3414 -19.2708 -1.4663 0.9229
7.3738 -18.5880 -1.4662 0.9229
8.6831 -18.0135 -1.4662 0.9229
9.3215 -17.6915 -1.4662 0.9229
-8.3234 -14.6636 -1.6188 0.9345
-6.6993 -15.4559 -1.6172 0.9345
-5.5008 -15.6758 -1.5949 0.9354
-4.8505 -15.5849 -1.5670 0.9365
-2.1157 -13.2192 -1.2853 0.9476
-0.6573 -12.7689 -1.2275 0.9499
-0.1986 -12.6730 -1.2168 0.9503
0.3068 -15.2700 -1.4663 0.9405
0.8525 -15.2492 -1.4663 0.9405
3.0174 -14.9719 -1.4663 0.9405
3.5507 -14.8544 -1.4663 0.9405
4.0794 -14.7179 -1.4663 0.9405
5.1206 -14.3887 -1.4663 0.9405
6.1356 -13.9860 -1.4662 0.9405
-6.7271 -11.8513 -1.6187 0.9466
-6.2991 -12.0842 -1.6187 0.9466
-5.8630 -12.3016 -1.6187 0.9466
-4.9690 -12.6891 -1.6187 0.9466
-4.0496 -13.0116 -1.6187 0.9466
-2.6332 -13.3703 -1.6187 0.9466
-2.1536 -13.4559 -1.6187 0.9466
-1.6711 -13.5242 -1.6187 0.9466
-1.1866 -13.5753 -1.6187 0.9466
-0.6594 -12.8097 -1.5236 0.9496
0.2737 -13.6242 -1.6187 0.9466
2.6922 -13.3583 -1.6187 0.9466
3.1680 -13.2534 -1.6187 0.9466
3.6398 -13.1317 -1.6187 0.9466
4.5687 -12.8380 -1.6187 0.9466
6.3520 -12.0556 -1.6187 0.9466
-5.6397 -9.9356 -1.6187 0.9549
-5.2808 -10.1308 -1.6187 0.9549
-4.9153 -10.3131 -1.6187 0.9549
-3.7828 -10.7800 -1.6187 0.9549
-3.0029 -11.0227 -1.6187 0.9549
-2.6069 -11.1230 -1.6187 0.9549
-2.2076 -11.2091 -1.6187 0.9549
-1.8054 -11.2808 -1.6187 0.9549
-1.4010 -11.3381 -1.6187 0.9549
-0.9948 -11.3809 -1.6187 0.9549
0.6376 -11.4064 -1.6187 0.9549
1.4510 -11.3317 -1.6187 0.9549
2.2570 -11.1990 -1.6187 0.9549
2.6559 -11.1111 -1.6187 0.9549
3.0514 -11.0091 -1.6187 0.9549
3.8303 -10.7629 -1.6187 0.9549
4.2126 -10.6190 -1.6187 0.9549
4.5895 -10.4616 -1.6187 0.9549
4.9606 -10.2908 -1.6187 0.9549
5.3253 -10.1069 -1.6187 0.9549
-4.8505 -8.5454 -1.6187 0.9609
-4.5420 -8.7133 -1.6187 0.9609
-4.2276 -8.8701 -1.6187 0.9609
-3.9077 -9.0155 -1.6187 0.9609
-2.5827 -9.4804 -1.6187 0.9609
-1.5528 -9.7024 -1.6187 0.9609
-1.2050 -9.7517 -1.6187 0.9609
-0.8556 -9.7886 -1.6187 0.9609
-0.5051 -9.8129 -1.6187 0.9609
0.5484 -9.8105 -1.6187 0.9609
0.8988 -9.7846 -1.6187 0.9609
1.2480 -9.7462 -1.6187 0.9610
1.5956 -9.6953 -1.6187 0.9610
1.9412 -9.6321 -1.6187 0.9610
2.6245 -9.4687 -1.6187 0.9610
2.9613 -9.3688 -1.6187 0.9610
3.2943 -9.2570 -1.6187 0.9610
3.9473 -8.9979 -1.6187 0.9610
-4.2513 -7.4896 -1.6187 0.9656
-2.5592 -8.2229 -1.6187 0.9656
-1.9652 -8.3848 -1.6187 0.9656
-1.6641 -8.4496 -1.6187 0.9656
-1.3610 -8.5037 -1.6187 0.9656
-1.0561 -8.5470 -1.6187 0.9656
-0.4427 -8.6005 -1.6187 0.9656
-0.1350 -8.6108 -1.6187 0.9656
0.4807 -8.5985 -1.6187 0.9656
0.7878 -8.5758 -1.6187 0.9656
1.7014 -8.4421 -1.6187 0.9656
2.0021 -8.3759 -1.6187 0.9656
2.5955 -8.2114 -1.6187 0.9656
2.8874 -8.1133 -1.6187 0.9656
3.4597 -7.8863 -1.6187 0.9656
3.7394 -7.7575 -1.6187 0.9656
-3.7803 -6.6598 -1.6187 0.9692
-2.2757 -7.3119 -1.6187 0.9692
-1.2102 -7.5616 -1.6187 0.9692
-0.1200 -7.6568 -1.6187 0.9692
0.4274 -7.6458 -1.6187 0.9692
0.7005 -7.6256 -1.6187 0.9692
0.9726 -7.5957 -1.6187 0.9692
1.2436 -7.5561 -1.6187 0.9692
1.7803 -7.4479 -1.6187 0.9692
2.0454 -7.3795 -1.6187 0.9692
3.0764 -7.0126 -1.6187 0.9692
-3.1837 -6.1075 -1.6187 0.9721
-2.9633 -6.2175 -1.6187 0.9721
-2.2806 -6.4990 -1.6187 0.9721
-2.0468 -6.5763 -1.6187 0.9721
-1.8104 -6.6453 -1.6187 0.9721
-1.5716 -6.7058 -1.6187 0.9721
-0.3541 -6.8783 -1.6187 0.9721
0.6300 -6.8585 -1.6187 0.9721
0.8748 -6.8316 -1.6187 0.9721
1.1184 -6.7960 -1.6187 0.9721
1.6012 -6.6987 -1.6187 0.9721
1.8396 -6.6371 -1.6187 0.9721
2.3092 -6.4887 -1.6187 0.9721
2.5397 -6.4020 -1.6187 0.9721
2.9906 -6.2042 -1.6187 0.9721
-2.8898 -5.5439 -1.6187 0.9745
-2.4863 -5.7362 -1.6187 0.9745
-2.0701 -5.8992 -1.6187 0.9745
-1.6433 -6.0320 -1.6187 0.9745
-0.9880 -6.1733 -1.6187 0.9745
-0.5444 -6.2281 -1.6187 0.9745
-0.0980 -6.2510 -1.6187 0.9745
0.1256 -6.2505 -1.6187 0.9745
0.3489 -6.2420 -1.6187 0.9745
0.7941 -6.2011 -1.6187 0.9745
2.0961 -5.8899 -1.6187 0.9745
2.5116 -5.7250 -1.6187 0.9745
2.9142 -5.5310 -1.6187 0.9745
-2.8227 -4.9727 -1.6187 0.9765
-2.2740 -5.2463 -1.6187 0.9765
-1.8933 -5.3954 -1.6187 0.9765
-1.6992 -5.4597 -1.6187 0.9765
-1.5030 -5.5169 -1.6187 0.9765
-1.3048 -5.5671 -1.6187 0.9765
-0.9037 -5.6461 -1.6187 0.9765
-0.7012 -5.6748 -1.6187 0.9765
-0.4979 -5.6962 -1.6187 0.9765
0.1148 -5.7168 -1.6187 0.9765
0.5230 -5.6939 -1.6187 0.9765
0.7263 -5.6716 -1.6187 0.9765
1.3293 -5.5612 -1.6187 0.9765
1.5273 -5.5101 -1.6187 0.9765
2.1084 -5.3149 -1.6187 0.9765
2.4828 -5.1507 -1.6187 0.9765
2.6654 -5.0586 -1.6187 0.9765
-2.5979 -4.5769 -1.6187 0.9782
-2.2643 -4.7508 -1.6187 0.9782
-1.9190 -4.9004 -1.6187 0.9782
-1.5639 -5.0250 -1.6187 0.9782
-1.3833 -5.0777 -1.6187 0.9782
-0.8317 -5.1966 -1.6187 0.9782
-0.4583 -5.2427 -1.6187 0.9782
-0.2705 -5.2558 -1.6187 0.9782
0.1057 -5.2617 -1.6187 0.9782
0.8546 -5.1929 -1.6187 0.9782
1.2235 -5.1185 -1.6187 0.9782
1.5861 -5.0180 -1.6187 0.9782
2.2852 -4.7407 -1.6187 0.9782
-2.2510 -4.3183 -1.6187 0.9797
-2.0951 -4.3960 -1.6187 0.9797
-1.9367 -4.4681 -1.6187 0.9797
-1.7757 -4.5344 -1.6187 0.9797
-1.6124 -4.5950 -1.6187 0.9797
-1.4471 -4.6497 -1.6187 0.9797
-1.2800 -4.6985 -1.6187 0.9797
-0.4240 -4.8512 -1.6187 0.9797
-0.2503 -4.8632 -1.6187 0.9797
0.2718 -4.8621 -1.6187 0.9797
0.6185 -4.8302 -1.6187 0.9797
0.9621 -4.7737 -1.6187 0.9797
1.1321 -4.7362 -1.6187 0.9797
1.4676 -4.6432 -1.6187 0.9797
1.6327 -4.5878 -1.6187 0.9797
2.2700 -4.3082 -1.6187 0.9797
-1.9475 -4.0862 -1.6187 0.9810
-1.6505 -4.2149 -1.6187 0.9810
-1.4988 -4.2712 -1.6187 0.9810
-0.8747 -4.4412 -1.6187 0.9810
-0.5551 -4.4923 -1.6187 0.9810
-0.3942 -4.5093 -1.6187 0.9810
-0.2327 -4.5205 -1.6187 0.9810
-0.0709 -4.5259 -1.6187 0.9810
0.0909 -4.5256 -1.6187 0.9810
0.2526 -4.5194 -1.6187 0.9810
0.4140 -4.5075 -1.6187 0.9810
0.8943 -4.4373 -1.6187 0.9810
1.0523 -4.4025 -1.6187 0.9810
1.2090 -4.3620 -1.6187 0.9810
1.3642 -4.3160 -1.6187 0.9810
1.5176 -4.2645 -1.6187 0.9810
1.6691 -4.2075 -1.6187 0.9810
1.8185 -4.1451 -1.6187 0.9810
1.9655 -4.0775 -1.6187 0.9810
-2.0852 -3.6735 -1.6187 0.9821
-1.6799 -3.8756 -1.6187 0.9821
-1.3986 -3.9857 -1.6187 0.9821
-1.2553 -4.0332 -1.6187 0.9821
-0.9639 -4.1126 -1.6187 0.9821
-0.8162 -4.1444 -1.6187 0.9821
-0.6675 -4.1709 -1.6187 0.9821
-0.5180 -4.1921 -1.6187 0.9821
-0.3678 -4.2079 -1.6187 0.9821
0.0848 -4.2231 -1.6187 0.9821
0.6859 -4.1679 -1.6187 0.9821
0.9820 -4.1082 -1.6187 0.9821
1.8341 -3.8050 -1.6187 0.9821
-1.8282 -3.5072 -1.6187 0.9831
-1.3096 -3.7320 -1.6187 0.9831
-1.1754 -3.7764 -1.6187 0.9831
-1.0396 -3.8160 -1.6187 0.9831
-0.9025 -3.8507 -1.6187 0.9831
-0.4850 -3.9252 -1.6187 0.9831
-0.3444 -3.9400 -1.6187 0.9831
-0.2033 -3.9498 -1.6187 0.9831
-0.0620 -3.9546 -1.6187 0.9831
0.3618 -3.9385 -1.6187 0.9831
0.5023 -3.9230 -1.6187 0.9831
0.6423 -3.9025 -1.6187 0.9831
0.9195 -3.8467 -1.6187 0.9831
1.1920 -3.7711 -1.6187 0.9831
1.4584 -3.6763 -1.6187 0.9831
-1.7169 -3.2936 -1.6187 0.9839
-1.5980 -3.3529 -1.6187 0.9839
-1.4771 -3.4079 -1.6187 0.9839
-1.3543 -3.4585 -1.6187 0.9839
-1.2298 -3.5047 -1.6187 0.9839
-1.1038 -3.5464 -1.6187 0.9839
-0.5870 -3.6675 -1.6187 0.9839
-0.4555 -3.6862 -1.6187 0.9839
-0.3234 -3.7001 -1.6187 0.9839
-0.1909 -3.7093 -1.6187 0.9839
0.0746 -3.7134 -1.6187 0.9839
0.2073 -3.7084 -1.6187 0.9839
0.3397 -3.6986 -1.6187 0.9839
0.4717 -3.6841 -1.6187 0.9839
0.8635 -3.6124 -1.6187 0.9839
0.9921 -3.5792 -1.6187 0.9839
1.1194 -3.5415 -1.6187 0.9839
1.2453 -3.4992 -1.6187 0.9839
1.3696 -3.4524 -1.6187 0.9839
1.7313 -3.2860 -1.6187 0.9839
-1.7263 -3.0412 -1.6187 0.9847
-1.6165 -3.1010 -1.6187 0.9847
-1.5045 -3.1568 -1.6187 0.9847
-1.2752 -3.2562 -1.6187 0.9847
-1.1579 -3.2997 -1.6187 0.9847
-1.0392 -3.3390 -1.6187 0.9847
-0.9192 -3.3740 -1.6187 0.9847
-0.7979 -3.4047 -1.6187 0.9847
-0.5526 -3.4531 -1.6187 0.9847
-0.1798 -3.4924 -1.6187 0.9847
-0.0548 -3.4966 -1.6187 0.9847
0.1952 -3.4915 -1.6187 0.9847
0.4442 -3.4687 -1.6187 0.9847
0.6909 -3.4280 -1.6187 0.9847
1.0540 -3.3344 -1.6187 0.9847
1.1725 -3.2946 -1.6187 0.9847
1.2895 -3.2505 -1.6187 0.9847
1.6301 -3.0938 -1.6187 0.9847
-1.6290 -2.8699 -1.6187 0.9854
-1.5254 -2.9263 -1.6187 0.9854
-1.4198 -2.9789 -1.6187 0.9854
-1.3124 -3.0278 -1.6187 0.9854
-0.8674 -3.1839 -1.6187 0.9854
-0.5215 -3.2585 -1.6187 0.9854
-0.0517 -3.2995 -1.6187 0.9854
0.0663 -3.2993 -1.6187 0.9854
0.4191 -3.2732 -1.6187 0.9854
0.6519 -3.2349 -1.6187 0.9854
0.7672 -3.2095 -1.6187 0.9854
0.8814 -3.1800 -1.6187 0.9854
0.9946 -3.1465 -1.6187 0.9854
1.1064 -3.1089 -1.6187 0.9854
1.3257 -3.0219 -1.6187 0.9854
1.4329 -2.9726 -1.6187 0.9854
1.5383 -2.9195 -1.6187 0.9854
-1.5403 -2.7136 -1.6187 0.9860
-1.1378 -2.9054 -1.6187 0.9860
-1.0331 -2.9442 -1.6187 0.9860
-0.4931 -3.0810 -1.6187 0.9860
-0.2717 -3.1084 -1.6187 0.9860
-0.0489 -3.1198 -1.6187 0.9860
0.1742 -3.1154 -1.6187 0.9860
0.2854 -3.1071 -1.6187 0.9860
0.3963 -3.0949 -1.6187 0.9860
0.6164 -3.0587 -1.6187 0.9860
0.7254 -3.0347 -1.6187 0.9860
0.8334 -3.0069 -1.6187 0.9860
0.9404 -2.9751 -1.6187 0.9860
1.1506 -2.9003 -1.6187 0.9860
1.2535 -2.8574 -1.6187 0.9860
-0.8783 -2.8219 -1.6187 0.9866
-0.7768 -2.8515 -1.6187 0.9866
-0.6744 -2.8775 -1.6187 0.9866
-0.5711 -2.8998 -1.6187 0.9866
0.0594 -2.9548 -1.6187 0.9866
0.1650 -2.9508 -1.6187 0.9866
0.2703 -2.9430 -1.6187 0.9866
0.4800 -2.9162 -1.6187 0.9866
0.5839 -2.8972 -1.6187 0.9866
0.6871 -2.8745 -1.6187 0.9866
0.7894 -2.8481 -1.6187 0.9866
0.9909 -2.7844 -1.6187 0.9866
1.0898 -2.7471 -1.6187 0.9866
1.1873 -2.7064 -1.6187 0.9866
1.3777 -2.6147 -1.6187 0.9866
-1.3840 -2.4383 -1.6187 0.9871
-0.9283 -2.6455 -1.6187 0.9871
-0.7370 -2.7051 -1.6187 0.9871
-0.3438 -2.7825 -1.6187 0.9871
-0.2442 -2.7930 -1.6187 0.9871
-0.0439 -2.8033 -1.6187 0.9871
0.7489 -2.7018 -1.6187 0.9871
0.8450 -2.6733 -1.6187 0.9871
1.1263 -2.5675 -1.6187 0.9871
1.3069 -2.4804 -1.6187 0.9871
