ply
format ascii 1.0
element vertex 422
property float32 x
property float32 y
property float32 z
property float32 I
end_header
-21.7447 -38.1471 7.7424 0.8367
-18.7447 -39.1211 7.6491 0.8385
-14.9884 -42.3805 7.9264 0.8331
-11.8776 -43.1392 7.8897 0.8338
-3.7752 -15.9050 2.8825 0.9358
-8.3688 -41.8399 7.5236 0.8409
-6.9180 -42.3862 7.5727 0.8399
-5.4101 -42.6568 7.5818 0.8398
-2.3899 -43.4906 7.6801 0.8379
-0.8471 -43.9621 7.7531 0.8364
-32.8802 -36.6036 7.5376 0.8195
-15.6987 -39.8162 6.5566 0.8410
-13.4018 -42.6728 6.8520 0.8344
-11.9032 -43.2323 6.8694 0.8341
0.7436 -45.4350 6.9613 0.8320
-20.1563 -38.4856 5.6574 0.8393
-18.6407 -38.9041 5.6176 0.8403
-17.1229 -39.2680 5.5785 0.8413
-11.2576 -40.8873 5.5225 0.8428
-3.7745 -15.9021 2.1285 0.9362
-3.9008 -42.9735 5.6190 0.8402
-2.3830 -43.3664 5.6557 0.8393
-0.8462 -43.9167 5.7199 0.8376
3.9585 -45.0607 5.8904 0.8332
-12.0090 -25.0633 2.9843 0.8942
-11.2972 -41.0313 4.5700 0.8426
-3.7739 -15.8997 1.7548 0.9364
-8.3688 -41.8397 4.5818 0.8423
-5.4099 -42.6556 4.6171 0.8412
-3.9038 -43.0057 4.6370 0.8405
-0.8490 -44.0605 4.7322 0.8375
-12.5070 -26.1027 2.4502 0.8903
-17.1616 -39.3568 3.6346 0.8417
-14.2075 -40.1724 3.6071 0.8428
-12.7435 -40.5766 3.6003 0.8430
-3.7732 -15.8967 1.3831 0.9365
-6.8863 -42.1925 3.6190 0.8423
-5.4032 -42.6020 3.6353 0.8417
-2.3840 -43.3837 3.6781 0.8399
-0.8438 -43.7931 3.7079 0.8388
3.9585 -45.0607 3.8292 0.8339
-25.3239 -22.7561 2.1112 0.8725
-18.7022 -39.0325 2.6839 0.8408
-17.1832 -39.4063 2.6658 0.8417
-3.7725 -15.8938 1.0130 0.9366
-6.9021 -42.2892 2.6571 0.8422
-2.3898 -43.4894 2.7009 0.8398
5.6404 -45.5308 2.8450 0.8320
-20.2686 -38.7002 1.7226 0.8396
-17.1832 -39.4063 1.6951 0.8419
-15.6987 -39.8161 1.6876 0.8425
-11.2972 -41.0312 1.6781 0.8434
-3.7718 -15.8908 0.6440 0.9367
-8.3688 -41.8397 1.6825 0.8430
-5.4100 -42.6555 1.6954 0.8419
-3.9096 -43.0698 1.7053 0.8410
-0.8489 -44.0605 1.7377 0.8383
5.6404 -45.5308 1.8091 0.8322
-20.2519 -38.6682 0.7373 0.8398
-18.7022 -39.0325 0.7311 0.8410
-13.3002 -37.6068 0.6738 0.8525
-8.3688 -41.8397 0.7208 0.8431
-2.3898 -43.4893 0.7357 0.8401
3.9585 -45.0607 0.7641 0.8345
-35.3245 -34.0938 -0.2764 0.8217
-18.7446 -39.1210 -0.2442 0.8407
-17.1832 -39.4063 -0.2420 0.8420
-8.3688 -41.8397 -0.2402 0.8431
-6.9177 -42.3850 -0.2418 0.8422
-5.4062 -42.6256 -0.2419 0.8421
-3.9038 -43.0056 -0.2431 0.8414
-2.3898 -43.4893 -0.2452 0.8401
5.6404 -45.5308 -0.2583 0.8323
-28.1059 -36.1689 -1.2898 0.8325
-15.6986 -39.8161 -1.2051 0.8426
-11.2972 -41.0312 -1.1983 0.8434
-3.7703 -15.8846 -0.4597 0.9368
-2.1881 -13.4063 -0.3825 0.9471
-1.6835 -13.2741 -0.3768 0.9479
-1.2018 -13.2390 -0.3743 0.9482
-21.5147 -19.3331 -1.4669 0.8906
-20.8120 -20.0869 -1.4669 0.8906
-20.0829 -20.8153 -1.4669 0.8906
-17.0374 -23.6157 -1.4768 0.8899
-7.9121 -13.8804 -0.8103 0.9380
-5.5499 -14.0761 -0.7673 0.9412
-2.8539 -14.2679 -0.7379 0.9434
-1.6635 -13.1161 -0.6705 0.9484
-0.2752 -14.2838 -0.7245 0.9444
1.5438 -29.6507 -1.5057 0.8879
2.5958 -29.5488 -1.5043 0.8880
-16.4253 -14.7598 -1.6191 0.9152
-15.8889 -15.3354 -1.6191 0.9152
-11.7027 -16.2212 -1.4666 0.9229
-9.4047 -14.0661 -1.2407 0.9344
-8.6170 -13.9383 -1.2015 0.9364
-7.9121 -13.8804 -1.1715 0.9379
-7.2392 -13.8223 -1.1441 0.9393
-5.5107 -13.9765 -1.1016 0.9415
-6.6684 -18.8553 -1.4664 0.9229
-4.3306 -13.7890 -1.0597 0.9437
-3.7370 -13.5727 -1.0322 0.9451
-3.1860 -13.4227 -1.0115 0.9462
-2.6584 -13.2904 -0.9938 0.9471
-0.2435 -12.6352 -0.9266 0.9506
1.0392 -19.9694 -1.4662 0.9229
1.7499 -19.9194 -1.4662 0.9229
-11.7090 -12.1360 -1.6190 0.9345
-10.8150 -12.9387 -1.6190 0.9345
-9.3726 -14.0182 -1.6189 0.9345
-8.3506 -14.6497 -1.6189 0.9345
-6.5976 -13.7696 -1.4659 0.9405
-6.1637 -15.6329 -1.6133 0.9347
-5.5462 -15.6822 -1.5970 0.9353
-4.8966 -15.5914 -1.5689 0.9364
-3.7433 -13.5955 -1.3538 0.9449
-3.2063 -13.5084 -1.3329 0.9457
-2.1594 -13.2310 -1.2870 0.9476
-1.6615 -13.1006 -1.2678 0.9483
-1.1738 -12.9310 -1.2466 0.9492
-0.2444 -12.6833 -1.2179 0.9503
1.3365 -15.2133 -1.4662 0.9405
1.8775 -15.1559 -1.4662 0.9405
-9.8065 -9.4649 -1.6189 0.9466
-9.4630 -9.8081 -1.6189 0.9466
-9.1076 -10.1389 -1.6189 0.9466
-8.3624 -10.7615 -1.6189 0.9466
-7.1664 -11.5920 -1.6189 0.9466
-6.7489 -11.8398 -1.6188 0.9466
-5.8887 -12.2900 -1.6188 0.9466
-5.4471 -12.4919 -1.6188 0.9466
-4.0832 -13.0014 -1.6188 0.9466
-3.6174 -13.1385 -1.6187 0.9466
-2.1950 -13.4490 -1.6187 0.9466
-1.7145 -13.5186 -1.6187 0.9466
-0.7026 -12.7855 -1.5210 0.9497
-0.2625 -13.6239 -1.6186 0.9466
0.2230 -13.6245 -1.6186 0.9466
1.1924 -13.5738 -1.6186 0.9466
-7.9332 -8.2225 -1.6189 0.9549
-7.3275 -8.7663 -1.6189 0.9549
-6.3503 -9.4978 -1.6188 0.9549
-6.0079 -9.7179 -1.6188 0.9549
-5.6579 -9.9257 -1.6188 0.9549
-5.3006 -10.1209 -1.6188 0.9549
-4.9367 -10.3032 -1.6188 0.9549
-4.5665 -10.4725 -1.6188 0.9549
-4.1906 -10.6284 -1.6188 0.9549
-3.0326 -11.0146 -1.6187 0.9549
-2.6383 -11.1155 -1.6187 0.9549
-1.0327 -11.3772 -1.6187 0.9549
-0.2201 -11.4217 -1.6186 0.9549
0.9997 -11.3797 -1.6186 0.9549
1.4044 -11.3368 -1.6186 0.9549
-6.8230 -7.0719 -1.6188 0.9609
-6.5667 -7.3104 -1.6188 0.9609
-5.4617 -8.1688 -1.6188 0.9609
-4.8662 -8.5368 -1.6188 0.9609
-4.5589 -8.7047 -1.6188 0.9609
-3.9275 -9.0071 -1.6188 0.9609
-2.9442 -9.3745 -1.6187 0.9609
-2.6083 -9.4734 -1.6187 0.9609
-2.2692 -9.5602 -1.6187 0.9609
-1.9272 -9.6349 -1.6187 0.9610
-1.5827 -9.6974 -1.6187 0.9610
-1.2363 -9.7475 -1.6187 0.9610
-0.5391 -9.8107 -1.6186 0.9610
0.5106 -9.8120 -1.6186 0.9610
0.8598 -9.7875 -1.6186 0.9610
1.2079 -9.7506 -1.6186 0.9610
-5.9800 -6.1980 -1.6188 0.9656
-5.7554 -6.4071 -1.6188 0.9656
-5.2845 -6.8006 -1.6188 0.9656
-3.9957 -7.6292 -1.6188 0.9656
-3.7214 -7.7667 -1.6187 0.9656
-3.1589 -8.0118 -1.6187 0.9656
-2.8715 -8.1192 -1.6187 0.9656
-2.2861 -8.3029 -1.6187 0.9656
-1.6891 -8.4445 -1.6187 0.9656
-1.0835 -8.5433 -1.6187 0.9656
0.1409 -8.6104 -1.6186 0.9656
-5.6963 -5.1188 -1.6188 0.9692
-5.1176 -5.6972 -1.6188 0.9692
-4.0270 -6.5138 -1.6188 0.9692
-3.5530 -6.7839 -1.6187 0.9692
-3.3090 -6.9061 -1.6187 0.9692
-2.8089 -7.1241 -1.6187 0.9692
-1.7685 -7.4507 -1.6187 0.9692
-1.5019 -7.5089 -1.6187 0.9692
-0.6922 -7.6262 -1.6187 0.9692
-0.4201 -7.6460 -1.6186 0.9692
-0.1475 -7.6560 -1.6186 0.9692
0.3979 -7.6470 -1.6186 0.9692
-5.1232 -4.6037 -1.6188 0.9721
-4.9559 -4.7833 -1.6188 0.9721
-4.2262 -5.4387 -1.6188 0.9721
-4.0298 -5.5858 -1.6188 0.9721
-3.8283 -5.7257 -1.6188 0.9721
-3.4108 -5.9837 -1.6187 0.9721
-2.9761 -6.2113 -1.6187 0.9721
-2.5263 -6.4074 -1.6187 0.9721
-2.0637 -6.5710 -1.6187 0.9721
-1.8283 -6.6403 -1.6187 0.9721
-1.5906 -6.7011 -1.6187 0.9721
-1.3508 -6.7535 -1.6187 0.9721
-0.8665 -6.8325 -1.6187 0.9721
-0.6226 -6.8590 -1.6186 0.9721
-0.3779 -6.8768 -1.6186 0.9721
0.1127 -6.8862 -1.6186 0.9721
0.6027 -6.8606 -1.6186 0.9721
0.8467 -6.8347 -1.6186 0.9721
-4.4986 -4.3419 -1.6188 0.9745
-4.3410 -4.4993 -1.6188 0.9745
-3.6579 -5.0702 -1.6187 0.9745
-3.0960 -5.4315 -1.6187 0.9745
-2.7014 -5.6381 -1.6187 0.9745
-2.4989 -5.7307 -1.6187 0.9745
-1.8732 -5.9645 -1.6187 0.9745
-1.4438 -6.0827 -1.6187 0.9745
-1.0070 -6.1700 -1.6187 0.9745
-0.7866 -6.2020 -1.6187 0.9745
-0.5652 -6.2260 -1.6186 0.9745
-0.3430 -6.2422 -1.6186 0.9745
0.1023 -6.2507 -1.6186 0.9745
0.5471 -6.2275 -1.6186 0.9745
0.7686 -6.2040 -1.6186 0.9745
-3.8212 -4.2539 -1.6188 0.9765
-3.3455 -4.6372 -1.6187 0.9765
-3.1781 -4.7534 -1.6187 0.9765
-3.0068 -4.8636 -1.6187 0.9765
-2.4708 -5.1566 -1.6187 0.9765
-2.0973 -5.3194 -1.6187 0.9765
-1.7133 -5.4552 -1.6187 0.9765
-1.5178 -5.5127 -1.6187 0.9765
-1.3205 -5.5633 -1.6187 0.9765
-1.1214 -5.6068 -1.6187 0.9765
-0.9210 -5.6431 -1.6187 0.9765
-0.5169 -5.6943 -1.6186 0.9765
-0.1102 -5.7166 -1.6186 0.9765
0.0936 -5.7169 -1.6186 0.9765
0.5003 -5.6957 -1.6186 0.9765
-3.9146 -3.5177 -1.6188 0.9782
-3.3752 -4.0380 -1.6187 0.9782
-3.2292 -4.1557 -1.6187 0.9782
-2.7674 -4.4764 -1.6187 0.9782
-2.6062 -4.5721 -1.6187 0.9782
-2.2741 -4.7461 -1.6187 0.9782
-2.1036 -4.8240 -1.6187 0.9782
-1.2154 -5.1204 -1.6187 0.9782
-1.0322 -5.1604 -1.6187 0.9782
-0.8477 -5.1939 -1.6187 0.9782
-0.6621 -5.2208 -1.6187 0.9782
-0.4757 -5.2410 -1.6186 0.9782
-0.2887 -5.2546 -1.6186 0.9782
-0.1014 -5.2615 -1.6186 0.9782
0.2735 -5.2554 -1.6186 0.9782
-3.6222 -3.2549 -1.6187 0.9797
-3.1231 -3.7364 -1.6187 0.9797
-2.8492 -3.9492 -1.6187 0.9797
-2.5607 -4.1421 -1.6187 0.9797
-2.1042 -4.3916 -1.6187 0.9797
-1.9464 -4.4637 -1.6187 0.9797
-1.7862 -4.5302 -1.6187 0.9797
-1.6236 -4.5910 -1.6187 0.9797
-1.4591 -4.6459 -1.6187 0.9797
-0.9551 -4.7750 -1.6187 0.9797
-0.7844 -4.8060 -1.6187 0.9797
-0.0938 -4.8686 -1.6186 0.9797
0.0797 -4.8688 -1.6186 0.9797
0.4261 -4.8507 -1.6186 0.9797
0.5986 -4.8325 -1.6186 0.9797
-3.3669 -3.0255 -1.6187 0.9810
-3.2570 -3.1436 -1.6187 0.9810
-2.7775 -3.5742 -1.6187 0.9810
-2.6484 -3.6709 -1.6187 0.9810
-2.5159 -3.7629 -1.6187 0.9810
-2.1001 -4.0098 -1.6187 0.9810
-1.9559 -4.0821 -1.6187 0.9810
-1.8092 -4.1492 -1.6187 0.9810
-1.6603 -4.2109 -1.6187 0.9810
-1.2015 -4.3640 -1.6187 0.9810
-1.0453 -4.4040 -1.6187 0.9810
-0.8878 -4.4384 -1.6187 0.9810
-0.7291 -4.4673 -1.6187 0.9810
-0.0872 -4.5255 -1.6186 0.9810
0.0741 -4.5257 -1.6186 0.9810
0.3961 -4.5089 -1.6186 0.9810
-3.1419 -2.8233 -1.6187 0.9821
-2.7090 -3.2409 -1.6187 0.9821
-2.5918 -3.3354 -1.6187 0.9821
-2.4713 -3.4256 -1.6187 0.9821
-2.3477 -3.5114 -1.6187 0.9821
-2.2212 -3.5928 -1.6187 0.9821
-1.9597 -3.7418 -1.6187 0.9821
-1.8252 -3.8093 -1.6187 0.9821
-1.6883 -3.8719 -1.6187 0.9821
-1.5493 -3.9295 -1.6187 0.9821
-1.4083 -3.9822 -1.6187 0.9821
-0.6804 -4.1687 -1.6187 0.9821
-0.5315 -4.1903 -1.6186 0.9821
-0.3818 -4.2065 -1.6186 0.9821
-0.2317 -4.2175 -1.6186 0.9821
-0.0814 -4.2230 -1.6186 0.9821
0.0691 -4.2232 -1.6186 0.9821
-2.9419 -2.6436 -1.6187 0.9831
-2.7462 -2.8463 -1.6187 0.9831
-2.4268 -3.1230 -1.6187 0.9831
-2.1983 -3.2879 -1.6187 0.9831
-1.9586 -3.4360 -1.6187 0.9831
-1.8350 -3.5036 -1.6187 0.9831
-1.4507 -3.6793 -1.6187 0.9831
-1.1850 -3.7733 -1.6187 0.9831
-0.7757 -3.8781 -1.6187 0.9831
-0.6371 -3.9033 -1.6187 0.9831
-0.3575 -3.9387 -1.6186 0.9831
-0.2170 -3.9489 -1.6186 0.9831
-0.0762 -3.9542 -1.6186 0.9831
0.0647 -3.9543 -1.6186 0.9831
0.2055 -3.9495 -1.6186 0.9831
0.3461 -3.9397 -1.6186 0.9831
0.4862 -3.9249 -1.6186 0.9831
-2.7627 -2.4826 -1.6187 0.9839
-2.5789 -2.6730 -1.6187 0.9839
-2.3820 -2.8498 -1.6187 0.9839
-2.2790 -2.9328 -1.6187 0.9839
-2.0644 -3.0876 -1.6187 0.9839
-1.9531 -3.1592 -1.6187 0.9839
-1.8393 -3.2268 -1.6187 0.9839
-1.4845 -3.4045 -1.6187 0.9839
-0.9859 -3.5808 -1.6187 0.9839
-0.0716 -3.7133 -1.6186 0.9839
0.0608 -3.7135 -1.6186 0.9839
0.3250 -3.6998 -1.6186 0.9839
-2.6011 -2.3374 -1.6187 0.9847
-2.2427 -2.6831 -1.6187 0.9847
-2.1457 -2.7613 -1.6187 0.9847
-2.0460 -2.8360 -1.6187 0.9847
-1.8389 -2.9745 -1.6187 0.9847
-1.7317 -3.0381 -1.6187 0.9847
-1.6224 -3.0978 -1.6187 0.9847
-1.5111 -3.1536 -1.6187 0.9847
-1.3977 -3.2054 -1.6187 0.9847
-1.2827 -3.2532 -1.6187 0.9847
-1.1660 -3.2968 -1.6187 0.9847
-0.8076 -3.4024 -1.6187 0.9847
-0.4400 -3.4691 -1.6186 0.9847
-0.3161 -3.4825 -1.6186 0.9847
-0.1919 -3.4916 -1.6186 0.9847
-0.0674 -3.4962 -1.6186 0.9847
0.0572 -3.4964 -1.6186 0.9847
0.1817 -3.4921 -1.6186 0.9847
0.3060 -3.4834 -1.6186 0.9847
-2.3744 -2.2917 -1.6187 0.9854
-2.0248 -2.6057 -1.6187 0.9854
-1.8341 -2.7433 -1.6187 0.9854
-1.5310 -2.9233 -1.6187 0.9854
-1.4259 -2.9759 -1.6187 0.9854
-1.3190 -3.0248 -1.6187 0.9854
-1.2104 -3.0699 -1.6187 0.9854
-1.1003 -3.1111 -1.6187 0.9854
-0.9887 -3.1483 -1.6187 0.9854
-0.8760 -3.1815 -1.6187 0.9854
-0.7621 -3.2107 -1.6187 0.9854
-0.5315 -3.2568 -1.6186 0.9854
-0.4152 -3.2736 -1.6186 0.9854
-0.0636 -3.2992 -1.6186 0.9854
0.0540 -3.2994 -1.6186 0.9854
0.1715 -3.2954 -1.6186 0.9854
0.2888 -3.2871 -1.6186 0.9854
0.4057 -3.2748 -1.6186 0.9854
-2.3209 -2.0855 -1.6187 0.9860
-2.2451 -2.1669 -1.6187 0.9860
-2.1665 -2.2455 -1.6187 0.9860
-2.0011 -2.3940 -1.6187 0.9860
-1.9145 -2.4638 -1.6187 0.9860
-1.7342 -2.5938 -1.6187 0.9860
-1.3482 -2.8138 -1.6187 0.9860
-1.2471 -2.8601 -1.6187 0.9860
-1.1444 -2.9027 -1.6187 0.9860
-1.0403 -2.9416 -1.6187 0.9860
-0.8283 -3.0082 -1.6187 0.9860
-0.5026 -3.0794 -1.6186 0.9860
-0.3926 -3.0953 -1.6186 0.9860
0.0511 -3.1197 -1.6186 0.9860
0.1621 -3.1158 -1.6186 0.9860
-2.1983 -1.9754 -1.6187 0.9866
-2.1265 -2.0524 -1.6187 0.9866
-2.0521 -2.1269 -1.6187 0.9866
-1.8134 -2.3337 -1.6187 0.9866
-1.7291 -2.3968 -1.6187 0.9866
-1.6427 -2.4569 -1.6187 0.9866
-1.4636 -2.5676 -1.6187 0.9866
-1.3712 -2.6181 -1.6187 0.9866
-1.2770 -2.6653 -1.6187 0.9866
-1.0840 -2.7494 -1.6187 0.9866
-0.8855 -2.8196 -1.6187 0.9866
-0.7845 -2.8493 -1.6187 0.9866
-0.6825 -2.8755 -1.6187 0.9866
-0.4760 -2.9168 -1.6186 0.9866
-0.3718 -2.9319 -1.6186 0.9866
-0.2671 -2.9432 -1.6186 0.9866
-0.1621 -2.9509 -1.6186 0.9866
0.0484 -2.9549 -1.6186 0.9866
0.1536 -2.9513 -1.6186 0.9866
0.2586 -2.9440 -1.6186 0.9866
-0.9277 -0.8337 -0.7201 0.9943
-2.0173 -1.9471 -1.6187 0.9871
-1.8736 -2.0857 -1.6187 0.9871
-1.7203 -2.2138 -1.6187 0.9871
-1.5583 -2.3307 -1.6187 0.9871
-1.3884 -2.4357 -1.6187 0.9871
-1.1206 -2.5699 -1.6187 0.9871
-1.0283 -2.6082 -1.6187 0.9871
-0.9348 -2.6432 -1.6187 0.9871
-0.8400 -2.6748 -1.6187 0.9871
-0.6475 -2.7278 -1.6187 0.9871
-0.5499 -2.7491 -1.6187 0.9871
-0.4516 -2.7670 -1.6186 0.9871
-0.3528 -2.7813 -1.6186 0.9871
-0.0540 -2.8031 -1.6186 0.9871
0.1457 -2.7998 -1.6186 0.9871
0.3447 -2.7823 -1.6186 0.9871
