ply
format ascii 1.0
element vertex 366
property float32 x
property float32 y
property float32 z
property float32 I
end_header
30.0125 -10.0218 1.2477 0.8810
30.0125 -10.0218 0.5345 0.8811
30.0125 -10.0218 -0.1781 0.8811
38.7899 25.1856 -0.2604 0.8311
40.2017 28.2055 -0.2765 0.8217
30.0125 -10.0218 -0.8910 0.8811
39.9671 25.9500 -1.3418 0.8264
26.4711 -12.1420 -1.4769 0.8899
26.8560 -11.1692 -1.4751 0.8900
27.5206 -9.1897 -1.4714 0.8903
28.4493 -5.1350 -1.4661 0.8907
28.8914 -1.0078 -1.4661 0.8907
28.9090 0.0305 -1.4661 0.8907
28.8892 1.0689 -1.4661 0.8907
28.7380 3.1401 -1.4661 0.8907
30.9163 6.8036 -1.6054 0.8809
30.9017 7.9741 -1.6185 0.8800
30.5954 9.0789 -1.6185 0.8800
30.2496 10.1720 -1.6185 0.8800
29.8648 11.2520 -1.6185 0.8800
26.1261 18.3301 -1.6185 0.8800
18.4631 -7.6787 -1.4662 0.9229
21.9489 -2.3514 -1.6185 0.9153
22.0191 -1.5615 -1.6185 0.9153
22.0744 0.0233 -1.6185 0.9153
22.0594 0.8162 -1.6185 0.9153
21.9439 2.3977 -1.6185 0.9153
21.7152 3.9669 -1.6186 0.9153
21.5587 4.7443 -1.6186 0.9153
20.6572 7.7829 -1.6186 0.9153
19.7002 9.9599 -1.6186 0.9153
19.3299 10.6611 -1.6186 0.9153
18.9345 11.3485 -1.6186 0.9153
15.3243 -7.0291 -1.6186 0.9345
15.5668 -6.4741 -1.6186 0.9345
15.7893 -5.9108 -1.6186 0.9345
16.4730 -3.5887 -1.6186 0.9345
16.5913 -2.9947 -1.6186 0.9345
16.8594 0.0178 -1.6186 0.9345
16.8146 1.2281 -1.6186 0.9345
16.5850 3.0297 -1.6186 0.9345
16.4655 3.6235 -1.6186 0.9345
16.3247 4.2126 -1.6186 0.9345
15.7769 5.9442 -1.6186 0.9345
15.3095 7.0615 -1.6186 0.9345
15.0460 7.6068 -1.6186 0.9345
13.4450 10.1728 -1.6186 0.9345
12.3855 -5.6811 -1.6186 0.9466
12.5816 -5.2326 -1.6186 0.9466
12.9247 -4.3158 -1.6186 0.9466
13.0714 -3.8488 -1.6186 0.9466
13.4878 -1.9372 -1.6186 0.9466
13.5487 -1.4515 -1.6186 0.9466
13.6180 -0.4750 -1.6186 0.9466
13.6263 0.0144 -1.6186 0.9466
13.4838 1.9657 -1.6186 0.9466
13.0633 3.8764 -1.6186 0.9466
12.9157 4.3431 -1.6186 0.9466
12.7514 4.8043 -1.6186 0.9466
12.5706 5.2592 -1.6186 0.9466
12.3736 5.7073 -1.6186 0.9466
11.9320 6.5809 -1.6186 0.9466
11.6879 7.0052 -1.6186 0.9466
11.4288 7.4205 -1.6186 0.9466
10.8666 8.2219 -1.6186 0.9466
10.5480 -4.3868 -1.6186 0.9549
10.9586 -3.2267 -1.6186 0.9549
11.1620 -2.4317 -1.6186 0.9549
11.2421 -2.0292 -1.6186 0.9549
11.3588 -1.2169 -1.6186 0.9549
11.3952 -0.8081 -1.6186 0.9549
11.4160 0.4224 -1.6186 0.9549
11.3934 0.8322 -1.6186 0.9549
11.3562 1.2408 -1.6186 0.9549
11.3043 1.6479 -1.6186 0.9549
11.2378 2.0529 -1.6186 0.9549
11.1569 2.4552 -1.6186 0.9549
10.9518 3.2498 -1.6186 0.9549
10.8280 3.6411 -1.6186 0.9549
10.6903 4.0277 -1.6186 0.9549
10.5387 4.4091 -1.6186 0.9549
10.0033 5.5172 -1.6186 0.9549
9.5814 6.2211 -1.6186 0.9549
9.1102 6.8929 -1.6186 0.9549
9.0722 -3.7730 -1.6186 0.9610
9.2018 -3.4448 -1.6186 0.9610
9.3196 -3.1120 -1.6186 0.9610
9.5190 -2.4349 -1.6186 0.9610
9.8255 0.0104 -1.6186 0.9610
9.8188 0.3633 -1.6186 0.9610
9.7994 0.7157 -1.6186 0.9610
9.7227 1.4174 -1.6186 0.9610
9.5959 2.1117 -1.6186 0.9610
9.3130 3.1317 -1.6186 0.9610
9.1946 3.4642 -1.6186 0.9610
9.0642 3.7922 -1.6186 0.9610
8.9222 4.1153 -1.6186 0.9610
8.4277 5.0512 -1.6187 0.9610
8.2409 5.3507 -1.6187 0.9610
8.0434 5.6432 -1.6187 0.9610
7.8355 5.9285 -1.6187 0.9610
7.8275 -3.5904 -1.6186 0.9656
7.9514 -3.3069 -1.6186 0.9656
8.0650 -3.0192 -1.6186 0.9656
8.1683 -2.7275 -1.6186 0.9656
8.3430 -2.1341 -1.6186 0.9656
8.4142 -1.8331 -1.6186 0.9656
8.4747 -1.5296 -1.6186 0.9656
8.5242 -1.2243 -1.6186 0.9656
8.5900 -0.6091 -1.6186 0.9656
8.6116 0.0091 -1.6186 0.9656
8.5888 0.6273 -1.6186 0.9656
8.5607 0.9354 -1.6186 0.9656
8.5216 1.2423 -1.6186 0.9656
8.4715 1.5475 -1.6186 0.9656
8.4104 1.8508 -1.6186 0.9656
8.3385 2.1517 -1.6187 0.9656
8.2558 2.4499 -1.6187 0.9656
8.1625 2.7448 -1.6187 0.9656
8.0587 3.0362 -1.6187 0.9656
7.9444 3.3237 -1.6187 0.9656
7.5408 4.1590 -1.6187 0.9656
7.2228 4.6896 -1.6187 0.9656
7.0497 4.9461 -1.6187 0.9656
7.0705 -2.9405 -1.6187 0.9692
7.1715 -2.6847 -1.6187 0.9692
7.3457 -2.1629 -1.6187 0.9692
7.4187 -1.8977 -1.6187 0.9692
7.5798 -1.0886 -1.6187 0.9692
7.6529 -0.2670 -1.6187 0.9692
7.6575 0.0081 -1.6187 0.9692
7.6372 0.5578 -1.6187 0.9692
7.5775 1.1046 -1.6187 0.9692
7.5329 1.3761 -1.6187 0.9692
7.4786 1.6458 -1.6187 0.9692
7.3412 2.1784 -1.6187 0.9692
7.1659 2.6998 -1.6187 0.9692
6.7054 3.6982 -1.6187 0.9692
6.5682 3.9367 -1.6187 0.9692
6.2687 4.3981 -1.6187 0.9692
6.1066 4.6204 -1.6187 0.9692
6.3592 -2.6447 -1.6187 0.9721
6.4501 -2.4146 -1.6187 0.9721
6.5327 -2.1814 -1.6187 0.9721
6.6724 -1.7068 -1.6187 0.9721
6.7294 -1.4660 -1.6187 0.9721
6.8173 -0.9791 -1.6187 0.9721
6.8700 -0.4872 -1.6187 0.9721
6.8872 0.0073 -1.6187 0.9721
6.8825 0.2546 -1.6187 0.9721
6.8689 0.5017 -1.6187 0.9721
6.8465 0.7481 -1.6187 0.9721
6.4450 2.4282 -1.6187 0.9721
6.0308 3.3262 -1.6187 0.9721
5.9075 3.5407 -1.6187 0.9721
5.6380 3.9557 -1.6187 0.9721
5.4923 4.1556 -1.6187 0.9721
6.1084 -1.3307 -1.6187 0.9745
6.2360 -0.4422 -1.6187 0.9745
6.2474 0.2312 -1.6187 0.9745
6.2147 0.6791 -1.6187 0.9745
6.1863 0.9018 -1.6187 0.9745
5.8502 2.2042 -1.6187 0.9745
5.7673 2.4129 -1.6187 0.9745
5.6769 2.6185 -1.6187 0.9745
5.3623 3.2139 -1.6187 0.9745
5.2434 3.4045 -1.6187 0.9745
5.3549 -2.0046 -1.6187 0.9765
5.5394 -1.4170 -1.6187 0.9765
5.6269 -1.0156 -1.6187 0.9765
5.6597 -0.8129 -1.6187 0.9765
5.6853 -0.6090 -1.6187 0.9765
5.7035 -0.4045 -1.6187 0.9765
5.7143 -0.1993 -1.6187 0.9765
5.7178 0.0060 -1.6187 0.9765
5.6840 0.6211 -1.6187 0.9765
5.5842 1.2289 -1.6187 0.9765
5.4196 1.8225 -1.6187 0.9765
5.3506 2.0159 -1.6187 0.9765
5.1028 2.5798 -1.6187 0.9765
4.9044 2.9395 -1.6187 0.9765
4.6807 3.2840 -1.6187 0.9765
4.7834 -2.1941 -1.6187 0.9782
4.9286 -1.8450 -1.6187 0.9782
5.0985 -1.3042 -1.6187 0.9782
5.1420 -1.1202 -1.6187 0.9782
5.1789 -0.9348 -1.6187 0.9782
5.2092 -0.7482 -1.6187 0.9782
5.2495 -0.3722 -1.6187 0.9782
5.2594 -0.1835 -1.6187 0.9782
5.2626 0.0056 -1.6187 0.9782
5.1770 0.9457 -1.6187 0.9782
5.1397 1.1311 -1.6187 0.9782
5.0452 1.4971 -1.6187 0.9782
4.9882 1.6774 -1.6187 0.9782
4.9247 1.8555 -1.6187 0.9782
4.6966 2.3744 -1.6187 0.9782
4.5140 2.7055 -1.6187 0.9782
4.3081 3.0226 -1.6187 0.9782
4.4262 -2.0302 -1.6187 0.9797
4.5605 -1.7072 -1.6187 0.9797
4.7177 -1.2068 -1.6187 0.9797
4.8419 -0.5187 -1.6187 0.9797
4.8574 -0.3445 -1.6187 0.9797
4.8663 0.1801 -1.6187 0.9797
4.8408 0.5289 -1.6187 0.9797
4.7558 1.0466 -1.6187 0.9797
4.7151 1.2167 -1.6187 0.9797
4.6684 1.3853 -1.6187 0.9797
4.6156 1.5521 -1.6187 0.9797
4.3458 2.1971 -1.6187 0.9797
4.2641 2.3518 -1.6187 0.9797
4.1768 2.5034 -1.6187 0.9797
3.9863 2.7968 -1.6187 0.9797
3.8833 2.9382 -1.6187 0.9797
4.1142 -1.8871 -1.6187 0.9810
4.2391 -1.5869 -1.6187 0.9810
4.2934 -1.4337 -1.6187 0.9810
4.3852 -1.1217 -1.6187 0.9810
4.4227 -0.9635 -1.6187 0.9810
4.4544 -0.8040 -1.6187 0.9810
4.4804 -0.6435 -1.6187 0.9810
4.5007 -0.4821 -1.6187 0.9810
4.5151 -0.3202 -1.6187 0.9810
4.5264 0.0048 -1.6187 0.9810
4.5233 0.1674 -1.6187 0.9810
4.5144 0.3297 -1.6187 0.9810
4.4791 0.6530 -1.6187 0.9810
4.3829 1.1310 -1.6187 0.9810
4.3394 1.2877 -1.6187 0.9810
4.1757 1.7470 -1.6187 0.9810
3.9636 2.1861 -1.6187 0.9810
3.7054 2.5997 -1.6187 0.9810
3.9001 -1.6220 -1.6187 0.9821
4.0519 -1.1931 -1.6187 0.9821
4.0922 -1.0467 -1.6187 0.9821
4.1271 -0.8991 -1.6187 0.9821
4.1567 -0.7503 -1.6187 0.9821
4.1810 -0.6005 -1.6187 0.9821
4.1999 -0.4499 -1.6187 0.9821
4.2133 -0.2988 -1.6187 0.9821
4.2239 0.0045 -1.6187 0.9821
4.1989 0.4588 -1.6187 0.9821
4.0494 1.2016 -1.6187 0.9821
3.9527 1.4892 -1.6187 0.9821
3.8356 1.7692 -1.6187 0.9821
3.6987 2.0400 -1.6187 0.9821
3.4578 2.4260 -1.6187 0.9821
3.3684 2.5486 -1.6187 0.9821
3.8921 -0.7025 -1.6187 0.9831
3.9148 -0.5623 -1.6187 0.9831
3.9451 -0.2797 -1.6187 0.9831
3.9526 -0.1379 -1.6187 0.9831
3.9550 0.0042 -1.6187 0.9831
3.9445 0.2881 -1.6187 0.9831
3.9316 0.4296 -1.6187 0.9831
3.8906 0.7107 -1.6187 0.9831
3.8626 0.8500 -1.6187 0.9831
3.7487 1.2606 -1.6187 0.9831
3.7010 1.3944 -1.6187 0.9831
3.5914 1.6565 -1.6187 0.9831
3.2376 2.2715 -1.6187 0.9831
3.4294 -1.4262 -1.6187 0.9839
3.4784 -1.3022 -1.6187 0.9839
3.5229 -1.1764 -1.6187 0.9839
3.5983 -0.9204 -1.6187 0.9839
3.6290 -0.7906 -1.6187 0.9839
3.7119 -0.1295 -1.6187 0.9839
3.7116 0.1373 -1.6187 0.9839
3.7043 0.2706 -1.6187 0.9839
3.6537 0.6675 -1.6187 0.9839
3.6274 0.7982 -1.6187 0.9839
3.4756 1.3095 -1.6187 0.9839
3.3727 1.5556 -1.6187 0.9839
3.3146 1.6758 -1.6187 0.9839
3.1858 1.9094 -1.6187 0.9839
3.1151 2.0226 -1.6187 0.9839
2.9619 2.2410 -1.6187 0.9839
3.2750 -1.2260 -1.6187 0.9847
3.3879 -0.8666 -1.6187 0.9847
3.4168 -0.7444 -1.6187 0.9847
3.4413 -0.6211 -1.6187 0.9847
3.4771 -0.3725 -1.6187 0.9847
3.4882 -0.2474 -1.6187 0.9847
3.4969 0.0037 -1.6187 0.9847
3.4763 0.3798 -1.6187 0.9847
3.4400 0.6284 -1.6187 0.9847
3.3525 0.9948 -1.6187 0.9847
3.3146 1.1146 -1.6187 0.9847
3.2724 1.2329 -1.6187 0.9847
3.2260 1.3497 -1.6187 0.9847
3.1208 1.5778 -1.6187 0.9847
3.0621 1.6889 -1.6187 0.9847
2.9995 1.7978 -1.6187 0.9847
2.8627 2.0084 -1.6187 0.9847
2.7887 2.1100 -1.6187 0.9847
3.1300 -1.0452 -1.6187 0.9854
3.1970 -0.8178 -1.6187 0.9854
3.2474 -0.5861 -1.6187 0.9854
3.2664 -0.4691 -1.6187 0.9854
3.2811 -0.3515 -1.6187 0.9854
3.2999 0.0035 -1.6187 0.9854
3.2911 0.2404 -1.6187 0.9854
3.2804 0.3584 -1.6187 0.9854
3.2654 0.4760 -1.6187 0.9854
3.2462 0.5930 -1.6187 0.9854
3.2228 0.7092 -1.6187 0.9854
3.1953 0.8245 -1.6187 0.9854
3.1278 1.0518 -1.6187 0.9854
2.9965 1.3821 -1.6187 0.9854
2.9450 1.4889 -1.6187 0.9854
2.8896 1.5937 -1.6187 0.9854
2.7014 1.8953 -1.6187 0.9854
2.6316 1.9911 -1.6187 0.9854
2.8810 -1.1982 -1.6187 0.9860
2.9221 -1.0939 -1.6187 0.9860
2.9595 -0.9882 -1.6187 0.9860
3.0885 -0.4436 -1.6187 0.9860
3.1024 -0.3324 -1.6187 0.9860
3.1183 -0.1088 -1.6187 0.9860
3.1202 0.0033 -1.6187 0.9860
3.1181 0.1154 -1.6187 0.9860
3.1119 0.2273 -1.6187 0.9860
3.1017 0.3389 -1.6187 0.9860
3.0473 0.6706 -1.6187 0.9860
3.0213 0.7796 -1.6187 0.9860
2.9575 0.9945 -1.6187 0.9860
2.8784 1.2043 -1.6187 0.9860
2.8333 1.3069 -1.6187 0.9860
2.7846 1.4078 -1.6187 0.9860
2.4882 1.8826 -1.6187 0.9860
2.6863 -1.2322 -1.6187 0.9866
2.7678 -1.0361 -1.6187 0.9866
2.8351 -0.8348 -1.6187 0.9866
2.8632 -0.7324 -1.6187 0.9866
2.8877 -0.6291 -1.6187 0.9866
2.9084 -0.5250 -1.6187 0.9866
2.9386 -0.3148 -1.6187 0.9866
2.9480 -0.2091 -1.6187 0.9866
2.9536 -0.1030 -1.6187 0.9866
2.9554 0.0031 -1.6187 0.9866
2.9534 0.1093 -1.6187 0.9866
2.9476 0.2153 -1.6187 0.9866
2.9245 0.4263 -1.6187 0.9866
2.8864 0.6352 -1.6187 0.9866
2.8617 0.7384 -1.6187 0.9866
2.8013 0.9420 -1.6187 0.9866
2.7657 1.0420 -1.6187 0.9866
2.6375 1.3334 -1.6187 0.9866
2.5879 1.4273 -1.6187 0.9866
2.4194 1.6974 -1.6187 0.9866
2.5483 -1.1689 -1.6187 0.9871
2.5887 -1.0766 -1.6187 0.9871
2.6257 -0.9829 -1.6187 0.9871
2.7162 -0.6948 -1.6187 0.9871
2.7591 -0.4980 -1.6187 0.9871
2.7877 -0.2987 -1.6187 0.9871
2.7966 -0.1983 -1.6187 0.9871
2.8037 0.0030 -1.6187 0.9871
2.7381 0.6026 -1.6187 0.9871
2.7147 0.7005 -1.6187 0.9871
2.6575 0.8936 -1.6187 0.9871
2.6236 0.9885 -1.6187 0.9871
2.5864 1.0821 -1.6187 0.9871
2.5021 1.2650 -1.6187 0.9871
2.4550 1.3540 -1.6187 0.9871
