ply
format ascii 1.0
element vertex 397
property float32 x
property float32 y
property float32 z
property float32 I
end_header
15.5266 19.9657 3.8744 0.9027
2.8913 6.6152 1.1060 0.9712
15.5252 19.9638 3.2933 0.9030
2.8909 6.6144 0.9400 0.9713
2.8906 6.6135 0.7750 0.9714
15.5223 19.9602 2.1400 0.9035
15.5198 19.9569 1.5677 0.9036
2.8899 6.6119 0.4475 0.9715
40.1679 26.8819 0.8164 0.8242
15.5139 19.9493 0.4269 0.9038
17.8927 31.3423 0.6096 0.8656
2.8892 6.6103 0.1219 0.9716
40.1679 26.8820 -0.2721 0.8242
15.5112 19.9458 -0.1423 0.9039
15.5092 19.9432 -0.7114 0.9038
2.8885 6.6087 -0.2031 0.9716
28.8631 1.6290 -1.4661 0.8907
29.6994 4.8862 -1.5264 0.8864
30.5170 6.1423 -1.5787 0.8828
30.9788 7.3902 -1.6151 0.8802
30.4382 9.5927 -1.6185 0.8800
29.6799 11.7315 -1.6185 0.8800
26.5232 17.7504 -1.6185 0.8800
25.1950 19.5904 -1.6185 0.8800
23.7394 21.3314 -1.6186 0.8800
22.1637 22.9646 -1.6186 0.8800
21.3334 23.7382 -1.6186 0.8800
16.9256 23.4390 -1.4662 0.8907
16.0816 24.0260 -1.4662 0.8907
14.3338 25.1082 -1.4662 0.8907
10.6299 26.8872 -1.4663 0.8907
22.0394 1.2439 -1.6185 0.9153
21.9813 2.0267 -1.6185 0.9153
21.8954 2.8069 -1.6186 0.9153
21.7818 3.5835 -1.6186 0.9153
21.4720 5.1223 -1.6186 0.9153
21.2764 5.8825 -1.6186 0.9153
20.8047 7.3796 -1.6186 0.9153
20.5292 8.1146 -1.6186 0.9153
20.2278 8.8393 -1.6186 0.9153
18.7706 11.6176 -1.6186 0.9153
18.3457 12.2777 -1.6186 0.9153
17.4270 13.5504 -1.6186 0.9153
16.9343 14.1614 -1.6186 0.9153
16.4201 14.7545 -1.6186 0.9153
15.8852 15.3290 -1.6186 0.9153
11.1233 16.6182 -1.4662 0.9229
9.9144 17.3668 -1.4663 0.9229
9.2907 17.7083 -1.4663 0.9229
2.8878 6.6071 -0.5287 0.9715
16.8326 0.9500 -1.6186 0.9345
16.7882 1.5479 -1.6186 0.9345
16.7226 2.1437 -1.6186 0.9345
16.6358 2.7369 -1.6186 0.9345
15.8896 5.6361 -1.6186 0.9345
15.1992 7.2960 -1.6186 0.9345
14.9302 7.8318 -1.6186 0.9345
14.3360 8.8730 -1.6186 0.9345
12.9335 10.8157 -1.6186 0.9345
10.2087 11.3594 -1.4662 0.9405
9.3757 12.0562 -1.4663 0.9405
8.9412 12.3819 -1.4663 0.9405
8.4953 12.6920 -1.4663 0.9405
8.0387 12.9861 -1.4663 0.9405
7.5720 13.2637 -1.4663 0.9405
7.0957 13.5245 -1.4663 0.9405
6.6104 13.7683 -1.4663 0.9405
2.8874 6.6063 -0.6922 0.9714
5.6153 14.2033 -1.4663 0.9405
13.6046 0.7678 -1.6186 0.9466
13.3584 2.6887 -1.6186 0.9466
13.2544 3.1619 -1.6186 0.9466
12.9962 4.0958 -1.6186 0.9466
12.8424 4.5553 -1.6186 0.9466
12.6723 5.0090 -1.6186 0.9466
12.2844 5.8968 -1.6186 0.9466
10.7573 8.3644 -1.6186 0.9466
9.8056 9.4623 -1.6186 0.9466
7.5777 9.7441 -1.4663 0.9515
6.4971 10.4956 -1.4663 0.9515
5.7349 10.9308 -1.4663 0.9515
4.5384 11.4794 -1.4663 0.9515
11.3755 1.0488 -1.6186 0.9549
11.2723 1.8545 -1.6186 0.9549
11.1120 2.6508 -1.6186 0.9549
11.0107 3.0442 -1.6186 0.9549
10.4680 4.5744 -1.6186 0.9549
10.2988 4.9437 -1.6186 0.9549
9.9215 5.6630 -1.6186 0.9549
9.7139 6.0122 -1.6186 0.9549
9.4940 6.3537 -1.6186 0.9549
9.2621 6.6873 -1.6186 0.9549
9.0185 7.0123 -1.6187 0.9549
8.7635 7.3286 -1.6187 0.9549
8.4975 7.6355 -1.6187 0.9549
8.2206 7.9328 -1.6187 0.9549
7.9334 8.2201 -1.6187 0.9549
7.1787 8.5831 -1.5854 0.9558
5.7563 8.5999 -1.4663 0.9591
5.1306 8.9872 -1.4663 0.9591
4.8079 9.1639 -1.4663 0.9591
3.8048 9.6238 -1.4663 0.9591
9.6952 1.5950 -1.6186 0.9610
9.6323 1.9387 -1.6186 0.9610
9.5573 2.2800 -1.6186 0.9610
9.3711 2.9533 -1.6186 0.9610
9.2602 3.2846 -1.6186 0.9610
9.1376 3.6118 -1.6186 0.9610
8.8579 4.2520 -1.6186 0.9610
8.5333 4.8707 -1.6187 0.9610
8.1657 5.4648 -1.6187 0.9610
7.7567 6.0312 -1.6187 0.9610
7.0704 6.8229 -1.6187 0.9610
6.8234 7.0700 -1.6187 0.9610
6.5678 7.3081 -1.6187 0.9610
6.3000 7.5324 -1.6177 0.9610
4.1352 7.8818 -1.4663 0.9646
8.5753 0.7906 -1.6186 0.9656
8.5417 1.0950 -1.6186 0.9656
8.4423 1.6992 -1.6186 0.9656
8.3766 1.9983 -1.6187 0.9656
8.3003 2.2949 -1.6187 0.9656
8.0087 3.1656 -1.6187 0.9656
7.8911 3.4483 -1.6187 0.9656
7.7635 3.7267 -1.6187 0.9656
7.6262 4.0004 -1.6187 0.9656
7.4791 4.2690 -1.6187 0.9656
6.9821 5.0411 -1.6187 0.9656
6.7984 5.2861 -1.6187 0.9656
6.4056 5.7559 -1.6187 0.9656
6.1970 5.9800 -1.6187 0.9656
5.9804 6.1965 -1.6187 0.9656
4.7304 7.0673 -1.5985 0.9660
4.2219 6.8202 -1.5077 0.9679
3.3764 7.0325 -1.4663 0.9687
2.8210 6.4543 -1.3240 0.9717
7.6454 0.4315 -1.6187 0.9692
7.6252 0.7030 -1.6187 0.9692
7.5954 0.9737 -1.6187 0.9692
7.5560 1.2431 -1.6187 0.9692
7.3807 2.0406 -1.6187 0.9692
6.6505 3.7960 -1.6187 0.9692
6.0452 4.7005 -1.6187 0.9692
5.5104 5.3175 -1.6187 0.9692
5.3179 5.5100 -1.6187 0.9692
4.9129 5.8740 -1.6187 0.9692
4.4831 6.2083 -1.6187 0.9692
4.2575 6.3608 -1.6179 0.9692
4.0192 6.4927 -1.6141 0.9693
3.3496 6.3845 -1.5240 0.9710
3.0024 6.2534 -1.4663 0.9720
2.5504 6.4509 -1.4663 0.9720
6.8581 0.6323 -1.6187 0.9721
6.6382 1.8353 -1.6187 0.9721
6.3110 2.7579 -1.6187 0.9721
6.2090 2.9805 -1.6187 0.9721
5.5840 4.0316 -1.6187 0.9721
5.4371 4.2276 -1.6187 0.9721
4.7829 4.9557 -1.6187 0.9721
3.6251 5.8561 -1.6187 0.9721
3.4121 5.9769 -1.6175 0.9721
2.9671 6.1801 -1.6112 0.9722
2.3483 5.9397 -1.5011 0.9741
6.2417 0.3523 -1.6187 0.9745
6.2009 0.7949 -1.6187 0.9745
6.1687 1.0149 -1.6187 0.9745
6.1288 1.2335 -1.6187 0.9745
6.0810 1.4507 -1.6187 0.9745
6.0256 1.6660 -1.6187 0.9745
5.9626 1.8791 -1.6187 0.9745
5.8920 2.0899 -1.6187 0.9745
5.8140 2.2981 -1.6187 0.9745
5.6360 2.7054 -1.6187 0.9745
5.5362 2.9041 -1.6187 0.9745
5.4295 3.0991 -1.6187 0.9745
5.0686 3.6596 -1.6187 0.9745
4.9354 3.8375 -1.6187 0.9745
4.7958 4.0105 -1.6187 0.9745
4.6502 4.1785 -1.6187 0.9745
4.3415 4.4984 -1.6187 0.9745
4.1788 4.6499 -1.6187 0.9745
3.8379 4.9351 -1.6187 0.9745
3.6600 5.0684 -1.6187 0.9745
3.2906 5.3157 -1.6187 0.9745
3.0995 5.4293 -1.6187 0.9745
2.9045 5.5361 -1.6187 0.9745
2.2899 5.7922 -1.6127 0.9746
5.7087 0.3222 -1.6187 0.9765
5.6054 1.1282 -1.6187 0.9765
5.5617 1.3268 -1.6187 0.9765
5.4534 1.7187 -1.6187 0.9765
5.3889 1.9115 -1.6187 0.9765
5.3175 2.1018 -1.6187 0.9765
5.1547 2.4744 -1.6187 0.9765
4.6358 3.3471 -1.6187 0.9765
4.3863 3.6680 -1.6187 0.9765
4.2531 3.8217 -1.6187 0.9765
4.1145 3.9705 -1.6187 0.9765
3.9708 4.1143 -1.6187 0.9765
3.8220 4.2528 -1.6187 0.9765
3.0096 4.8618 -1.6187 0.9765
2.8348 4.9657 -1.6187 0.9765
2.6565 5.0633 -1.6187 0.9765
5.2404 0.4832 -1.6187 0.9782
5.1592 1.0384 -1.6187 0.9782
5.1190 1.2212 -1.6187 0.9782
4.9599 1.7593 -1.6187 0.9782
4.6604 2.4446 -1.6187 0.9782
4.4749 2.7696 -1.6187 0.9782
4.3736 2.9270 -1.6187 0.9782
4.0371 3.3760 -1.6187 0.9782
3.9145 3.5174 -1.6187 0.9782
3.7870 3.6544 -1.6187 0.9782
3.6547 3.7867 -1.6187 0.9782
3.3763 4.0369 -1.6187 0.9782
3.0810 4.2666 -1.6187 0.9782
2.9273 4.3734 -1.6187 0.9782
2.4450 4.6603 -1.6187 0.9782
2.1077 4.8222 -1.6187 0.9782
1.9349 4.8941 -1.6187 0.9782
4.8618 0.2744 -1.6187 0.9797
4.8490 0.4471 -1.6187 0.9797
4.7739 0.9609 -1.6187 0.9797
4.7367 1.1300 -1.6187 0.9797
4.5287 1.7900 -1.6187 0.9797
4.4621 1.9499 -1.6187 0.9797
4.3123 2.2621 -1.6187 0.9797
4.1407 2.5628 -1.6187 0.9797
4.0470 2.7084 -1.6187 0.9797
3.6221 3.2547 -1.6187 0.9797
3.5041 3.3815 -1.6187 0.9797
3.3817 3.5039 -1.6187 0.9797
2.9894 3.8441 -1.6187 0.9797
2.4143 4.2290 -1.6187 0.9797
2.1077 4.3899 -1.6187 0.9797
4.4374 0.8931 -1.6187 0.9810
4.3627 1.2062 -1.6187 0.9810
4.3171 1.3606 -1.6187 0.9810
4.2095 1.6639 -1.6187 0.9810
4.1477 1.8125 -1.6187 0.9810
4.0084 2.1027 -1.6187 0.9810
3.8489 2.3822 -1.6187 0.9810
3.7618 2.5175 -1.6187 0.9810
3.6699 2.6497 -1.6187 0.9810
3.5734 2.7785 -1.6187 0.9810
3.4723 2.9037 -1.6187 0.9810
2.9040 3.4721 -1.6187 0.9810
2.7787 3.5732 -1.6187 0.9810
2.1029 4.0083 -1.6187 0.9810
1.9591 4.0805 -1.6187 0.9810
1.8128 4.1476 -1.6187 0.9810
1.6642 4.2095 -1.6187 0.9810
4.2172 0.2380 -1.6187 0.9821
4.2061 0.3878 -1.6187 0.9821
4.1409 0.8335 -1.6187 0.9821
4.1086 0.9801 -1.6187 0.9821
4.0712 1.1256 -1.6187 0.9821
4.0286 1.2696 -1.6187 0.9821
3.9809 1.4120 -1.6187 0.9821
3.9282 1.5527 -1.6187 0.9821
3.8079 1.8279 -1.6187 0.9821
3.6684 2.0939 -1.6187 0.9821
3.0395 2.9331 -1.6187 0.9821
2.3495 3.5102 -1.6187 0.9821
2.2233 3.5915 -1.6187 0.9821
2.0942 3.6683 -1.6187 0.9821
1.8282 3.8078 -1.6187 0.9821
1.5530 3.9281 -1.6187 0.9821
3.9487 0.2229 -1.6187 0.9831
3.9383 0.3631 -1.6187 0.9831
3.9229 0.5029 -1.6187 0.9831
3.9025 0.6421 -1.6187 0.9831
3.8773 0.7804 -1.6187 0.9831
3.8471 0.9177 -1.6187 0.9831
3.8120 1.0539 -1.6187 0.9831
3.7721 1.1888 -1.6187 0.9831
3.6781 1.4538 -1.6187 0.9831
3.5655 1.7115 -1.6187 0.9831
3.5024 1.8372 -1.6187 0.9831
3.2869 2.1997 -1.6187 0.9831
3.2066 2.3152 -1.6187 0.9831
3.1223 2.4277 -1.6187 0.9831
3.0340 2.5372 -1.6187 0.9831
2.8460 2.7464 -1.6187 0.9831
2.5374 3.0338 -1.6187 0.9831
2.4279 3.1221 -1.6187 0.9831
2.1999 3.2867 -1.6187 0.9831
2.0817 3.3629 -1.6187 0.9831
1.5840 3.6240 -1.6187 0.9831
3.7082 0.2093 -1.6187 0.9839
3.6840 0.4723 -1.6187 0.9839
3.6649 0.6030 -1.6187 0.9839
3.6411 0.7329 -1.6187 0.9839
3.5424 1.1164 -1.6187 0.9839
3.5005 1.2416 -1.6187 0.9839
3.2257 1.8412 -1.6187 0.9839
3.0867 2.0657 -1.6187 0.9839
2.9321 2.2799 -1.6187 0.9839
2.8492 2.3827 -1.6187 0.9839
2.7627 2.4825 -1.6187 0.9839
2.6727 2.5791 -1.6187 0.9839
2.2801 2.9320 -1.6187 0.9839
2.0660 3.0866 -1.6187 0.9839
1.9549 3.1581 -1.6187 0.9839
1.8414 3.2256 -1.6187 0.9839
1.3656 3.4541 -1.6187 0.9839
3.4822 0.3211 -1.6187 0.9847
3.3705 0.9319 -1.6187 0.9847
3.2958 1.1690 -1.6187 0.9847
3.0968 1.6244 -1.6187 0.9847
3.0371 1.7335 -1.6187 0.9847
2.9735 1.8404 -1.6187 0.9847
2.7606 2.1465 -1.6187 0.9847
2.5164 2.4283 -1.6187 0.9847
2.1467 2.7605 -1.6187 0.9847
1.7337 3.0370 -1.6187 0.9847
1.4005 3.2043 -1.6187 0.9847
1.2857 3.2521 -1.6187 0.9847
3.2860 0.3030 -1.6187 0.9854
3.2732 0.4196 -1.6187 0.9854
3.2562 0.5357 -1.6187 0.9854
3.2350 0.6511 -1.6187 0.9854
3.2099 0.7657 -1.6187 0.9854
3.1473 0.9919 -1.6187 0.9854
3.1101 1.1031 -1.6187 0.9854
2.6051 2.0256 -1.6187 0.9854
2.5314 2.1170 -1.6187 0.9854
2.3746 2.2915 -1.6187 0.9854
2.2916 2.3745 -1.6187 0.9854
2.1171 2.5313 -1.6187 0.9854
2.0258 2.6050 -1.6187 0.9854
1.7369 2.8058 -1.6187 0.9854
1.6360 2.8658 -1.6187 0.9854
1.5331 2.9222 -1.6187 0.9854
1.3216 3.0237 -1.6187 0.9854
3.0350 0.7240 -1.6187 0.9860
2.9759 0.9379 -1.6187 0.9860
2.9407 1.0431 -1.6187 0.9860
2.8591 1.2494 -1.6187 0.9860
2.7631 1.4494 -1.6187 0.9860
2.7098 1.5467 -1.6187 0.9860
2.6531 1.6421 -1.6187 0.9860
2.5298 1.8265 -1.6187 0.9860
2.3209 2.0855 -1.6187 0.9860
2.2453 2.1667 -1.6187 0.9860
2.0018 2.3934 -1.6187 0.9860
1.9154 2.4631 -1.6187 0.9860
1.7356 2.5930 -1.6187 0.9860
1.6423 2.6530 -1.6187 0.9860
1.5470 2.7098 -1.6187 0.9860
1.3505 2.8128 -1.6187 0.9860
1.2496 2.8591 -1.6187 0.9860
1.1472 2.9017 -1.6187 0.9860
2.9507 0.1665 -1.6187 0.9866
2.9429 0.2713 -1.6187 0.9866
2.9162 0.4798 -1.6187 0.9866
2.8748 0.6858 -1.6187 0.9866
2.8485 0.7876 -1.6187 0.9866
2.8188 0.8883 -1.6187 0.9866
2.7854 0.9880 -1.6187 0.9866
2.6172 1.3729 -1.6187 0.9866
2.5667 1.4651 -1.6187 0.9866
2.5130 1.5554 -1.6187 0.9866
2.4561 1.6437 -1.6187 0.9866
2.3962 1.7300 -1.6187 0.9866
2.2672 1.8959 -1.6187 0.9866
2.1983 1.9753 -1.6187 0.9866
2.1267 2.0522 -1.6187 0.9866
1.9755 2.1982 -1.6187 0.9866
1.8143 2.3330 -1.6187 0.9866
1.2792 2.6643 -1.6187 0.9866
1.1836 2.7081 -1.6187 0.9866
1.0866 2.7485 -1.6187 0.9866
2.7809 0.3565 -1.6187 0.9871
2.7665 0.4551 -1.6187 0.9871
2.7485 0.5532 -1.6187 0.9871
2.7271 0.6506 -1.6187 0.9871
2.6740 0.8427 -1.6187 0.9871
2.6424 0.9373 -1.6187 0.9871
2.6074 1.0306 -1.6187 0.9871
2.5275 1.2133 -1.6187 0.9871
2.4828 1.3024 -1.6187 0.9871
2.3840 1.4755 -1.6187 0.9871
2.3300 1.5593 -1.6187 0.9871
2.2731 1.6412 -1.6187 0.9871
2.2133 1.7210 -1.6187 0.9871
2.1507 1.7986 -1.6187 0.9871
2.0175 1.9469 -1.6187 0.9871
1.8741 2.0853 -1.6187 0.9871
1.7987 2.1506 -1.6187 0.9871
1.7211 2.2132 -1.6187 0.9871
1.6413 2.2730 -1.6187 0.9871
1.4757 2.3839 -1.6187 0.9871
1.3900 2.4349 -1.6187 0.9871
1.2135 2.5275 -1.6187 0.9871
1.1228 2.5690 -1.6187 0.9871
1.0308 2.6073 -1.6187 0.9871
