ply
format ascii 1.0
element vertex 464
property float32 x
property float32 y
property float32 z
property float32 I
end_header
-17.1071 8.7702 3.3898 0.9249
-39.9204 -19.3189 7.8200 0.8352
-35.3519 -18.6872 7.0508 0.8501
-34.8264 -21.7074 7.2360 0.8465
-34.6472 -23.3457 7.3667 0.8439
-34.1758 -24.8391 7.4496 0.8423
-15.3742 10.0814 2.8165 0.9283
-15.5550 9.4267 2.7864 0.9290
-15.7321 8.7851 2.7604 0.9297
-28.4766 12.1277 4.7416 0.8823
-38.4335 -18.5993 6.5410 0.8413
-16.1236 9.7713 2.4551 0.9268
-21.0282 9.8528 3.0240 0.9106
-28.4766 12.1276 4.0305 0.8826
-35.0532 13.4775 4.8904 0.8594
-37.7438 -18.2655 5.4603 0.8444
-16.0858 9.7484 2.0198 0.9271
-16.2690 9.0849 2.0009 0.9278
-36.6283 -19.3619 4.4489 0.8465
-37.1422 -21.3562 4.6007 0.8417
-35.0801 -25.4964 4.6568 0.8399
-16.0858 9.7484 1.5923 0.9273
-16.2690 9.0849 1.5774 0.9279
-15.5340 7.9637 1.4777 0.9323
-19.2130 9.0023 1.7961 0.9184
-26.6550 11.3519 2.4525 0.8902
-36.4714 -24.5749 3.7229 0.8382
-12.7350 7.7177 0.9234 0.9421
-19.2129 9.0023 1.3157 0.9185
-12.7350 7.7177 0.5872 0.9421
-17.7817 8.3316 0.7743 0.9244
-12.7350 7.7177 0.2515 0.9422
-12.8849 7.1951 0.2493 0.9427
-14.4661 7.4162 0.2746 0.9370
-31.3200 -19.5218 0.6234 0.8627
-12.8849 7.1951 -0.0831 0.9427
-46.9599 -14.9644 -0.2775 0.8211
-41.4841 -16.5501 -0.2515 0.8364
-38.9913 -17.1864 -0.2399 0.8433
-32.9918 -18.9698 -0.2143 0.8588
-31.2037 -19.4493 -0.2070 0.8632
-31.7958 -21.4244 -0.2159 0.8578
-12.7350 7.7177 -0.4193 0.9422
-14.4661 7.4162 -0.4577 0.9370
-22.8465 9.7299 -0.6992 0.9054
-23.0620 8.8670 -0.6957 0.9059
-44.3589 -15.8936 -1.3268 0.8282
-41.7134 -16.6416 -1.2646 0.8355
-37.1922 -17.9986 -1.1634 0.8476
-31.2037 -19.4493 -1.0353 0.8632
-32.3103 -23.4832 -1.1247 0.8523
-12.6605 8.3019 -0.7678 0.9412
-12.7350 7.7177 -0.7552 0.9421
-14.4661 7.4163 -0.8244 0.9370
-22.8466 9.7299 -1.2593 0.9053
-23.0621 8.8671 -1.2530 0.9058
-31.5523 4.8891 -1.6192 0.8800
-31.7061 3.7644 -1.6192 0.8800
-2.9818 0.2469 -0.1517 0.9881
-2.9503 -0.0710 -0.1497 0.9882
-2.9875 -0.2851 -0.1522 0.9881
-31.6563 -4.1617 -1.6192 0.8800
-31.2804 -6.4003 -1.6192 0.8800
-30.7464 -8.6066 -1.6192 0.8800
-29.6549 -11.8308 -1.6192 0.8800
-25.7665 -14.8153 -1.5073 0.8878
-23.3941 -17.0030 -1.4667 0.8906
-12.7350 7.7177 -1.0918 0.9420
-10.5469 4.0552 -0.8285 0.9557
-19.1328 5.8337 -1.4666 0.9229
-2.5335 0.5794 -0.1906 0.9896
-2.4826 0.4756 -0.1853 0.9899
-2.4403 0.3781 -0.1811 0.9901
-2.4094 0.1995 -0.1773 0.9904
-2.4082 -0.1437 -0.1769 0.9904
-2.4098 -0.2300 -0.1775 0.9903
-2.5517 -0.6174 -0.1925 0.9895
-20.5091 -8.1821 -1.6190 0.9152
-20.2052 -8.9060 -1.6190 0.9152
-19.8758 -9.6186 -1.6190 0.9152
-18.3114 -12.3385 -1.6190 0.9152
-12.6605 8.3019 -1.4535 0.9410
-13.8324 6.4812 -1.4665 0.9405
-14.0541 5.9854 -1.4665 0.9405
-2.2146 0.5065 -0.2181 0.9909
-2.1884 0.4192 -0.2139 0.9911
-2.1563 0.1786 -0.2077 0.9913
-2.1516 0.0248 -0.2066 0.9914
-2.1553 -0.1286 -0.2073 0.9914
-2.1568 -0.2835 -0.2088 0.9913
-2.1712 -0.3644 -0.2114 0.9912
-2.1977 -0.4497 -0.2154 0.9910
-2.2528 -0.6306 -0.2246 0.9906
-15.8750 -5.6879 -1.6189 0.9345
-15.6627 -6.2486 -1.6189 0.9345
-15.4306 -6.8014 -1.6189 0.9345
-14.9083 -7.8806 -1.6189 0.9345
-14.6187 -8.4055 -1.6189 0.9345
-14.3106 -8.9198 -1.6189 0.9345
-13.9844 -9.4229 -1.6189 0.9345
-10.3238 6.7696 -1.4665 0.9515
-10.9859 5.6321 -1.4665 0.9515
-2.0729 0.6321 -0.2574 0.9913
-2.0566 0.5480 -0.2528 0.9915
-2.0234 0.3877 -0.2447 0.9917
-2.0121 0.3118 -0.2419 0.9918
-1.9998 -0.0481 -0.2376 0.9920
-2.0076 -0.1916 -0.2396 0.9919
-2.0105 -0.2643 -0.2409 0.9919
-2.0141 -0.3380 -0.2426 0.9918
-2.0624 -0.5773 -0.2544 0.9914
-12.2676 -5.9367 -1.6189 0.9466
-11.8147 -6.7933 -1.6189 0.9466
-11.5657 -7.2089 -1.6189 0.9466
-11.0242 -8.0124 -1.6189 0.9466
-8.6548 5.6752 -1.4664 0.9591
-8.8511 5.3640 -1.4664 0.9590
-9.5221 4.0553 -1.4664 0.9590
-1.9771 0.6806 -0.2963 0.9916
-1.9638 0.5988 -0.2909 0.9917
-1.9502 0.5196 -0.2860 0.9919
-1.9367 0.4429 -0.2815 0.9920
-1.9254 0.3689 -0.2778 0.9921
-1.9200 0.2975 -0.2753 0.9922
-1.9180 0.2277 -0.2737 0.9922
-1.9154 0.1586 -0.2723 0.9923
-1.9061 0.0219 -0.2701 0.9923
-1.9082 -0.0459 -0.2705 0.9923
-1.9134 -0.1142 -0.2716 0.9923
-1.9205 -0.3223 -0.2759 0.9922
-1.9412 -0.4696 -0.2830 0.9920
-1.9686 -0.6273 -0.2927 0.9917
-10.7559 -3.8538 -1.6189 0.9549
-10.6121 -4.2337 -1.6189 0.9549
-10.4548 -4.6082 -1.6189 0.9549
-10.1009 -5.3394 -1.6188 0.9549
-9.9047 -5.6950 -1.6188 0.9549
-9.6960 -6.0435 -1.6188 0.9549
-9.2420 -6.7171 -1.6188 0.9549
-7.4437 4.8811 -1.4664 0.9646
-7.6126 4.6134 -1.4664 0.9646
-7.7718 4.3399 -1.4664 0.9646
-8.0605 3.7768 -1.4664 0.9646
-8.3252 3.2010 -1.4694 0.9645
-1.8759 0.6457 -0.3268 0.9920
-1.8651 0.5687 -0.3212 0.9921
-1.8550 0.4943 -0.3163 0.9922
-1.8459 0.4222 -0.3119 0.9924
-1.8363 0.3518 -0.3080 0.9924
-1.8318 0.1517 -0.3028 0.9926
-1.8271 0.0861 -0.3013 0.9926
-1.8218 0.0210 -0.3001 0.9926
-1.8237 -0.0439 -0.3005 0.9926
-1.8356 -0.3080 -0.3066 0.9925
-1.8397 -0.3764 -0.3094 0.9924
-1.8492 -0.4474 -0.3134 0.9923
-8.5188 -4.8981 -1.6188 0.9609
-8.3392 -5.1979 -1.6188 0.9609
-8.1491 -5.4910 -1.6188 0.9609
-6.5240 4.2780 -1.4664 0.9687
-6.9424 3.5592 -1.4664 0.9687
-7.0646 3.3101 -1.4664 0.9687
-7.4244 3.1619 -1.5168 0.9677
-1.7772 0.5419 -0.3492 0.9925
-1.7627 0.4031 -0.3399 0.9927
-1.7574 0.3367 -0.3363 0.9927
-1.7573 0.2723 -0.3342 0.9928
-1.7563 0.2085 -0.3324 0.9928
-1.7441 0.0201 -0.3278 0.9929
-1.7459 -0.0420 -0.3282 0.9929
-1.7504 -0.1045 -0.3296 0.9929
-1.7542 -0.1674 -0.3312 0.9929
-1.7568 -0.2309 -0.3330 0.9928
-1.7728 -0.4962 -0.3460 0.9925
-1.7795 -0.5670 -0.3510 0.9924
-1.7950 -0.7161 -0.3632 0.9922
-7.7524 -3.7516 -1.6188 0.9656
-7.3089 -4.5556 -1.6188 0.9656
-6.9667 -5.0634 -1.6188 0.9656
-5.8012 3.8040 -1.4664 0.9720
-6.0794 3.3949 -1.4719 0.9719
-6.8832 3.2251 -1.6068 0.9694
-1.7028 0.5861 -0.3807 0.9927
-1.6924 0.4509 -0.3702 0.9929
-1.6861 0.3856 -0.3656 0.9930
-1.6850 0.2611 -0.3604 0.9931
-1.6829 0.1998 -0.3582 0.9931
-1.6801 0.1391 -0.3564 0.9931
-1.6812 -0.1605 -0.3570 0.9931
-1.6838 -0.2214 -0.3590 0.9931
-1.6850 -0.2828 -0.3612 0.9930
-1.6844 -0.3446 -0.3634 0.9930
-1.6884 -0.4085 -0.3672 0.9929
-1.6997 -0.5416 -0.3771 0.9927
-1.7043 -0.6106 -0.3827 0.9926
-6.6390 -3.8173 -1.6188 0.9692
-5.3657 3.5185 -1.5080 0.9740
-5.9878 3.3437 -1.6118 0.9722
-6.1146 3.1348 -1.6149 0.9722
-6.2345 2.9212 -1.6181 0.9721
-1.6312 0.6272 -0.4107 0.9928
-1.6283 0.5605 -0.4047 0.9929
-1.6247 0.4954 -0.3992 0.9930
-1.6203 0.4317 -0.3941 0.9931
-1.6157 0.3695 -0.3895 0.9932
-1.6172 0.3098 -0.3870 0.9933
-1.6164 0.2505 -0.3844 0.9933
-1.6125 0.1335 -0.3803 0.9934
-1.6068 -0.0386 -0.3777 0.9934
-1.6105 -0.0961 -0.3792 0.9934
-1.6155 -0.2124 -0.3829 0.9933
-1.6168 -0.2713 -0.3853 0.9933
-1.6220 -0.4540 -0.3959 0.9931
-1.6261 -0.5182 -0.4011 0.9930
-1.6319 -0.6511 -0.4129 0.9928
-1.6345 -0.7204 -0.4198 0.9927
-6.1999 -3.0004 -1.6188 0.9721
-5.9710 -3.4333 -1.6188 0.9721
-5.5716 -4.0494 -1.6188 0.9721
-5.2098 3.4162 -1.6131 0.9746
-5.3365 3.2341 -1.6157 0.9745
-1.5696 0.6685 -0.4417 0.9930
-1.5611 0.5373 -0.4275 0.9932
-1.5569 0.4747 -0.4214 0.9933
-1.5535 0.4139 -0.4163 0.9934
-1.5528 0.2975 -0.4094 0.9935
-1.5525 0.2406 -0.4068 0.9935
-1.5514 0.1842 -0.4045 0.9936
-1.5494 0.1283 -0.4025 0.9936
-1.5477 -0.0924 -0.4014 0.9936
-1.5527 -0.2606 -0.4076 0.9935
-1.5527 -0.3177 -0.4104 0.9935
-1.5579 -0.4964 -0.4234 0.9933
-1.5628 -0.5599 -0.4298 0.9932
-1.5708 -0.6924 -0.4445 0.9929
-5.5273 -2.9218 -1.6188 0.9745
-5.3058 -3.3071 -1.6188 0.9745
-5.1848 -3.4936 -1.6188 0.9745
-5.0574 -3.6757 -1.6188 0.9745
-4.7817 3.1355 -1.6188 0.9765
-1.6615 1.0069 -0.5500 0.9920
-1.6193 0.9042 -0.5250 0.9923
-5.0884 2.6087 -1.6188 0.9765
-1.5076 0.5797 -0.4573 0.9933
-1.5041 0.5177 -0.4503 0.9934
-1.4950 0.3983 -0.4380 0.9936
-1.4946 0.3418 -0.4341 0.9936
-1.4936 0.1773 -0.4258 0.9938
-1.4892 0.0701 -0.4221 0.9938
-1.4860 0.0171 -0.4207 0.9938
-1.4872 -0.0358 -0.4211 0.9938
-1.4902 -0.0889 -0.4226 0.9938
-1.4949 -0.2508 -0.4291 0.9937
-1.4944 -0.3615 -0.4352 0.9936
-1.4967 -0.4190 -0.4400 0.9936
-1.5014 -0.4784 -0.4461 0.9935
-5.0553 -2.6722 -1.6188 0.9765
-1.6352 -0.9402 -0.5340 0.9922
-4.6255 -3.3618 -1.6187 0.9765
-1.4559 0.6822 -0.4945 0.9933
-1.4549 0.6196 -0.4864 0.9934
-1.4471 0.4412 -0.4653 0.9937
-1.4437 0.3847 -0.4595 0.9938
-1.4452 0.3305 -0.4560 0.9938
-1.4459 0.2770 -0.4528 0.9939
-1.4459 0.2240 -0.4500 0.9939
-1.4450 0.1716 -0.4476 0.9939
-1.4353 0.0165 -0.4415 0.9940
-1.4385 -0.0346 -0.4426 0.9940
-1.4441 -0.1378 -0.4462 0.9939
-1.4454 -0.1900 -0.4484 0.9939
-1.4449 -0.4045 -0.4615 0.9937
-1.4483 -0.4615 -0.4675 0.9937
-1.4514 -0.5200 -0.4742 0.9936
-1.4553 -0.6415 -0.4892 0.9934
-1.4561 -0.7046 -0.4975 0.9933
-4.6528 -2.4595 -1.6187 0.9782
-1.5689 -0.9779 -0.5686 0.9923
-4.2572 -3.0942 -1.6187 0.9782
-4.0723 2.6704 -1.6187 0.9797
-1.4955 0.9063 -0.5813 0.9927
-1.6117 0.9000 -0.6136 0.9922
-1.4020 0.7188 -0.5237 0.9934
-1.4026 0.5973 -0.5067 0.9936
-1.3999 0.4819 -0.4921 0.9938
-1.3978 0.4262 -0.4857 0.9939
-1.3983 0.3198 -0.4768 0.9940
-1.3993 0.2681 -0.4736 0.9940
-1.3995 0.2169 -0.4707 0.9940
-1.3990 0.1661 -0.4683 0.9941
-1.3862 0.0160 -0.4608 0.9942
-1.3892 -0.0334 -0.4619 0.9942
-1.3965 -0.0833 -0.4650 0.9941
-1.3992 -0.1840 -0.4691 0.9941
-1.3977 -0.3382 -0.4780 0.9940
-1.3960 -0.3908 -0.4819 0.9939
-1.4027 -0.6183 -0.5096 0.9936
-1.4026 -0.6787 -0.5179 0.9935
-1.4015 -0.7408 -0.5270 0.9933
-3.7853 2.4821 -1.6187 0.9810
-1.3510 0.6926 -0.5429 0.9936
-1.3531 0.5202 -0.5184 0.9939
-1.3525 0.4655 -0.5115 0.9939
-1.3510 0.4119 -0.5051 0.9940
-1.3516 0.3601 -0.5002 0.9941
-1.3536 0.3096 -0.4966 0.9941
-1.3554 0.2100 -0.4905 0.9942
-1.3551 0.1609 -0.4880 0.9942
-1.3540 0.1121 -0.4859 0.9942
-1.3397 0.0154 -0.4791 0.9943
-1.3545 -0.1293 -0.4866 0.9942
-1.3553 -0.2274 -0.4914 0.9942
-1.3546 -0.2771 -0.4944 0.9941
-1.3530 -0.3274 -0.4978 0.9941
-1.3527 -0.4847 -0.5139 0.9939
-1.3531 -0.5964 -0.5288 0.9937
-1.5197 -0.8738 -0.6269 0.9926
-1.5460 -0.9636 -0.6515 0.9923
-3.7539 -2.5294 -1.6187 0.9810
-3.6616 -2.6613 -1.6187 0.9810
-1.3029 0.6680 -0.5611 0.9937
-1.3051 0.6115 -0.5523 0.9938
-1.3067 0.5565 -0.5442 0.9939
-1.3074 0.4500 -0.5299 0.9941
-1.3088 0.3487 -0.5191 0.9942
-1.3111 0.2999 -0.5154 0.9943
-1.3126 0.2515 -0.5122 0.9943
-1.3133 0.2035 -0.5093 0.9943
-1.3132 0.1559 -0.5068 0.9944
-1.3089 0.1084 -0.5033 0.9944
-1.3025 0.0613 -0.4997 0.9944
-1.2955 0.0149 -0.4965 0.9945
-1.3133 -0.1727 -0.5076 0.9943
-1.3122 -0.2685 -0.5133 0.9943
-1.3104 -0.3170 -0.5167 0.9942
-1.3078 -0.3661 -0.5204 0.9942
-1.3062 -0.5757 -0.5470 0.9939
-1.3045 -0.6313 -0.5553 0.9938
-1.2984 -0.7465 -0.5739 0.9936
-3.5030 -2.3604 -1.6187 0.9821
-3.3074 2.1688 -1.6187 0.9831
-1.2487 0.7568 -0.5976 0.9937
-1.2573 0.6446 -0.5783 0.9939
-1.2641 0.4860 -0.5543 0.9942
-1.2705 0.2906 -0.5334 0.9944
-1.2600 0.0594 -0.5163 0.9946
-1.2559 -0.0302 -0.5141 0.9946
-1.2621 -0.0753 -0.5175 0.9946
-1.2677 -0.1210 -0.5212 0.9945
-1.2725 -0.1673 -0.5253 0.9945
-1.2729 -0.2136 -0.5282 0.9944
-1.2620 -0.5563 -0.5645 0.9941
-1.2594 -0.6095 -0.5726 0.9940
-1.2520 -0.7198 -0.5911 0.9938
-1.3345 -0.8318 -0.6436 0.9932
-3.2800 -2.2101 -1.6187 0.9831
-3.1993 -2.3253 -1.6187 0.9831
-1.2098 0.6756 -0.6039 0.9940
-1.2144 0.6226 -0.5948 0.9941
-1.2182 0.5708 -0.5863 0.9941
-1.2228 0.4701 -0.5709 0.9943
-1.2238 0.4212 -0.5641 0.9944
-1.2290 0.3275 -0.5543 0.9945
-1.2317 0.2817 -0.5506 0.9945
-1.2332 0.1911 -0.5439 0.9946
-1.2294 0.1460 -0.5395 0.9946
-1.2194 0.0574 -0.5320 0.9947
-1.2133 0.0140 -0.5288 0.9947
-1.2265 -0.1171 -0.5370 0.9946
-1.2343 -0.2071 -0.5455 0.9946
-1.2330 -0.2523 -0.5485 0.9945
-1.2240 -0.3900 -0.5599 0.9944
-1.2222 -0.4876 -0.5735 0.9943
-1.2170 -0.5889 -0.5892 0.9941
-1.2080 -0.6945 -0.6073 0.9939
-1.2022 -0.7493 -0.6174 0.9938
-1.1554 0.7576 -0.6395 0.9939
-1.1624 0.7045 -0.6292 0.9940
-1.1737 0.6017 -0.6105 0.9942
-1.1848 0.4078 -0.5800 0.9945
-1.1879 0.3622 -0.5749 0.9945
-1.1944 0.2732 -0.5671 0.9946
-1.1958 0.2291 -0.5636 0.9946
-1.1931 0.1849 -0.5589 0.9947
-1.1898 0.1413 -0.5546 0.9947
-1.1856 0.0982 -0.5507 0.9948
-1.1807 0.0556 -0.5471 0.9948
-1.1750 0.0135 -0.5439 0.9948
-1.1910 -0.1566 -0.5561 0.9947
-1.1935 -0.2887 -0.5684 0.9946
-1.1904 -0.3332 -0.5722 0.9946
-1.1864 -0.3781 -0.5764 0.9945
-1.1800 -0.5201 -0.5969 0.9943
-1.1720 -0.6195 -0.6136 0.9942
-1.1600 -0.7230 -0.6327 0.9940
-2.8288 -2.0560 -1.6187 0.9847
-1.1152 0.7313 -0.6541 0.9941
-1.1348 0.5818 -0.6255 0.9943
-1.1394 0.5338 -0.6172 0.9944
-1.1456 0.4405 -0.6021 0.9945
-1.1585 0.2650 -0.5829 0.9947
-1.1518 0.1368 -0.5690 0.9948
-1.1435 0.0539 -0.5616 0.9949
-1.1402 -0.0274 -0.5595 0.9949
-1.1530 -0.1516 -0.5704 0.9948
-1.1576 -0.2369 -0.5796 0.9947
-1.1577 -0.2801 -0.5842 0.9947
-1.1503 -0.3666 -0.5922 0.9946
-1.1469 -0.4109 -0.5976 0.9946
-1.1448 -0.4567 -0.6046 0.9945
-1.1379 -0.5507 -0.6201 0.9944
-1.1330 -0.5989 -0.6286 0.9943
-1.1202 -0.6982 -0.6475 0.9941
-1.1122 -0.7494 -0.6579 0.9940
-1.0849 0.6575 -0.6581 0.9943
-1.0976 0.5627 -0.6399 0.9945
-1.1064 0.4712 -0.6239 0.9946
-1.1095 0.4266 -0.6166 0.9947
-1.1124 0.3829 -0.6103 0.9947
-1.1211 0.2987 -0.6019 0.9948
-1.1211 0.2564 -0.5966 0.9948
-1.1048 -0.0266 -0.5733 0.9950
-1.1095 -0.0662 -0.5766 0.9950
-1.1134 -0.1063 -0.5802 0.9950
-1.1205 -0.2293 -0.5933 0.9949
-1.1198 -0.3134 -0.6033 0.9948
-1.1051 -0.4871 -0.6266 0.9946
-1.0957 -0.5792 -0.6430 0.9944
-1.0475 -0.7613 -0.6718 0.9942
-1.0245 0.6718 -0.6710 0.9944
-1.0421 0.6315 -0.6674 0.9945
-1.0672 0.5000 -0.6455 0.9946
-1.0806 0.1283 -0.5960 0.9950
-1.0775 0.0892 -0.5922 0.9951
-1.0691 0.0123 -0.5856 0.9951
-1.0848 -0.2220 -0.6065 0.9950
-1.0770 -0.3859 -0.6266 0.9948
-1.0655 -0.5156 -0.6483 0.9946
-1.0360 -0.6458 -0.6686 0.9944
-0.9984 -0.7257 -0.6760 0.9944
-1.0108 0.5644 -0.6684 0.9947
-1.0413 0.4004 -0.6441 0.9949
-1.0491 0.3199 -0.6332 0.9949
-1.0507 0.2403 -0.6223 0.9950
-1.0503 0.2012 -0.6174 0.9951
-1.0491 0.1626 -0.6129 0.9951
-1.0471 0.1243 -0.6088 0.9951
-1.0442 0.0865 -0.6050 0.9952
-1.0407 0.0490 -0.6015 0.9952
-1.0364 0.0119 -0.5984 0.9952
-1.0421 -0.0622 -0.6027 0.9952
-1.0453 -0.0998 -0.6063 0.9952
-1.0496 -0.1761 -0.6145 0.9951
-1.0507 -0.2542 -0.6241 0.9950
-1.0500 -0.2939 -0.6295 0.9950
-1.0484 -0.3341 -0.6353 0.9949
-1.0447 -0.3743 -0.6407 0.9949
-1.0401 -0.4150 -0.6466 0.9948
-1.0362 -0.4567 -0.6538 0.9948
-1.0314 -0.4992 -0.6616 0.9947
-1.0204 -0.5394 -0.6663 0.9947
-0.9891 -0.6165 -0.6729 0.9946
-0.9715 -0.6546 -0.6764 0.9946
-0.9527 -0.6924 -0.6800 0.9946
