ply
format ascii 1.0
element vertex 531
property float32 x
property float32 y
property float32 z
property float32 I
end_header
10.3520 -11.8418 2.7734 0.9381
-4.9324 -42.9343 6.6206 0.8396
-3.3853 -43.2157 6.6407 0.8391
-1.8328 -43.6443 6.6920 0.8380
2.9897 -44.7899 6.8768 0.8339
4.6718 -45.2600 6.9704 0.8318
8.1891 -46.2431 7.1944 0.8269
10.0388 -46.7601 7.3266 0.8240
-0.2540 -44.0802 5.7402 0.8371
6.4026 -45.7438 6.0149 0.8300
10.3502 -11.8398 2.0479 0.9385
-4.9323 -42.9331 4.6406 0.8404
-0.2540 -44.0790 4.7334 0.8375
10.0388 -46.7601 5.1356 0.8250
11.8561 -46.8848 5.1930 0.8232
14.4997 -43.7402 4.9482 0.8308
18.8840 -45.6145 5.3013 0.8199
10.3485 -11.8379 1.6884 0.9387
-4.9099 -42.7381 3.6417 0.8414
2.9897 -44.7899 3.8000 0.8351
4.6718 -45.2600 3.8517 0.8331
6.4026 -45.7437 3.9101 0.8308
8.1890 -46.2431 3.9755 0.8282
10.0387 -46.7601 4.0486 0.8253
11.8560 -46.8848 4.0939 0.8235
7.8453 -23.6664 2.1106 0.9048
15.6572 -42.0679 3.7998 0.8351
17.7979 -42.9909 3.9388 0.8296
20.0909 -43.9559 4.0912 0.8236
10.3467 -11.8359 1.3308 0.9388
-1.8327 -43.6431 2.7087 0.8394
-0.2540 -44.0790 2.7334 0.8381
2.9897 -44.7899 2.7836 0.8354
10.0387 -46.7601 2.9657 0.8256
11.8561 -46.8848 2.9989 0.8238
19.0490 -41.6764 2.8415 0.8322
21.2030 -42.2711 2.9325 0.8274
10.3449 -11.8338 0.9747 0.9390
-4.9323 -42.9331 1.7040 0.8411
-1.8327 -43.6431 1.7224 0.8396
4.6718 -45.2600 1.7941 0.8335
6.4026 -45.7438 1.8213 0.8312
8.1890 -46.2431 1.8518 0.8286
10.0387 -46.7601 1.8858 0.8258
7.0026 -24.0003 0.9858 0.9048
13.5310 -40.8179 1.6956 0.8419
14.2801 -38.3680 1.6143 0.8488
16.0910 -38.8679 1.6588 0.8450
18.0071 -39.3969 1.7080 0.8408
20.0433 -39.9591 1.7627 0.8361
24.7862 -41.6005 1.9094 0.8238
10.3432 -11.8318 0.6197 0.9390
-4.9257 -42.8757 0.7290 0.8414
-3.3852 -43.2145 0.7322 0.8408
-1.8327 -43.6431 0.7379 0.8397
4.6718 -45.2600 0.7686 0.8336
6.4026 -45.7438 0.7802 0.8313
10.0387 -46.7601 0.8079 0.8259
13.5310 -40.8179 0.7264 0.8420
14.2383 -38.2558 0.6895 0.8493
17.1389 -37.4974 0.6964 0.8479
19.0769 -38.0324 0.7187 0.8435
23.3657 -39.2165 0.7711 0.8331
25.7600 -39.8775 0.8019 0.8270
-4.9257 -42.8757 -0.2430 0.8414
-3.3852 -43.2145 -0.2440 0.8408
8.1891 -46.2431 -0.2644 0.8287
11.8561 -46.8849 -0.2723 0.8241
14.2384 -38.2558 -0.2298 0.8494
14.8782 -35.9384 -0.2190 0.8559
18.1105 -36.1058 -0.2274 0.8508
20.0747 -36.6480 -0.2353 0.8461
22.1821 -37.2299 -0.2440 0.8408
24.4550 -37.8574 -0.2537 0.8350
26.9206 -38.5381 -0.2647 0.8286
-1.5206 -13.2363 -0.3752 0.9481
-1.8327 -43.6431 -1.2300 0.8396
-0.2540 -44.0790 -1.2412 0.8383
2.9897 -44.7899 -1.2640 0.8356
4.6718 -45.2600 -1.2812 0.8335
11.8561 -46.8849 -1.3617 0.8241
7.0026 -24.0003 -0.7040 0.9048
15.5761 -34.0782 -1.0551 0.8608
17.3374 -34.5645 -1.0888 0.8566
28.0316 -37.1849 -1.3112 0.8300
12.7121 -11.6963 -0.4864 0.9332
15.0900 -10.3011 -0.5145 0.9295
-1.5026 -13.0791 -0.6677 0.9486
-0.5602 -13.3406 -0.6772 0.9479
-0.0829 -14.3895 -0.7298 0.9440
5.1781 -29.2386 -1.5059 0.8879
6.2265 -29.0016 -1.5043 0.8880
6.9788 -23.9189 -1.2636 0.9050
9.3097 -28.0837 -1.5005 0.8883
10.3299 -27.7548 -1.5019 0.8882
12.2906 -26.8898 -1.4994 0.8883
13.2446 -26.4049 -1.4981 0.8884
14.2003 -25.9239 -1.4990 0.8884
10.3015 -11.7841 -0.7938 0.9392
12.4281 -12.2950 -0.8866 0.9324
12.7095 -11.6939 -0.8759 0.9332
12.8277 -10.9724 -0.8561 0.9346
13.8016 -10.9657 -0.8940 0.9318
15.0942 -10.3040 -0.9268 0.9294
15.1340 -9.5468 -0.9075 0.9308
25.7368 -13.7397 -1.4796 0.8897
-0.5335 -12.7056 -0.9324 0.9503
-0.0725 -12.5926 -0.9233 0.9507
0.4293 -14.0966 -1.0341 0.9450
1.3319 -19.9534 -1.4663 0.9229
2.0533 -19.8920 -1.4663 0.9229
4.1976 -19.5520 -1.4663 0.9229
4.9025 -19.3872 -1.4663 0.9229
5.6011 -19.1969 -1.4662 0.9229
6.9753 -18.7413 -1.4662 0.9229
8.3129 -18.1874 -1.4662 0.9229
10.8505 -16.7970 -1.4662 0.9229
11.4514 -16.3932 -1.4662 0.9229
12.0373 -15.9679 -1.4662 0.9229
12.6074 -15.5216 -1.4662 0.9229
10.2762 -11.7552 -1.1448 0.9393
12.6627 -12.5270 -1.3060 0.9311
12.6261 -11.6172 -1.2580 0.9335
13.9090 -11.0510 -1.3025 0.9312
14.0710 -10.3716 -1.2817 0.9323
16.5152 -11.2740 -1.4662 0.9229
16.9124 -10.6687 -1.4662 0.9229
17.9693 -8.7725 -1.4662 0.9229
18.2751 -8.1162 -1.4662 0.9229
-1.5003 -13.0590 -1.2620 0.9485
-1.0104 -12.8988 -1.2421 0.9493
-0.0729 -12.6447 -1.2140 0.9505
1.5682 -15.1923 -1.4663 0.9405
2.1171 -15.1255 -1.4663 0.9405
2.6632 -15.0389 -1.4663 0.9405
3.2058 -14.9326 -1.4663 0.9405
4.2778 -14.6615 -1.4663 0.9405
4.8057 -14.4970 -1.4663 0.9405
5.3273 -14.3135 -1.4663 0.9405
6.3489 -13.8905 -1.4662 0.9405
6.8475 -13.6515 -1.4662 0.9405
7.8172 -13.1203 -1.4662 0.9405
8.7460 -12.5203 -1.4662 0.9405
9.1934 -12.1954 -1.4662 0.9405
10.5074 -11.1760 -1.4727 0.9402
11.0399 -10.9216 -1.4909 0.9395
11.5868 -10.6610 -1.5116 0.9387
12.7078 -10.0967 -1.5582 0.9369
14.2304 -8.9769 -1.6153 0.9346
14.8728 -7.9399 -1.6186 0.9345
15.1504 -7.3963 -1.6186 0.9345
15.4082 -6.8430 -1.6186 0.9345
-1.5553 -13.5380 -1.6187 0.9466
-1.0076 -12.8623 -1.5325 0.9494
-0.0785 -13.6268 -1.6187 0.9466
0.4148 -13.6207 -1.6187 0.9466
1.8889 -13.4953 -1.6187 0.9466
2.8603 -13.3232 -1.6187 0.9466
3.3407 -13.2109 -1.6187 0.9466
3.8168 -13.0813 -1.6187 0.9466
4.2878 -12.9345 -1.6187 0.9466
6.5464 -11.9511 -1.6186 0.9466
6.9748 -11.7063 -1.6186 0.9466
7.3939 -11.4461 -1.6186 0.9466
8.5911 -10.5770 -1.6186 0.9466
9.3338 -9.9277 -1.6186 0.9466
9.6871 -9.5833 -1.6186 0.9466
10.0276 -9.2264 -1.6186 0.9466
10.6688 -8.4767 -1.6186 0.9466
10.9687 -8.0849 -1.6186 0.9466
11.7805 -6.8482 -1.6186 0.9466
12.0206 -6.4173 -1.6186 0.9466
12.2450 -5.9779 -1.6186 0.9466
-1.3039 -11.3497 -1.6187 0.9549
-0.8922 -11.3894 -1.6187 0.9549
-0.0658 -11.4241 -1.6187 0.9549
0.3478 -11.4190 -1.6187 0.9549
1.1730 -11.3638 -1.6187 0.9549
1.5836 -11.3139 -1.6187 0.9549
1.9921 -11.2492 -1.6187 0.9549
2.3980 -11.1696 -1.6187 0.9549
2.8007 -11.0755 -1.6187 0.9549
3.1998 -10.9668 -1.6187 0.9549
3.9849 -10.7066 -1.6187 0.9549
6.1988 -9.5959 -1.6187 0.9549
6.8768 -9.1223 -1.6186 0.9549
7.2025 -8.8674 -1.6186 0.9549
7.8251 -8.3230 -1.6186 0.9549
8.1213 -8.0343 -1.6186 0.9549
8.4068 -7.7350 -1.6186 0.9549
8.9444 -7.1065 -1.6186 0.9549
9.1957 -6.7781 -1.6186 0.9549
9.4351 -6.4408 -1.6186 0.9549
9.8763 -5.7413 -1.6186 0.9549
10.0777 -5.3800 -1.6186 0.9549
10.2658 -5.0117 -1.6186 0.9549
-0.7673 -9.7958 -1.6187 0.9609
0.2991 -9.8213 -1.6187 0.9609
1.7133 -9.6752 -1.6187 0.9610
2.7521 -9.4324 -1.6187 0.9610
3.4273 -9.2085 -1.6187 0.9610
4.0846 -8.9364 -1.6187 0.9610
5.0293 -8.4410 -1.6187 0.9610
5.9146 -7.8460 -1.6187 0.9610
6.4668 -7.3975 -1.6187 0.9610
7.4667 -6.3867 -1.6186 0.9610
7.6929 -6.1122 -1.6186 0.9610
8.4945 -4.9380 -1.6186 0.9610
8.6677 -4.6273 -1.6186 0.9610
8.8295 -4.3105 -1.6186 0.9610
8.9797 -3.9880 -1.6186 0.9610
-0.9829 -8.5557 -1.6187 0.9656
-0.3613 -8.6043 -1.6187 0.9656
-0.0496 -8.6118 -1.6187 0.9656
0.2621 -8.6079 -1.6187 0.9656
0.5736 -8.5928 -1.6187 0.9656
3.2941 -7.9569 -1.6187 0.9656
3.5799 -7.8324 -1.6187 0.9656
4.1372 -7.5529 -1.6187 0.9656
4.4079 -7.3982 -1.6187 0.9656
4.6728 -7.2337 -1.6187 0.9656
4.9316 -7.0598 -1.6187 0.9656
5.1839 -6.8767 -1.6187 0.9656
5.4295 -6.6845 -1.6187 0.9656
5.6678 -6.4836 -1.6187 0.9656
6.1221 -6.0565 -1.6187 0.9656
6.3373 -5.8309 -1.6187 0.9656
6.9320 -5.1096 -1.6187 0.9656
7.7387 -3.7780 -1.6186 0.9656
7.8704 -3.4954 -1.6186 0.9656
-0.5980 -7.6344 -1.6187 0.9692
-0.0441 -7.6577 -1.6187 0.9692
0.2331 -7.6542 -1.6187 0.9692
1.0615 -7.5838 -1.6187 0.9692
1.3353 -7.5404 -1.6187 0.9692
1.8774 -7.4240 -1.6187 0.9692
2.1449 -7.3512 -1.6187 0.9692
2.4096 -7.2687 -1.6187 0.9692
2.6711 -7.1767 -1.6187 0.9692
3.1833 -6.9647 -1.6187 0.9692
3.4334 -6.8449 -1.6187 0.9692
3.6789 -6.7161 -1.6187 0.9692
3.9196 -6.5785 -1.6187 0.9692
5.2453 -5.5790 -1.6187 0.9692
5.6352 -5.1849 -1.6187 0.9692
5.8192 -4.9775 -1.6187 0.9692
5.9956 -4.7636 -1.6187 0.9692
6.3245 -4.3174 -1.6187 0.9692
6.4766 -4.0856 -1.6187 0.9692
6.6203 -3.8485 -1.6187 0.9692
6.7553 -3.6063 -1.6187 0.9692
6.8813 -3.3594 -1.6187 0.9692
6.9984 -3.1081 -1.6187 0.9692
-0.2890 -6.8814 -1.6187 0.9721
-0.0397 -6.8873 -1.6187 0.9721
0.7071 -6.8510 -1.6187 0.9721
0.9547 -6.8209 -1.6187 0.9721
1.9291 -6.6117 -1.6187 0.9721
2.1672 -6.5375 -1.6187 0.9721
2.4024 -6.4548 -1.6187 0.9721
2.8631 -6.2640 -1.6187 0.9721
3.0880 -6.1563 -1.6187 0.9721
3.3088 -6.0405 -1.6187 0.9721
4.3422 -5.3460 -1.6187 0.9721
4.5329 -5.1853 -1.6187 0.9721
4.7176 -5.0178 -1.6187 0.9721
5.3924 -4.2844 -1.6187 0.9721
5.5440 -4.0864 -1.6187 0.9721
5.6883 -3.8831 -1.6187 0.9721
5.8251 -3.6746 -1.6187 0.9721
6.0757 -3.2435 -1.6187 0.9721
-0.7135 -6.2110 -1.6187 0.9745
-0.4882 -6.2327 -1.6187 0.9745
0.1903 -6.2489 -1.6187 0.9745
0.4164 -6.2379 -1.6187 0.9745
1.0902 -6.1560 -1.6187 0.9745
1.3123 -6.1125 -1.6187 0.9745
1.7511 -6.0015 -1.6187 0.9745
2.1807 -5.8591 -1.6187 0.9745
2.3913 -5.7763 -1.6187 0.9745
2.8030 -5.5881 -1.6187 0.9745
3.5801 -5.1251 -1.6187 0.9745
4.4443 -4.3967 -1.6187 0.9745
4.6006 -4.2330 -1.6187 0.9745
4.7508 -4.0637 -1.6187 0.9745
5.0324 -3.7093 -1.6187 0.9745
5.1633 -3.5247 -1.6187 0.9745
5.4048 -3.1419 -1.6187 0.9745
5.6179 -2.7426 -1.6187 0.9745
-0.6526 -5.6806 -1.6187 0.9765
-0.4465 -5.7005 -1.6187 0.9765
-0.0329 -5.7178 -1.6187 0.9765
0.3808 -5.7052 -1.6187 0.9765
1.6015 -5.4890 -1.6187 0.9765
1.7992 -5.4274 -1.6187 0.9765
1.9945 -5.3587 -1.6187 0.9765
2.1871 -5.2830 -1.6187 0.9765
2.7470 -5.0148 -1.6187 0.9765
2.9267 -4.9121 -1.6187 0.9765
3.4419 -4.5658 -1.6187 0.9765
3.7632 -4.3048 -1.6187 0.9765
4.0648 -4.0213 -1.6187 0.9765
4.2077 -3.8715 -1.6187 0.9765
4.6026 -3.3925 -1.6187 0.9765
4.7224 -3.2237 -1.6187 0.9765
4.9432 -2.8736 -1.6187 0.9765
5.0440 -2.6928 -1.6187 0.9765
5.1382 -2.5084 -1.6187 0.9765
5.2256 -2.3208 -1.6187 0.9765
-0.6007 -5.2284 -1.6187 0.9782
-0.4110 -5.2467 -1.6187 0.9782
-0.2208 -5.2581 -1.6187 0.9782
-0.0303 -5.2626 -1.6187 0.9782
0.1602 -5.2603 -1.6187 0.9782
0.7295 -5.2119 -1.6187 0.9782
1.1047 -5.1455 -1.6187 0.9782
1.4741 -5.0521 -1.6187 0.9782
2.0130 -4.8625 -1.6187 0.9782
2.1877 -4.7864 -1.6187 0.9782
2.3596 -4.7041 -1.6187 0.9782
2.6937 -4.5210 -1.6187 0.9782
3.1679 -4.2024 -1.6187 0.9782
3.4637 -3.9622 -1.6187 0.9782
3.6048 -3.8342 -1.6187 0.9782
4.1204 -3.2738 -1.6187 0.9782
4.4510 -2.8078 -1.6187 0.9782
4.6425 -2.4784 -1.6187 0.9782
4.8096 -2.1360 -1.6187 0.9782
-0.5558 -4.8379 -1.6187 0.9797
-0.2043 -4.8654 -1.6187 0.9797
0.1482 -4.8674 -1.6187 0.9797
0.3243 -4.8588 -1.6187 0.9797
0.5000 -4.8439 -1.6187 0.9797
0.6750 -4.8226 -1.6187 0.9797
0.8491 -4.7950 -1.6187 0.9797
1.0222 -4.7612 -1.6187 0.9797
1.6986 -4.5638 -1.6187 0.9797
1.8627 -4.4993 -1.6187 0.9797
2.0243 -4.4289 -1.6187 0.9797
2.1833 -4.3527 -1.6187 0.9797
2.3394 -4.2708 -1.6187 0.9797
3.0702 -3.7798 -1.6187 0.9797
3.2050 -3.6662 -1.6187 0.9797
3.3356 -3.5478 -1.6187 0.9797
3.5835 -3.2972 -1.6187 0.9797
3.7005 -3.1653 -1.6187 0.9797
4.1186 -2.5981 -1.6187 0.9797
4.2099 -2.4473 -1.6187 0.9797
4.4504 -1.9765 -1.6187 0.9797
-0.3535 -4.5127 -1.6187 0.9810
-0.1899 -4.5225 -1.6187 0.9810
-0.0261 -4.5264 -1.6187 0.9810
0.1378 -4.5244 -1.6187 0.9810
0.3015 -4.5164 -1.6187 0.9810
0.4648 -4.5025 -1.6187 0.9810
0.6275 -4.4828 -1.6187 0.9810
0.9501 -4.4256 -1.6187 0.9810
1.1097 -4.3883 -1.6187 0.9810
1.2678 -4.3453 -1.6187 0.9810
1.5789 -4.2422 -1.6187 0.9810
1.7314 -4.1822 -1.6187 0.9810
1.8817 -4.1168 -1.6187 0.9810
2.3169 -3.8886 -1.6187 0.9810
2.4561 -3.8021 -1.6187 0.9810
2.5921 -3.7107 -1.6187 0.9810
2.7247 -3.6145 -1.6187 0.9810
3.2179 -3.1834 -1.6187 0.9810
3.3310 -3.0648 -1.6187 0.9810
3.8283 -2.4150 -1.6187 0.9810
3.9133 -2.2748 -1.6187 0.9810
4.0676 -1.9858 -1.6187 0.9810
-0.3299 -4.2111 -1.6187 0.9821
-0.0243 -4.2239 -1.6187 0.9821
0.2813 -4.2146 -1.6187 0.9821
0.5855 -4.1832 -1.6187 0.9821
1.0355 -4.0951 -1.6187 0.9821
1.3291 -4.0094 -1.6187 0.9821
1.4734 -3.9587 -1.6187 0.9821
1.6157 -3.9027 -1.6187 0.9821
1.7559 -3.8417 -1.6187 0.9821
1.8938 -3.7756 -1.6187 0.9821
2.0293 -3.7046 -1.6187 0.9821
2.1620 -3.6287 -1.6187 0.9821
2.4189 -3.4627 -1.6187 0.9821
2.5427 -3.3729 -1.6187 0.9821
2.6631 -3.2787 -1.6187 0.9821
3.4001 -2.5062 -1.6187 0.9821
3.4886 -2.3815 -1.6187 0.9821
3.6517 -2.1228 -1.6187 0.9821
3.7957 -1.8531 -1.6187 0.9821
3.8603 -1.7144 -1.6187 0.9821
-0.3089 -3.9430 -1.6187 0.9831
-0.1659 -3.9516 -1.6187 0.9831
-0.0228 -3.9550 -1.6187 0.9831
0.6897 -3.8944 -1.6187 0.9831
0.8302 -3.8669 -1.6187 0.9831
1.1078 -3.7967 -1.6187 0.9831
1.2445 -3.7541 -1.6187 0.9831
1.3796 -3.7066 -1.6187 0.9831
1.6441 -3.5971 -1.6187 0.9831
1.7733 -3.5352 -1.6187 0.9831
2.0244 -3.3977 -1.6187 0.9831
2.2649 -3.2423 -1.6187 0.9831
2.3808 -3.1582 -1.6187 0.9831
2.4935 -3.0699 -1.6187 0.9831
2.6030 -2.9776 -1.6187 0.9831
3.0966 -2.4603 -1.6187 0.9831
3.1836 -2.3466 -1.6187 0.9831
3.2665 -2.2298 -1.6187 0.9831
3.3451 -2.1101 -1.6187 0.9831
3.4192 -1.9877 -1.6187 0.9831
3.4890 -1.8626 -1.6187 0.9831
3.5541 -1.7351 -1.6187 0.9831
3.6146 -1.6053 -1.6187 0.9831
-0.4239 -3.6899 -1.6187 0.9839
-0.2901 -3.7028 -1.6187 0.9839
-0.0214 -3.7141 -1.6187 0.9839
0.1131 -3.7125 -1.6187 0.9839
0.2474 -3.7059 -1.6187 0.9839
0.3813 -3.6945 -1.6187 0.9839
0.6477 -3.6573 -1.6187 0.9839
0.7796 -3.6314 -1.6187 0.9839
1.1687 -3.5255 -1.6187 0.9839
1.2955 -3.4809 -1.6187 0.9839
1.4207 -3.4317 -1.6187 0.9839
1.5440 -3.3780 -1.6187 0.9839
1.7844 -3.2575 -1.6187 0.9839
2.0154 -3.1198 -1.6187 0.9839
2.1270 -3.0448 -1.6187 0.9839
2.2358 -2.9658 -1.6187 0.9839
2.4445 -2.7963 -1.6187 0.9839
2.6404 -2.6121 -1.6187 0.9839
2.7332 -2.5148 -1.6187 0.9839
2.9080 -2.3105 -1.6187 0.9839
2.9897 -2.2037 -1.6187 0.9839
3.2110 -1.8666 -1.6187 0.9839
3.3377 -1.6294 -1.6187 0.9839
3.3945 -1.5075 -1.6187 0.9839
-0.3991 -3.4742 -1.6187 0.9847
-0.1467 -3.4939 -1.6187 0.9847
-0.0201 -3.4969 -1.6187 0.9847
0.1065 -3.4954 -1.6187 0.9847
0.3591 -3.4785 -1.6187 0.9847
0.7340 -3.4191 -1.6187 0.9847
0.9795 -3.3570 -1.6187 0.9847
1.1004 -3.3193 -1.6187 0.9847
1.3376 -3.2310 -1.6187 0.9847
1.6800 -3.0670 -1.6187 0.9847
1.7899 -3.0042 -1.6187 0.9847
1.8975 -2.9374 -1.6187 0.9847
2.3015 -2.6328 -1.6187 0.9847
2.4860 -2.4594 -1.6187 0.9847
2.8149 -2.0748 -1.6187 0.9847
2.9576 -1.8658 -1.6187 0.9847
3.0849 -1.6469 -1.6187 0.9847
3.1425 -1.5341 -1.6187 0.9847
3.1959 -1.4194 -1.6187 0.9847
-0.3766 -3.2784 -1.6187 0.9854
-0.2577 -3.2899 -1.6187 0.9854
-0.1384 -3.2971 -1.6187 0.9854
-0.0190 -3.2999 -1.6187 0.9854
0.4574 -3.2681 -1.6187 0.9854
0.9243 -3.1679 -1.6187 0.9854
1.1511 -3.0927 -1.6187 0.9854
1.7906 -2.7719 -1.6187 0.9854
1.8897 -2.7052 -1.6187 0.9854
1.9864 -2.6351 -1.6187 0.9854
2.0805 -2.5614 -1.6187 0.9854
2.1719 -2.4844 -1.6187 0.9854
2.2604 -2.4042 -1.6187 0.9854
2.5077 -2.1450 -1.6187 0.9854
2.9111 -1.5541 -1.6187 0.9854
3.0159 -1.3394 -1.6187 0.9854
-0.3561 -3.0998 -1.6187 0.9860
-0.1309 -3.1175 -1.6187 0.9860
0.0950 -3.1188 -1.6187 0.9860
0.3204 -3.1037 -1.6187 0.9860
0.6550 -3.0507 -1.6187 0.9860
0.8740 -2.9953 -1.6187 0.9860
1.1935 -2.8829 -1.6187 0.9860
1.2971 -2.8378 -1.6187 0.9860
1.5971 -2.6805 -1.6187 0.9860
1.8782 -2.4915 -1.6187 0.9860
2.0536 -2.3491 -1.6187 0.9860
2.1373 -2.2733 -1.6187 0.9860
2.2961 -2.1127 -1.6187 0.9860
2.3711 -2.0282 -1.6187 0.9860
2.4430 -1.9410 -1.6187 0.9860
2.5116 -1.8513 -1.6187 0.9860
2.5770 -1.7592 -1.6187 0.9860
2.7525 -1.4694 -1.6187 0.9860
-0.3373 -2.9361 -1.6187 0.9866
-0.1240 -2.9528 -1.6187 0.9866
0.1968 -2.9489 -1.6187 0.9866
0.4097 -2.9269 -1.6187 0.9866
0.5154 -2.9102 -1.6187 0.9866
0.6204 -2.8896 -1.6187 0.9866
0.8278 -2.8371 -1.6187 0.9866
0.9300 -2.8053 -1.6187 0.9866
1.2286 -2.6880 -1.6187 0.9866
1.3251 -2.6417 -1.6187 0.9866
1.4198 -2.5920 -1.6187 0.9866
1.5127 -2.5389 -1.6187 0.9866
1.6925 -2.4228 -1.6187 0.9866
1.7791 -2.3600 -1.6187 0.9866
2.1010 -2.0785 -1.6187 0.9866
2.1749 -2.0011 -1.6187 0.9866
2.3139 -1.8385 -1.6187 0.9866
2.3790 -1.7535 -1.6187 0.9866
2.4996 -1.5768 -1.6187 0.9866
2.5551 -1.4853 -1.6187 0.9866
2.6072 -1.3918 -1.6187 0.9866
0.1867 -2.7975 -1.6187 0.9871
0.3886 -2.7766 -1.6187 0.9871
0.4889 -2.7607 -1.6187 0.9871
0.5885 -2.7412 -1.6187 0.9871
0.6874 -2.7181 -1.6187 0.9871
0.9780 -2.6276 -1.6187 0.9871
1.1655 -2.5499 -1.6187 0.9871
1.3469 -2.4589 -1.6187 0.9871
1.4351 -2.4086 -1.6187 0.9871
1.5213 -2.3550 -1.6187 0.9871
1.7676 -2.1762 -1.6187 0.9871
1.8453 -2.1108 -1.6187 0.9871
1.9205 -2.0426 -1.6187 0.9871
2.0632 -1.8984 -1.6187 0.9871
2.1306 -1.8224 -1.6187 0.9871
2.1951 -1.7441 -1.6187 0.9871
2.2568 -1.6635 -1.6187 0.9871
2.3156 -1.5807 -1.6187 0.9871
2.3713 -1.4958 -1.6187 0.9871
