ply
format ascii 1.0
element vertex 421
property float32 x
property float32 y
property float32 z
property float32 I
end_header
-14.9277 11.0866 3.2787 0.9273
-15.2567 10.5070 3.2664 0.9275
-15.6211 9.1874 3.1955 0.9290
-15.7978 8.5472 3.1671 0.9296
-18.1168 8.9809 3.5655 0.9212
-22.6496 10.2372 4.3827 0.9040
-34.7601 14.2388 6.6234 0.8585
-36.3273 13.3867 6.8265 0.8545
-14.8306 11.8592 2.9090 0.9260
-15.0677 11.1907 2.8753 0.9269
-18.4271 9.1347 3.1507 0.9201
-38.7934 -10.0768 6.1401 0.8503
-12.3686 9.8905 2.0623 0.9381
-12.5210 9.2992 2.0310 0.9390
-16.1920 9.5232 2.4462 0.9270
-12.5210 9.2992 1.6748 0.9392
-15.6565 9.9773 1.9936 0.9280
-16.7681 8.3123 2.0097 0.9275
-12.5210 9.2992 1.3203 0.9393
-15.2565 10.5069 1.5681 0.9283
-13.8299 7.4825 1.3311 0.9388
-15.0634 12.0454 1.1960 0.9256
-12.5210 9.2992 0.9671 0.9394
-15.2565 10.5068 1.1487 0.9284
-15.6565 9.9774 1.1512 0.9283
-12.7896 7.5221 0.9201 0.9423
-16.7681 8.3123 1.1605 0.9277
-20.7639 9.3849 1.4130 0.9127
-28.1155 11.5170 1.8841 0.8854
-12.2443 9.7911 0.6182 0.9392
-12.4057 9.2136 0.6093 0.9400
-12.7896 7.5221 0.5851 0.9423
-19.4568 8.7941 0.8419 0.9181
-12.4057 9.2136 0.2610 0.9401
-12.5627 8.6517 0.2577 0.9408
-12.9387 7.0003 0.2485 0.9428
-15.5822 7.7244 0.2938 0.9328
-19.4568 8.7941 0.3607 0.9181
-25.6266 10.4975 0.4678 0.8951
-12.2443 9.7911 -0.0883 0.9392
-12.5627 8.6517 -0.0859 0.9408
-12.7160 8.1035 -0.0849 0.9415
-12.9387 7.0003 -0.0828 0.9429
-15.5822 7.7244 -0.0979 0.9328
-10.6872 3.9383 -0.0641 0.9555
-45.6135 -15.3986 -0.2711 0.8248
-12.2443 9.7911 -0.4414 0.9392
-12.5627 8.6517 -0.4295 0.9408
-12.7160 8.1035 -0.4246 0.9414
-12.7896 7.5221 -0.4178 0.9424
-12.9387 7.0003 -0.4142 0.9428
-39.2143 -11.6960 -1.1523 0.8490
-37.3154 -12.5973 -1.1090 0.8542
-12.2443 9.7911 -0.7951 0.9391
-12.4057 9.2136 -0.7837 0.9400
-12.5627 8.6517 -0.7736 0.9407
-12.7160 8.1034 -0.7647 0.9414
-12.7896 7.5221 -0.7525 0.9423
-19.4568 8.7941 -1.0828 0.9180
-27.7782 8.0367 -1.4665 0.8906
-28.0476 7.0397 -1.4665 0.8906
-28.2811 6.0336 -1.4665 0.8906
-31.4384 5.5415 -1.6190 0.8800
-2.9549 0.0934 -0.1499 0.9882
-2.9372 -0.0121 -0.1490 0.9883
-2.9784 -0.2255 -0.1515 0.9881
-31.5785 -4.6753 -1.6189 0.8800
-31.1642 -6.9173 -1.6189 0.8800
-30.8973 -8.0258 -1.6189 0.8800
-29.8615 -11.2840 -1.6189 0.8800
-18.2250 8.2374 -1.4665 0.9229
-18.5076 7.5813 -1.4665 0.9229
-10.5424 3.8849 -0.8238 0.9559
-2.5124 0.5360 -0.1884 0.9897
-2.4618 0.4339 -0.1833 0.9900
-2.4100 0.2492 -0.1776 0.9903
-2.4087 0.1624 -0.1770 0.9904
-2.4064 -0.0959 -0.1766 0.9904
-2.4091 -0.1824 -0.1771 0.9904
-2.4101 -0.2693 -0.1778 0.9903
-2.4335 -0.3603 -0.1804 0.9902
-21.3696 -5.5509 -1.6189 0.9153
-21.1577 -6.3104 -1.6189 0.9153
-20.6533 -7.8044 -1.6189 0.9153
-11.9293 9.5392 -1.4664 0.9405
-12.2624 9.1071 -1.4664 0.9405
-12.7160 8.1034 -1.4476 0.9412
-13.6852 6.7840 -1.4664 0.9405
-13.9187 6.2910 -1.4664 0.9405
-14.5118 4.7663 -1.4664 0.9405
-2.2300 0.5597 -0.2207 0.9908
-2.1774 0.3838 -0.2123 0.9912
-2.1565 0.3012 -0.2090 0.9913
-2.1557 0.1454 -0.2074 0.9914
-2.1534 0.0681 -0.2068 0.9914
-2.1541 -0.0858 -0.2070 0.9914
-2.1567 -0.3193 -0.2093 0.9913
-2.1835 -0.4034 -0.2132 0.9911
-2.2099 -0.4905 -0.2173 0.9909
-16.1585 -4.8194 -1.6188 0.9345
-15.9761 -5.3933 -1.6188 0.9345
-9.6413 7.7096 -1.4664 0.9515
-9.9105 7.3604 -1.4664 0.9515
-10.1670 7.0019 -1.4664 0.9515
-10.4106 6.6343 -1.4664 0.9515
-10.6409 6.2583 -1.4664 0.9515
-11.0605 5.4829 -1.4664 0.9515
-11.2492 5.0844 -1.4664 0.9515
-11.4236 4.6795 -1.4664 0.9515
-10.4696 3.8581 -1.3254 0.9560
-2.0827 0.6840 -0.2604 0.9912
-2.0664 0.5978 -0.2555 0.9914
-2.0499 0.5145 -0.2511 0.9915
-2.0333 0.4338 -0.2470 0.9917
-2.0173 0.3556 -0.2433 0.9918
-2.0083 0.2077 -0.2398 0.9919
-2.0008 0.0632 -0.2378 0.9920
-12.9120 -4.3589 -1.6188 0.9466
-8.0828 6.4634 -1.4664 0.9591
-8.5235 5.8700 -1.4664 0.9591
-8.9208 5.2467 -1.4664 0.9591
-1.9719 0.6477 -0.2941 0.9917
-1.9584 0.5666 -0.2889 0.9918
-1.9446 0.4881 -0.2841 0.9919
-1.9321 0.4122 -0.2799 0.9921
-1.9192 0.2680 -0.2746 0.9922
-1.9170 0.1982 -0.2731 0.9922
-1.9141 0.1291 -0.2718 0.9923
-1.9095 0.0604 -0.2707 0.9923
-1.9108 -0.0761 -0.2710 0.9923
-1.9148 -0.1449 -0.2721 0.9923
-1.9176 -0.2142 -0.2734 0.9922
-1.9232 -0.3554 -0.2771 0.9921
-1.9346 -0.4294 -0.2808 0.9920
-1.9615 -0.5850 -0.2900 0.9918
-1.9750 -0.6667 -0.2953 0.9916
-10.6873 -4.0385 -1.6188 0.9549
-6.9518 5.5590 -1.4664 0.9646
-7.6725 4.5125 -1.4664 0.9646
-7.8288 4.2357 -1.4664 0.9646
-7.9751 3.9534 -1.4664 0.9646
-8.1112 3.6661 -1.4664 0.9646
-8.2369 3.3741 -1.4664 0.9646
-1.8823 0.6936 -0.3305 0.9919
-1.8717 0.6147 -0.3245 0.9920
-1.8514 0.4647 -0.3145 0.9923
-1.8358 0.3236 -0.3071 0.9925
-1.8348 0.2562 -0.3052 0.9925
-1.8332 0.1896 -0.3036 0.9926
-1.8299 0.1234 -0.3021 0.9926
-1.8249 0.0577 -0.3008 0.9926
-1.8261 -0.0728 -0.3011 0.9926
-1.8309 -0.1386 -0.3025 0.9926
-1.8351 -0.2717 -0.3056 0.9925
-1.8359 -0.3392 -0.3076 0.9925
-1.8534 -0.4814 -0.3155 0.9923
-9.1919 -3.4734 -1.6188 0.9609
-6.4252 4.4249 -1.4664 0.9687
-6.5791 4.1926 -1.4664 0.9687
-6.7246 3.9550 -1.4664 0.9687
-6.8616 3.7123 -1.4664 0.9687
-7.1228 3.2194 -1.4692 0.9687
-1.7745 0.5134 -0.3472 0.9925
-1.7673 0.4436 -0.3425 0.9926
-1.7570 0.2454 -0.3335 0.9928
-1.7550 0.1815 -0.3316 0.9928
-1.7513 0.1181 -0.3299 0.9929
-1.7557 -0.1962 -0.3321 0.9928
-1.7572 -0.2602 -0.3339 0.9928
-1.7690 -0.4595 -0.3435 0.9926
-1.7909 -0.6767 -0.3599 0.9922
-5.4179 4.3324 -1.4664 0.9720
-5.8501 3.7281 -1.4664 0.9720
-5.9796 3.5168 -1.4664 0.9720
-6.6123 3.2778 -1.5600 0.9703
-1.7009 0.5587 -0.3784 0.9927
-1.6849 0.2970 -0.3617 0.9930
-1.6843 0.2352 -0.3595 0.9931
-1.6818 0.1739 -0.3574 0.9931
-1.6787 0.1132 -0.3556 0.9931
-1.6747 0.0529 -0.3542 0.9932
-1.6757 -0.0668 -0.3545 0.9932
-1.6795 -0.1271 -0.3560 0.9931
-1.6847 -0.2494 -0.3600 0.9931
-1.6848 -0.3113 -0.3622 0.9930
-1.6913 -0.4393 -0.3694 0.9929
-5.1763 3.5648 -1.4771 0.9745
-5.4817 3.4933 -1.5277 0.9736
-5.8158 3.4205 -1.5857 0.9727
-6.0362 3.2658 -1.6130 0.9722
-6.1609 3.0541 -1.6161 0.9721
-1.6325 0.6687 -0.4146 0.9928
-1.6301 0.6007 -0.4083 0.9929
-1.6270 0.5344 -0.4025 0.9930
-1.6183 0.4062 -0.3921 0.9932
-1.6169 0.2850 -0.3859 0.9933
-1.6158 0.2257 -0.3834 0.9933
-1.6139 0.1669 -0.3813 0.9934
-1.6077 0.0508 -0.3780 0.9934
-1.6044 -0.0066 -0.3771 0.9934
-1.6119 -0.1220 -0.3799 0.9934
-1.6162 -0.2393 -0.3840 0.9933
-1.6278 -0.5495 -0.4038 0.9930
-1.6308 -0.6162 -0.4097 0.9929
-4.6054 3.6827 -1.5268 0.9759
-5.1259 3.5301 -1.6115 0.9746
-5.3820 3.1654 -1.6166 0.9745
-5.4988 2.9750 -1.6188 0.9745
-5.6015 2.7768 -1.6188 0.9745
-1.5717 0.7104 -0.4466 0.9929
-1.5682 0.6424 -0.4388 0.9930
-1.5639 0.5763 -0.4316 0.9931
-1.5556 0.4501 -0.4193 0.9933
-1.5519 0.3895 -0.4143 0.9934
-1.5528 0.2737 -0.4082 0.9935
-1.5483 0.1044 -0.4018 0.9936
-1.5451 0.0488 -0.4003 0.9936
-1.5422 -0.0063 -0.3993 0.9936
-1.5459 -0.0616 -0.4006 0.9936
-1.5489 -0.1172 -0.4022 0.9936
-1.5528 -0.2869 -0.4089 0.9935
-1.5525 -0.3446 -0.4117 0.9935
-1.5603 -0.5267 -0.4264 0.9932
-1.5650 -0.5914 -0.4332 0.9931
-4.5815 3.4027 -1.6156 0.9766
-4.8222 3.0730 -1.6187 0.9765
-1.6468 0.9686 -0.5409 0.9921
-5.0292 2.7210 -1.6188 0.9765
-1.5118 0.6833 -0.4697 0.9931
-1.5094 0.6183 -0.4618 0.9932
-1.5025 0.4935 -0.4477 0.9934
-1.4943 0.2087 -0.4271 0.9937
-1.4908 0.1005 -0.4230 0.9938
-1.4886 -0.0593 -0.4218 0.9938
-1.4913 -0.1129 -0.4234 0.9938
-1.4933 -0.1668 -0.4254 0.9938
-1.4945 -0.2213 -0.4277 0.9937
-1.4950 -0.2762 -0.4304 0.9937
-1.4990 -0.4471 -0.4428 0.9935
-1.5034 -0.5075 -0.4492 0.9934
-4.2251 3.1379 -1.6187 0.9782
-4.3344 2.9850 -1.6187 0.9782
-1.5371 0.9041 -0.5485 0.9926
-4.6288 2.5044 -1.6187 0.9782
-1.4492 0.4760 -0.4692 0.9936
-1.4458 0.4183 -0.4629 0.9937
-1.4460 0.2549 -0.4516 0.9939
-1.4456 0.2019 -0.4490 0.9939
-1.4407 -0.0574 -0.4435 0.9940
-1.4431 -0.1092 -0.4451 0.9940
-1.4448 -0.1614 -0.4472 0.9939
-1.4459 -0.2671 -0.4523 0.9939
-1.4454 -0.3208 -0.4554 0.9938
-1.4440 -0.3751 -0.4589 0.9938
-1.4526 -0.5489 -0.4776 0.9935
-3.8033 3.0413 -1.6187 0.9797
-3.9095 2.9035 -1.6187 0.9797
-4.0107 2.7621 -1.6187 0.9797
-1.5371 0.9041 -0.5928 0.9925
-1.4460 0.7823 -0.5465 0.9931
-1.4023 0.5744 -0.5037 0.9936
-1.3991 0.4595 -0.4895 0.9938
-1.3967 0.4041 -0.4833 0.9939
-1.3973 0.3507 -0.4789 0.9939
-1.3988 0.2984 -0.4754 0.9940
-1.3909 0.0440 -0.4626 0.9942
-1.3973 -0.1058 -0.4658 0.9941
-1.3994 -0.2072 -0.4703 0.9941
-1.3994 -0.2586 -0.4730 0.9940
-1.3985 -0.3104 -0.4762 0.9940
-1.3968 -0.3628 -0.4797 0.9939
-1.3973 -0.4168 -0.4847 0.9939
-1.3996 -0.4725 -0.4910 0.9938
-1.4013 -0.5295 -0.4980 0.9937
-3.5353 2.8270 -1.6187 0.9810
-3.6340 2.6989 -1.6187 0.9810
-3.7280 2.5674 -1.6187 0.9810
-3.8174 2.4327 -1.6187 0.9810
-1.5110 0.8887 -0.6269 0.9926
-1.3496 0.7302 -0.5487 0.9935
-1.3517 0.6701 -0.5395 0.9936
-1.3529 0.6115 -0.5309 0.9937
-1.3532 0.5543 -0.5229 0.9938
-1.3529 0.4986 -0.5156 0.9939
-1.3543 0.2889 -0.4952 0.9941
-1.3513 0.0911 -0.4843 0.9943
-1.3554 -0.2007 -0.4900 0.9942
-1.3551 -0.2504 -0.4928 0.9942
-1.3539 -0.3005 -0.4960 0.9941
-1.3507 -0.4029 -0.5040 0.9940
-3.2990 2.6380 -1.6187 0.9821
-3.3911 2.5186 -1.6187 0.9821
-3.4789 2.3958 -1.6187 0.9821
-1.3010 0.7039 -0.5669 0.9937
-1.3039 0.6464 -0.5577 0.9938
-1.3057 0.5902 -0.5491 0.9939
-1.3071 0.3781 -0.5214 0.9942
-1.3099 0.3288 -0.5175 0.9942
-1.3130 0.2314 -0.5109 0.9943
-1.3062 0.0881 -0.5017 0.9944
-1.3077 -0.0990 -0.5026 0.9944
-1.3131 -0.1467 -0.5063 0.9944
-1.3128 -0.2426 -0.5116 0.9943
-1.3093 -0.3401 -0.5184 0.9942
-1.3064 -0.3896 -0.5224 0.9942
-1.3073 -0.4413 -0.5288 0.9941
-3.0890 2.4701 -1.6187 0.9831
-3.3354 2.1256 -1.6187 0.9831
-1.2586 0.6239 -0.5749 0.9939
-1.2614 0.5701 -0.5666 0.9940
-1.2633 0.5175 -0.5588 0.9941
-1.2644 0.4659 -0.5515 0.9942
-1.2646 0.4153 -0.5448 0.9943
-1.2691 0.3186 -0.5355 0.9944
-1.2727 0.2243 -0.5289 0.9944
-1.2732 0.1778 -0.5262 0.9945
-1.2688 0.1312 -0.5221 0.9945
-1.2520 -0.0052 -0.5124 0.9946
-1.2587 -0.0502 -0.5156 0.9946
-1.2724 -0.2351 -0.5296 0.9944
-1.2709 -0.2821 -0.5328 0.9944
-1.2653 -0.3774 -0.5404 0.9943
-1.2646 -0.4269 -0.5463 0.9942
-1.2642 -0.4777 -0.5531 0.9942
-2.9008 2.3196 -1.6187 0.9839
-2.9818 2.2146 -1.6187 0.9839
-3.0590 2.1067 -1.6187 0.9839
-1.2004 0.7650 -0.6204 0.9938
-1.2065 0.7096 -0.6100 0.9939
-1.2193 0.5511 -0.5832 0.9942
-1.2217 0.5005 -0.5754 0.9943
-1.2239 0.4020 -0.5614 0.9944
-1.2325 0.2629 -0.5492 0.9945
-1.2341 0.2175 -0.5461 0.9945
-1.2275 0.1269 -0.5378 0.9946
-1.2169 0.0385 -0.5306 0.9947
-1.2120 -0.0050 -0.5282 0.9947
-1.2183 -0.0486 -0.5314 0.9947
-1.2238 -0.0926 -0.5349 0.9947
-1.2285 -0.1373 -0.5388 0.9946
-1.2338 -0.2279 -0.5468 0.9945
-1.2321 -0.2735 -0.5500 0.9945
-1.2261 -0.3657 -0.5576 0.9944
-1.2239 -0.4132 -0.5630 0.9944
-1.2230 -0.4621 -0.5698 0.9943
-1.1648 0.6851 -0.6255 0.9941
-1.1792 0.5330 -0.5990 0.9943
-1.1840 0.4363 -0.5841 0.9945
-1.1853 0.3893 -0.5775 0.9945
-1.1954 0.2550 -0.5658 0.9946
-1.1948 0.2106 -0.5616 0.9947
-1.1918 0.1664 -0.5570 0.9947
-1.1836 0.0798 -0.5491 0.9948
-1.1783 0.0372 -0.5457 0.9948
-1.1796 -0.0470 -0.5464 0.9948
-1.1847 -0.0897 -0.5499 0.9948
-1.1925 -0.1766 -0.5580 0.9947
-1.1948 -0.2652 -0.5665 0.9946
-1.1921 -0.3097 -0.5701 0.9946
-1.1886 -0.3545 -0.5741 0.9945
-1.1849 -0.4000 -0.5789 0.9945
-1.1836 -0.4473 -0.5857 0.9944
-2.5773 2.0609 -1.6187 0.9854
-1.1661 0.8660 -0.7125 0.9935
-1.1097 0.7642 -0.6609 0.9940
-1.1408 0.5156 -0.6141 0.9944
-1.1464 0.4225 -0.5993 0.9946
-1.1492 0.3774 -0.5933 0.9946
-1.1580 0.2471 -0.5808 0.9947
-1.1562 0.2038 -0.5759 0.9948
-1.1537 0.1611 -0.5714 0.9948
-1.1503 0.1189 -0.5673 0.9949
-1.1462 0.0773 -0.5635 0.9949
-1.1425 -0.0455 -0.5609 0.9949
-1.1472 -0.0868 -0.5644 0.9949
-1.1512 -0.1286 -0.5682 0.9949
-1.1543 -0.1709 -0.5724 0.9948
-1.1526 -0.3438 -0.5900 0.9947
-1.1460 -0.4330 -0.6009 0.9946
-1.0701 0.8557 -0.7108 0.9938
-1.0620 0.7314 -0.6690 0.9942
-1.0941 0.5919 -0.6454 0.9944
-1.1041 0.4991 -0.6286 0.9946
-1.1077 0.4537 -0.6210 0.9946
-1.1104 0.4092 -0.6139 0.9947
-1.1144 0.3660 -0.6085 0.9947
-1.1189 0.3237 -0.6042 0.9948
-1.1213 0.2814 -0.5997 0.9948
-1.1207 0.2391 -0.5945 0.9948
-1.1171 0.1560 -0.5852 0.9949
-1.1019 -0.0045 -0.5716 0.9950
-1.1070 -0.0441 -0.5747 0.9950
-1.1177 -0.1655 -0.5862 0.9949
-1.1197 -0.2069 -0.5907 0.9949
-1.1213 -0.2913 -0.6010 0.9948
-1.1179 -0.3334 -0.6052 0.9948
-1.1099 -0.4194 -0.6155 0.9947
-0.9925 0.7371 -0.6771 0.9944
-1.0125 0.6973 -0.6733 0.9944
-1.0583 0.5726 -0.6590 0.9945
-1.0794 0.1116 -0.5943 0.9951
-1.0768 -0.0815 -0.5915 0.9951
-1.0842 -0.2003 -0.6039 0.9950
-1.0851 -0.2408 -0.6088 0.9949
-1.0852 -0.2819 -0.6141 0.9949
-1.0843 -0.3234 -0.6198 0.9949
-1.0798 -0.3645 -0.6242 0.9948
-1.0752 -0.4063 -0.6295 0.9948
-0.9264 0.7408 -0.6848 0.9945
-0.9470 0.7033 -0.6810 0.9946
-1.0010 0.5887 -0.6705 0.9947
-1.0499 0.1850 -0.6155 0.9951
-1.0460 0.1082 -0.6071 0.9952
-1.0428 0.0703 -0.6034 0.9952
-1.0390 0.0328 -0.6001 0.9952
-1.0487 -0.1553 -0.6121 0.9951
-1.0501 -0.1940 -0.6166 0.9951
-1.0507 -0.2332 -0.6214 0.9950
-1.0504 -0.2729 -0.6266 0.9950
-1.0494 -0.3130 -0.6322 0.9950
-1.0474 -0.3536 -0.6382 0.9949
