ply
format ascii 1.0
element vertex 371
property float32 x
property float32 y
property float32 z
property float32 I
end_header
34.7858 14.6267 5.7809 0.8584
38.8264 25.1756 -0.2605 0.8310
26.9803 -10.8308 -1.4744 0.8901
27.8732 -7.8767 -1.4689 0.8905
28.0949 -6.8742 -1.4668 0.8906
28.3065 -5.8713 -1.4661 0.8907
23.9593 -3.2209 -1.2260 0.9077
28.7697 -2.8339 -1.4661 0.8907
28.8521 -1.8126 -1.4661 0.8907
28.8982 -0.7890 -1.4661 0.8907
28.8815 1.2598 -1.4661 0.8907
28.8188 2.2825 -1.4661 0.8907
28.7198 3.3023 -1.4661 0.8907
29.4040 4.4417 -1.5081 0.8877
30.2123 5.6655 -1.5589 0.8842
30.9962 6.9579 -1.6111 0.8805
30.5658 9.1779 -1.6185 0.8800
30.2214 10.2554 -1.6185 0.8800
29.8392 11.3200 -1.6185 0.8800
27.9406 15.4229 -1.6185 0.8800
27.3765 16.4034 -1.6185 0.8800
26.7781 17.3633 -1.6185 0.8800
26.1461 18.3015 -1.6185 0.8800
18.5568 -7.4494 -1.4662 0.9229
19.1172 -6.1418 -1.4723 0.9226
20.5384 -5.0253 -1.5503 0.9187
21.2758 -4.4130 -1.5932 0.9165
21.7135 -3.7066 -1.6151 0.9154
21.8777 -2.9411 -1.6185 0.9153
21.9681 -2.1639 -1.6185 0.9153
22.0738 0.1799 -1.6185 0.9153
22.0535 0.9620 -1.6185 0.9153
22.0056 1.7429 -1.6185 0.9153
21.8270 3.2972 -1.6186 0.9153
20.9039 7.0936 -1.6186 0.9153
20.6395 7.8299 -1.6186 0.9153
20.3490 8.5564 -1.6186 0.9153
18.9360 11.3460 -1.6186 0.9153
18.5221 12.0100 -1.6186 0.9153
18.0849 12.6588 -1.6186 0.9153
15.8586 -5.7224 -1.6186 0.9345
16.0514 -5.1568 -1.6186 0.9345
16.3763 -4.0070 -1.6186 0.9345
16.7782 -1.6527 -1.6186 0.9345
16.8262 -1.0571 -1.6186 0.9345
16.8531 -0.4601 -1.6186 0.9345
16.8434 0.7347 -1.6186 0.9345
16.8068 1.3311 -1.6186 0.9345
16.7491 1.9259 -1.6186 0.9345
16.5706 3.1074 -1.6186 0.9345
16.4501 3.6926 -1.6186 0.9345
15.9654 5.4177 -1.6186 0.9345
15.5416 6.5349 -1.6186 0.9345
15.3003 7.0816 -1.6186 0.9345
15.0397 7.6194 -1.6186 0.9345
14.4623 8.6655 -1.6186 0.9345
14.1462 9.1726 -1.6186 0.9345
12.8174 -4.6250 -1.6186 0.9466
13.4320 -2.2929 -1.6186 0.9466
13.5995 -0.8544 -1.6186 0.9466
13.6212 -0.3719 -1.6186 0.9466
13.6133 0.5938 -1.6186 0.9466
13.5837 1.0758 -1.6186 0.9466
13.5371 1.5565 -1.6186 0.9466
13.4735 2.0353 -1.6186 0.9466
13.2955 2.9845 -1.6186 0.9466
13.1814 3.4538 -1.6186 0.9466
13.0507 3.9187 -1.6186 0.9466
12.1555 6.1582 -1.6186 0.9466
11.9297 6.5851 -1.6186 0.9466
11.4333 7.4135 -1.6186 0.9466
11.1634 7.8140 -1.6186 0.9466
10.6015 -4.2558 -1.6186 0.9549
10.8763 -3.4942 -1.6186 0.9549
11.0964 -2.7151 -1.6186 0.9549
11.1857 -2.3201 -1.6186 0.9549
11.3219 -1.5220 -1.6186 0.9549
11.3687 -1.1199 -1.6186 0.9549
11.4013 -0.7163 -1.6186 0.9549
11.4195 -0.3118 -1.6186 0.9549
11.4234 0.0931 -1.6186 0.9549
11.3490 1.3050 -1.6186 0.9549
11.2957 1.7063 -1.6186 0.9549
10.6811 4.0520 -1.6186 0.9549
10.3673 4.7984 -1.6186 0.9549
10.1907 5.1628 -1.6186 0.9549
10.0014 5.5207 -1.6186 0.9549
9.5852 6.2152 -1.6186 0.9549
9.3590 6.5510 -1.6186 0.9549
9.3546 -3.0053 -1.6186 0.9610
9.5439 -2.3352 -1.6186 0.9610
9.6854 -1.6533 -1.6186 0.9610
9.7379 -1.3091 -1.6186 0.9610
9.8218 -0.2682 -1.6186 0.9610
9.7948 0.7758 -1.6186 0.9610
9.7612 1.1224 -1.6186 0.9610
9.5869 2.1520 -1.6186 0.9610
9.5046 2.4904 -1.6186 0.9610
9.0574 3.8085 -1.6186 0.9610
8.6021 4.7483 -1.6187 0.9610
8.4284 5.0501 -1.6187 0.9610
8.2442 5.3456 -1.6187 0.9610
8.0496 5.6344 -1.6187 0.9610
8.3649 -2.0467 -1.6186 0.9656
8.4888 -1.4491 -1.6186 0.9656
8.5348 -1.1474 -1.6186 0.9656
8.5701 -0.8442 -1.6186 0.9656
8.5897 -0.2345 -1.6151 0.9656
8.6113 0.0702 -1.6186 0.9656
8.6034 0.3753 -1.6186 0.9656
8.5150 1.2863 -1.6186 0.9656
8.4641 1.5872 -1.6186 0.9656
8.4025 1.8862 -1.6186 0.9656
8.3304 2.1827 -1.6187 0.9656
8.2479 2.4766 -1.6187 0.9656
8.1549 2.7673 -1.6187 0.9656
8.0517 3.0546 -1.6187 0.9656
7.9384 3.3380 -1.6187 0.9656
7.6821 3.8919 -1.6187 0.9656
7.5393 4.1616 -1.6187 0.9656
7.2257 4.6852 -1.6187 0.9656
7.0551 4.9383 -1.6187 0.9656
7.1063 -2.8527 -1.6187 0.9692
7.2030 -2.5991 -1.6187 0.9692
7.2906 -2.3422 -1.6187 0.9692
7.4381 -1.8200 -1.6187 0.9692
7.4980 -1.5552 -1.6187 0.9692
7.5484 -1.2885 -1.6187 0.9692
7.6207 -0.7506 -1.6187 0.9692
7.6425 -0.4801 -1.6187 0.9692
7.6573 0.0624 -1.6187 0.9692
7.6503 0.3337 -1.6187 0.9692
7.6337 0.6046 -1.6187 0.9692
7.6074 0.8747 -1.6187 0.9692
7.5264 1.4114 -1.6187 0.9692
7.4716 1.6772 -1.6187 0.9692
7.4075 1.9409 -1.6187 0.9692
7.3341 2.2022 -1.6187 0.9692
7.2514 2.4607 -1.6187 0.9692
6.9493 3.2165 -1.6187 0.9692
6.8310 3.4607 -1.6187 0.9692
6.7041 3.7006 -1.6187 0.9692
6.4251 4.1662 -1.6187 0.9692
6.2735 4.3912 -1.6187 0.9692
6.4784 -2.3376 -1.6187 0.9721
6.7437 -1.3988 -1.6187 0.9721
6.8737 -0.4318 -1.6187 0.9721
6.8870 0.0561 -1.6187 0.9721
6.8807 0.3001 -1.6187 0.9721
6.8657 0.5438 -1.6187 0.9721
6.8422 0.7867 -1.6187 0.9721
6.8100 1.0287 -1.6187 0.9721
6.7693 1.2694 -1.6187 0.9721
6.7200 1.5085 -1.6187 0.9721
6.5220 2.2132 -1.6187 0.9721
6.3488 2.6696 -1.6187 0.9721
6.2503 2.8929 -1.6187 0.9721
6.1438 3.1126 -1.6187 0.9721
5.9079 3.5399 -1.6187 0.9721
5.8017 -2.3290 -1.6187 0.9745
5.8805 -2.1219 -1.6187 0.9745
6.0725 -1.4858 -1.6187 0.9745
6.1214 -1.2697 -1.6187 0.9745
6.1625 -1.0520 -1.6187 0.9745
6.1959 -0.8329 -1.6187 0.9745
6.2215 -0.6128 -1.6187 0.9745
6.2394 -0.3920 -1.6187 0.9745
6.2321 0.4936 -1.6187 0.9745
6.2108 0.7141 -1.6187 0.9745
6.1815 0.9338 -1.6187 0.9745
6.0999 1.3693 -1.6187 0.9745
5.9876 1.7979 -1.6187 0.9745
5.9201 2.0089 -1.6187 0.9745
5.8452 2.2175 -1.6187 0.9745
5.7629 2.4232 -1.6187 0.9745
5.6734 2.6259 -1.6187 0.9745
5.4732 3.0212 -1.6187 0.9745
5.3627 3.2132 -1.6187 0.9745
5.2455 3.4013 -1.6187 0.9745
5.1217 3.5850 -1.6187 0.9745
5.3062 -2.1301 -1.6187 0.9765
5.4438 -1.7489 -1.6187 0.9765
5.5023 -1.5549 -1.6187 0.9765
5.5540 -1.3589 -1.6187 0.9765
5.6363 -0.9621 -1.6187 0.9765
5.6903 -0.5605 -1.6187 0.9765
5.7065 -0.3585 -1.6187 0.9765
5.7157 -0.1561 -1.6187 0.9765
5.7124 0.2492 -1.6187 0.9765
5.6804 0.6532 -1.6187 0.9765
5.6199 1.0538 -1.6187 0.9765
5.5311 1.4493 -1.6187 0.9765
5.4763 1.6444 -1.6187 0.9765
5.4145 1.8374 -1.6187 0.9765
5.3460 2.0281 -1.6187 0.9765
5.2708 2.2163 -1.6187 0.9765
5.1890 2.4017 -1.6187 0.9765
4.7976 3.1108 -1.6187 0.9765
4.8838 -1.9605 -1.6187 0.9782
4.9502 -1.7862 -1.6187 0.9782
5.0643 -1.4311 -1.6187 0.9782
5.1530 -1.0688 -1.6187 0.9782
5.1876 -0.8855 -1.6187 0.9782
5.2523 -0.3300 -1.6187 0.9782
5.2624 0.0429 -1.6187 0.9782
5.2462 0.4155 -1.6187 0.9782
5.1349 1.1526 -1.6187 0.9782
5.0908 1.3339 -1.6187 0.9782
5.0403 1.5135 -1.6187 0.9782
4.9835 1.6911 -1.6187 0.9782
4.9205 1.8667 -1.6187 0.9782
4.8512 2.0399 -1.6187 0.9782
4.6946 2.3783 -1.6187 0.9782
4.5143 2.7049 -1.6187 0.9782
4.3114 3.0179 -1.6187 0.9782
4.5805 -1.6528 -1.6187 0.9797
4.6362 -1.4895 -1.6187 0.9797
4.7681 -0.9890 -1.6187 0.9797
4.8001 -0.8194 -1.6187 0.9797
4.8600 -0.3053 -1.6187 0.9797
4.8694 0.0397 -1.6187 0.9797
4.8150 0.7273 -1.6187 0.9797
4.7513 1.0666 -1.6187 0.9797
4.5530 1.7272 -1.6187 0.9797
4.4192 2.0454 -1.6187 0.9797
4.3439 2.2007 -1.6187 0.9797
4.0859 2.6493 -1.6187 0.9797
4.2006 -1.6863 -1.6187 0.9810
4.2577 -1.5363 -1.6187 0.9810
4.3558 -1.2309 -1.6187 0.9810
4.4321 -0.9193 -1.6187 0.9810
4.4860 -0.6031 -1.6187 0.9810
4.5046 -0.4437 -1.6187 0.9810
4.5247 -0.1235 -1.6187 0.9810
4.5263 0.0369 -1.6187 0.9810
4.5221 0.1973 -1.6187 0.9810
4.4757 0.6761 -1.6187 0.9810
4.4489 0.8343 -1.6187 0.9810
4.4165 0.9914 -1.6187 0.9810
4.3786 1.1473 -1.6187 0.9810
4.3352 1.3017 -1.6187 0.9810
4.2321 1.6055 -1.6187 0.9810
3.7979 2.4626 -1.6187 0.9810
3.9732 -1.4337 -1.6187 0.9821
4.0647 -1.1487 -1.6187 0.9821
4.1862 -0.5628 -1.6187 0.9821
4.2036 -0.4141 -1.6187 0.9821
4.2156 -0.2648 -1.6187 0.9821
4.2224 -0.1153 -1.6187 0.9821
4.2238 0.0344 -1.6187 0.9821
4.2107 0.3335 -1.6187 0.9821
4.1963 0.4825 -1.6187 0.9821
4.1765 0.6309 -1.6187 0.9821
4.1516 0.7785 -1.6187 0.9821
4.0455 1.2147 -1.6187 0.9821
3.9999 1.3573 -1.6187 0.9821
3.9493 1.4982 -1.6187 0.9821
3.7680 1.9089 -1.6187 0.9821
3.6980 2.0412 -1.6187 0.9821
3.6233 2.1710 -1.6187 0.9821
3.4604 2.4222 -1.6187 0.9821
3.6703 -1.4734 -1.6187 0.9831
3.8060 -1.0755 -1.6187 0.9831
3.8726 -0.8032 -1.6187 0.9831
3.9359 -0.3877 -1.6187 0.9831
3.9472 -0.2480 -1.6187 0.9831
3.9535 -0.1079 -1.6187 0.9831
3.9512 0.1723 -1.6187 0.9831
3.9427 0.3123 -1.6187 0.9831
3.8259 1.0025 -1.6187 0.9831
3.7452 1.2709 -1.6187 0.9831
3.6979 1.4028 -1.6187 0.9831
3.6458 1.5330 -1.6187 0.9831
3.5892 1.6612 -1.6187 0.9831
3.5281 1.7874 -1.6187 0.9831
3.4625 1.9113 -1.6187 0.9831
3.3926 2.0328 -1.6187 0.9831
3.3185 2.1517 -1.6187 0.9831
3.4937 -1.2606 -1.6187 0.9839
3.5361 -1.1360 -1.6187 0.9839
3.6367 -0.7543 -1.6187 0.9839
3.6612 -0.6250 -1.6187 0.9839
3.6810 -0.4948 -1.6187 0.9839
3.6962 -0.3641 -1.6187 0.9839
3.7068 -0.2329 -1.6187 0.9839
3.7140 0.0302 -1.6187 0.9839
3.7106 0.1619 -1.6187 0.9839
3.7026 0.2932 -1.6187 0.9839
3.6725 0.5548 -1.6187 0.9839
3.6240 0.8135 -1.6187 0.9839
3.4727 1.3174 -1.6187 0.9839
3.4238 1.4397 -1.6187 0.9839
3.3706 1.5601 -1.6187 0.9839
3.1164 2.0207 -1.6187 0.9839
3.0428 2.1299 -1.6187 0.9839
3.2452 -1.3027 -1.6187 0.9847
3.2894 -1.1869 -1.6187 0.9847
3.3294 -1.0696 -1.6187 0.9847
3.4241 -0.7102 -1.6187 0.9847
3.4471 -0.5884 -1.6187 0.9847
3.4658 -0.4659 -1.6187 0.9847
3.4901 -0.2193 -1.6187 0.9847
3.4968 0.0285 -1.6187 0.9847
3.4741 0.3995 -1.6187 0.9847
3.4371 0.6445 -1.6187 0.9847
3.4120 0.7659 -1.6187 0.9847
3.3115 1.1237 -1.6187 0.9847
3.2236 1.3555 -1.6187 0.9847
3.1195 1.5804 -1.6187 0.9847
3.0615 1.6899 -1.6187 0.9847
2.9997 1.7974 -1.6187 0.9847
2.9342 1.9025 -1.6187 0.9847
3.0624 -1.2293 -1.6187 0.9854
3.1040 -1.1200 -1.6187 0.9854
3.1755 -0.8974 -1.6187 0.9854
3.2987 -0.0901 -1.6187 0.9854
3.2998 0.0269 -1.6187 0.9854
3.2198 0.7228 -1.6187 0.9854
3.1605 0.9490 -1.6187 0.9854
3.1249 1.0604 -1.6187 0.9854
3.0854 1.1705 -1.6187 0.9854
2.9947 1.3861 -1.6187 0.9854
2.9437 1.4913 -1.6187 0.9854
2.8307 1.6961 -1.6187 0.9854
2.7035 1.8923 -1.6187 0.9854
2.8956 -1.1624 -1.6187 0.9860
2.9350 -1.0590 -1.6187 0.9860
3.0026 -0.8485 -1.6187 0.9860
3.0552 -0.6337 -1.6187 0.9860
3.0924 -0.4157 -1.6187 0.9860
3.1052 -0.3059 -1.6187 0.9860
3.1141 -0.1956 -1.6187 0.9860
3.1172 0.1360 -1.6187 0.9860
3.0852 0.4661 -1.6187 0.9860
3.0667 0.5751 -1.6187 0.9860
3.0444 0.6834 -1.6187 0.9860
2.9884 0.8973 -1.6187 0.9860
2.9547 1.0027 -1.6187 0.9860
2.7317 1.5079 -1.6187 0.9860
2.6765 1.6037 -1.6187 0.9860
2.5562 1.7893 -1.6187 0.9860
2.7427 -1.1010 -1.6187 0.9866
2.7800 -1.0031 -1.6187 0.9866
2.8138 -0.9040 -1.6187 0.9866
2.8938 -0.6002 -1.6187 0.9866
2.9496 -0.1853 -1.6187 0.9866
2.9553 0.0241 -1.6187 0.9866
2.9526 0.1288 -1.6187 0.9866
2.9223 0.4414 -1.6187 0.9866
2.7632 1.0483 -1.6187 0.9866
2.5874 1.4282 -1.6187 0.9866
2.5352 1.5190 -1.6187 0.9866
2.4797 1.6079 -1.6187 0.9866
2.4212 1.6948 -1.6187 0.9866
2.6018 -1.0445 -1.6187 0.9871
2.6372 -0.9516 -1.6187 0.9871
2.6693 -0.8576 -1.6187 0.9871
2.6980 -0.7624 -1.6187 0.9871
2.7233 -0.6663 -1.6187 0.9871
2.7452 -0.5694 -1.6187 0.9871
2.7787 -0.3735 -1.6187 0.9871
2.7902 -0.2748 -1.6187 0.9871
2.8026 -0.0765 -1.6187 0.9871
2.7853 0.3203 -1.6187 0.9871
2.7556 0.5167 -1.6187 0.9871
2.7121 0.7106 -1.6187 0.9871
2.6550 0.9009 -1.6187 0.9871
2.6214 0.9945 -1.6187 0.9871
2.5010 1.2671 -1.6187 0.9871
2.4050 1.4410 -1.6187 0.9871
2.3524 1.5253 -1.6187 0.9871
