ply
format ascii 1.0
element vertex 397
property float32 x
property float32 y
property float32 z
property float32 I
end_header
-35.8076 -18.2413 7.0859 0.8494
-34.8429 -19.3799 7.0301 0.8505
-34.4108 -22.5680 7.2561 0.8461
-35.4058 -25.1115 7.6538 0.8384
-36.2469 -27.7467 8.0489 0.8308
-20.1269 -38.6393 7.6820 0.8378
-38.4312 -17.8456 6.4912 0.8424
-37.8669 -19.2904 6.5103 0.8420
-37.0354 -20.5994 6.4922 0.8424
-34.2472 -22.4607 6.2741 0.8473
-21.6823 -38.1642 6.7242 0.8373
-18.6156 -39.1566 6.6420 0.8391
-17.0223 -39.4507 6.5822 0.8404
-37.7396 -17.5245 5.4185 0.8455
-39.1988 -19.9690 5.7287 0.8374
-35.7370 -19.8772 5.3251 0.8479
-37.0506 -26.2781 5.9151 0.8326
-20.0606 -38.5120 5.6546 0.8393
-18.5123 -38.9395 5.6146 0.8404
-16.9625 -39.3122 5.5755 0.8414
-35.5633 -25.2232 4.6818 0.8391
-21.6823 -38.1642 4.7133 0.8381
-20.1725 -38.7267 4.6889 0.8389
-18.5734 -39.0680 4.6452 0.8403
-17.0223 -39.4507 4.6138 0.8413
-21.6224 -38.0588 3.7054 0.8389
-20.0578 -38.5067 3.6754 0.8401
-18.5310 -38.9787 3.6536 0.8409
-17.0009 -39.4011 3.6327 0.8418
-19.8466 -16.3727 1.5954 0.9020
-24.7527 -23.6514 2.1229 0.8718
-20.1407 -38.6657 2.7035 0.8397
-18.5734 -39.0680 2.6825 0.8408
-17.0223 -39.4507 2.6644 0.8418
-19.8345 -16.3627 1.0139 0.9022
-24.7527 -23.6514 1.3498 0.8719
-20.1724 -38.7267 1.7218 0.8396
-19.8309 -16.3597 0.4343 0.9023
-20.1558 -38.6947 0.7370 0.8398
-18.5735 -39.0680 0.7307 0.8411
-37.8333 -17.5679 -0.2349 0.8463
-33.6717 -18.7284 -0.2169 0.8572
-31.7750 -20.8392 -0.2139 0.8590
-34.3177 -30.4783 -0.2584 0.8323
-21.6823 -38.1642 -0.2471 0.8390
-17.0222 -39.4507 -0.2419 0.8421
-39.2793 -11.6779 -1.1539 0.8488
-42.8292 -16.2117 -1.2895 0.8326
-35.8258 -18.2506 -1.1321 0.8514
-31.7714 -20.8369 -1.0699 0.8590
-32.3395 -22.9367 -1.1164 0.8533
-33.5755 -25.7018 -1.1906 0.8443
-19.8237 -16.3538 -0.7236 0.9023
-23.7708 -21.1113 -0.8952 0.8805
-25.6552 -26.3674 -1.0359 0.8631
-28.1918 -36.1451 -1.2907 0.8324
-7.3150 -14.0433 -0.4459 0.9386
-31.5958 -4.5568 -1.6189 0.8800
-29.8552 -11.3007 -1.6189 0.8800
-29.4237 -12.3808 -1.6189 0.8800
-27.9901 -14.2589 -1.5931 0.8818
-26.3763 -14.6707 -1.5306 0.8861
-23.5862 -16.7285 -1.4665 0.8906
-19.6917 -16.2449 -1.2946 0.9028
-20.9064 -19.9762 -1.4664 0.8906
-20.1647 -20.7244 -1.4664 0.8906
-19.3963 -21.4451 -1.4664 0.8906
-17.8410 -22.8743 -1.4712 0.8903
-9.3718 -14.0113 -0.8549 0.9347
-7.8842 -13.8774 -0.8094 0.9381
-6.5584 -13.7951 -0.7746 0.9407
-2.4297 -0.3504 -0.1800 0.9902
-2.4691 -0.4485 -0.1840 0.9900
-2.5209 -0.5534 -0.1892 0.9897
-21.1633 -6.2919 -1.6189 0.9153
-20.9200 -7.0586 -1.6189 0.9153
-20.6489 -7.8160 -1.6189 0.9153
-20.3504 -8.5630 -1.6189 0.9153
-20.0249 -9.2986 -1.6189 0.9153
-19.6729 -10.0219 -1.6188 0.9153
-19.2947 -10.7319 -1.6188 0.9153
-18.8909 -11.4276 -1.6188 0.9153
-18.4620 -12.1081 -1.6188 0.9153
-18.0087 -12.7726 -1.6188 0.9153
-16.5077 -14.6608 -1.6188 0.9153
-15.9626 -15.2524 -1.6188 0.9153
-13.6028 -16.1879 -1.5504 0.9187
-11.7171 -16.2073 -1.4664 0.9229
-9.4087 -14.0664 -1.2408 0.9344
-8.6054 -13.9388 -1.2011 0.9364
-7.8845 -13.8779 -1.1703 0.9380
-2.1812 -0.3962 -0.2128 0.9911
-15.7699 -5.9692 -1.6188 0.9345
-15.5420 -6.5397 -1.6188 0.9345
-15.2934 -7.1015 -1.6188 0.9345
-15.0245 -7.6539 -1.6188 0.9345
-14.4274 -8.7275 -1.6188 0.9345
-14.0999 -9.2472 -1.6188 0.9345
-13.3891 -10.2492 -1.6188 0.9345
-13.0068 -10.7301 -1.6188 0.9345
-11.3105 -12.5052 -1.6188 0.9345
-10.8474 -12.9089 -1.6188 0.9345
-10.3700 -13.2955 -1.6188 0.9345
-9.8787 -13.6644 -1.6188 0.9345
-9.3744 -14.0151 -1.6188 0.9345
-7.7894 -14.9540 -1.6188 0.9345
-6.5642 -13.8074 -1.4678 0.9404
-6.6729 -15.4650 -1.6170 0.9346
-2.0115 -0.2901 -0.2414 0.9918
-2.0192 -0.3667 -0.2438 0.9918
-2.0360 -0.4470 -0.2476 0.9916
-2.0530 -0.5298 -0.2519 0.9915
-2.0697 -0.6154 -0.2565 0.9913
-12.9127 -4.3569 -1.6188 0.9466
-12.5612 -5.2854 -1.6188 0.9466
-12.1430 -6.1859 -1.6188 0.9466
-11.6603 -7.0536 -1.6188 0.9466
-11.3956 -7.4737 -1.6188 0.9466
-10.8212 -8.2835 -1.6188 0.9466
-10.1893 -9.0494 -1.6188 0.9466
-9.5034 -9.7672 -1.6188 0.9466
-9.1413 -10.1069 -1.6188 0.9466
-8.7670 -10.4331 -1.6188 0.9466
-7.1588 -11.5957 -1.6188 0.9466
-5.3988 -12.5123 -1.6187 0.9466
-1.9339 -0.4246 -0.2805 0.9920
-1.9749 -0.6663 -0.2953 0.9916
-10.6850 -4.0445 -1.6188 0.9549
-10.5306 -4.4310 -1.6188 0.9549
-10.1800 -5.1860 -1.6188 0.9549
-9.9844 -5.5534 -1.6188 0.9549
-9.7754 -5.9134 -1.6188 0.9549
-9.0719 -6.9445 -1.6188 0.9549
-8.5422 -7.5865 -1.6188 0.9549
-8.2602 -7.8927 -1.6188 0.9549
-6.6935 -9.2585 -1.6188 0.9549
-6.0016 -9.7212 -1.6187 0.9549
-5.6435 -9.9334 -1.6187 0.9549
-5.2779 -10.1324 -1.6187 0.9549
-4.5261 -10.4897 -1.6187 0.9549
-1.8359 -0.3334 -0.3074 0.9925
-1.8436 -0.4047 -0.3109 0.9924
-1.8530 -0.4782 -0.3153 0.9923
-1.8629 -0.5538 -0.3202 0.9922
-9.1900 -3.4786 -1.6188 0.9609
-8.4076 -5.0860 -1.6188 0.9609
-8.0150 -5.6846 -1.6188 0.9609
-7.3470 -6.5250 -1.6188 0.9609
-7.1044 -6.7883 -1.6188 0.9609
-6.8524 -7.0426 -1.6188 0.9609
-6.5913 -7.2875 -1.6188 0.9609
-6.0432 -7.7481 -1.6187 0.9609
-5.7569 -7.9630 -1.6187 0.9609
-4.2189 -8.8742 -1.6187 0.9609
-3.8928 -9.0220 -1.6187 0.9609
-1.7571 -0.2534 -0.3337 0.9928
-1.7759 -0.5280 -0.3482 0.9925
-1.7825 -0.6014 -0.3536 0.9924
-7.6739 -3.9093 -1.6188 0.9656
-7.2016 -4.7231 -1.6188 0.9656
-6.8386 -5.2349 -1.6188 0.9656
-6.4393 -5.7189 -1.6188 0.9656
-6.2267 -5.9496 -1.6188 0.9656
-5.7770 -6.3872 -1.6187 0.9656
-3.6977 -7.7778 -1.6187 0.9656
-1.6845 -0.2429 -0.3598 0.9931
-1.6849 -0.3060 -0.3620 0.9930
-1.6844 -0.3698 -0.3645 0.9930
-1.6910 -0.4364 -0.3692 0.9929
-1.6969 -0.5045 -0.3742 0.9928
-1.7063 -0.6459 -0.3857 0.9926
-1.7114 -0.7201 -0.3925 0.9924
-6.8236 -3.4762 -1.6188 0.9692
-6.6925 -3.7224 -1.6188 0.9692
-6.5524 -3.9637 -1.6188 0.9692
-6.0809 -4.6549 -1.6188 0.9692
-5.9073 -4.8733 -1.6187 0.9692
-5.5368 -5.2904 -1.6187 0.9692
-5.3404 -5.4886 -1.6187 0.9692
-5.1369 -5.6795 -1.6187 0.9692
-4.9266 -5.8629 -1.6187 0.9692
-4.4867 -6.2060 -1.6187 0.9692
-4.0229 -6.5162 -1.6187 0.9692
-3.5378 -6.7917 -1.6187 0.9692
-3.2880 -6.9161 -1.6187 0.9692
-3.0339 -7.0313 -1.6187 0.9692
-1.6160 -0.2331 -0.3837 0.9933
-1.6192 -0.4179 -0.3930 0.9932
-1.6239 -0.4828 -0.3982 0.9931
-1.6278 -0.5492 -0.4038 0.9930
-6.2470 -2.9008 -1.6188 0.9721
-6.1372 -3.1264 -1.6188 0.9721
-5.6180 -3.9846 -1.6187 0.9721
-5.3130 -4.3830 -1.6187 0.9721
-5.1498 -4.5736 -1.6187 0.9721
-4.6201 -5.1082 -1.6187 0.9721
-3.6182 -5.8606 -1.6187 0.9721
-3.4023 -5.9885 -1.6187 0.9721
-2.9572 -6.2203 -1.6187 0.9721
-2.7287 -6.3239 -1.6187 0.9721
-1.5525 -0.3408 -0.4115 0.9935
-1.5527 -0.4007 -0.4152 0.9934
-1.5603 -0.5264 -0.4264 0.9932
-1.5650 -0.5924 -0.4333 0.9931
-5.5708 -2.8379 -1.6187 0.9745
-5.4637 -3.0389 -1.6187 0.9745
-5.3494 -3.2359 -1.6187 0.9745
-5.2279 -3.4287 -1.6187 0.9745
-5.0996 -3.6168 -1.6187 0.9745
-4.9644 -3.8002 -1.6187 0.9745
-4.6746 -4.1516 -1.6187 0.9745
-4.5202 -4.3191 -1.6187 0.9745
-4.3599 -4.4809 -1.6187 0.9745
-4.1937 -4.6367 -1.6187 0.9745
-4.0221 -4.7864 -1.6187 0.9745
-3.4759 -5.1966 -1.6187 0.9745
-3.0883 -5.4358 -1.6187 0.9745
-2.4769 -5.7403 -1.6187 0.9745
-1.4944 -0.2155 -0.4274 0.9937
-1.4939 -0.3855 -0.4368 0.9936
-1.5123 -0.7022 -0.4720 0.9931
-4.7815 -3.1359 -1.6187 0.9765
-4.6641 -3.3080 -1.6187 0.9765
-4.1342 -3.9502 -1.6187 0.9765
-3.8356 -4.2408 -1.6187 0.9765
-3.6785 -4.3777 -1.6187 0.9765
-3.5167 -4.5088 -1.6187 0.9765
-3.3501 -4.6339 -1.6187 0.9765
-3.1790 -4.7528 -1.6187 0.9765
-3.0038 -4.8655 -1.6187 0.9765
-2.8246 -4.9716 -1.6187 0.9765
-2.4551 -5.1641 -1.6187 0.9765
-2.2653 -5.2501 -1.6187 0.9765
-1.4457 -0.2085 -0.4493 0.9939
-1.4459 -0.2626 -0.4520 0.9939
-1.4441 -0.3727 -0.4587 0.9938
-1.4465 -0.4300 -0.4642 0.9937
-1.4527 -0.5499 -0.4778 0.9935
-1.4547 -0.6121 -0.4854 0.9934
-4.4008 -2.8862 -1.6187 0.9782
-4.2928 -3.0446 -1.6187 0.9782
-3.6701 -3.7720 -1.6187 0.9782
-3.3857 -4.0292 -1.6187 0.9782
-2.7647 -4.4781 -1.6187 0.9782
-2.5997 -4.5759 -1.6187 0.9782
-1.3994 -0.2542 -0.4728 0.9940
-1.3969 -0.3605 -0.4796 0.9939
-1.3973 -0.4154 -0.4846 0.9939
-1.3996 -0.4722 -0.4910 0.9938
-1.4013 -0.5304 -0.4981 0.9937
-1.4027 -0.6514 -0.5141 0.9935
-1.4021 -0.7143 -0.5230 0.9934
-1.4980 -0.9062 -0.5820 0.9926
-3.7565 -3.0989 -1.6187 0.9797
-2.9950 -3.8399 -1.6187 0.9797
-2.8531 -3.9464 -1.6187 0.9797
-2.7074 -4.0477 -1.6187 0.9797
-2.5582 -4.1437 -1.6187 0.9797
-2.4055 -4.2341 -1.6187 0.9797
-2.2497 -4.3189 -1.6187 0.9797
-1.9293 -4.4713 -1.6187 0.9797
-1.3554 -0.1955 -0.4897 0.9942
-1.3521 -0.3489 -0.4994 0.9941
-1.3506 -0.4016 -0.5039 0.9940
-1.3523 -0.4563 -0.5104 0.9940
-1.3530 -0.5122 -0.5174 0.9939
-1.3527 -0.6281 -0.5333 0.9937
-1.3487 -0.7502 -0.5519 0.9935
-3.6922 -2.6187 -1.6187 0.9810
-3.5944 -2.7514 -1.6187 0.9810
-3.1566 -3.2443 -1.6187 0.9810
-2.6520 -3.6683 -1.6187 0.9810
-2.2360 -3.9357 -1.6187 0.9810
-1.7933 -4.1561 -1.6187 0.9810
-1.3094 -0.3379 -0.5182 0.9942
-1.3064 -0.3884 -0.5223 0.9942
-1.3073 -0.4411 -0.5287 0.9941
-1.3075 -0.4949 -0.5358 0.9940
-1.3053 -0.6061 -0.5515 0.9939
-1.3031 -0.6638 -0.5604 0.9938
-3.4454 -2.4437 -1.6187 0.9821
-3.3541 -2.5676 -1.6187 0.9821
-3.2584 -2.6880 -1.6187 0.9821
-3.0540 -2.9181 -1.6187 0.9821
-2.9457 -3.0274 -1.6187 0.9821
-2.5978 -3.3307 -1.6187 0.9821
-2.4748 -3.4231 -1.6187 0.9821
-2.3484 -3.5110 -1.6187 0.9821
-2.2190 -3.5942 -1.6187 0.9821
-1.8136 -3.8148 -1.6187 0.9821
-1.6735 -3.8784 -1.6187 0.9821
-1.2654 -0.3762 -0.5403 0.9943
-1.2646 -0.4267 -0.5462 0.9942
-1.2642 -0.4785 -0.5532 0.9942
-1.2629 -0.5314 -0.5608 0.9941
-1.2576 -0.6406 -0.5776 0.9939
-1.2537 -0.6974 -0.5872 0.9938
-1.2488 -0.7554 -0.5974 0.9937
-3.3073 -2.1691 -1.6187 0.9831
-3.2261 -2.2881 -1.6187 0.9831
-2.7581 -2.8347 -1.6187 0.9831
-2.3172 -3.2052 -1.6187 0.9831
-2.1989 -3.2875 -1.6187 0.9831
-2.0777 -3.3654 -1.6187 0.9831
-1.8271 -3.5078 -1.6187 0.9831
-1.6982 -3.5720 -1.6187 0.9831
-1.5669 -3.6315 -1.6187 0.9831
-1.2339 -0.2241 -0.5466 0.9945
-1.2262 -0.3646 -0.5575 0.9944
-1.2239 -0.4129 -0.5629 0.9944
-1.2230 -0.4629 -0.5699 0.9943
-1.2148 -0.6188 -0.5941 0.9941
-1.2100 -0.6730 -0.6034 0.9940
-1.2045 -0.7286 -0.6135 0.9939
-1.3236 -0.8681 -0.6899 0.9931
-3.0296 -2.1487 -1.6187 0.9839
-2.8651 -2.3636 -1.6187 0.9839
-2.6854 -2.5659 -1.6187 0.9839
-2.4915 -2.7546 -1.6187 0.9839
-1.9512 -3.1604 -1.6187 0.9839
-1.7159 -3.2941 -1.6187 0.9839
-1.4715 -3.4103 -1.6187 0.9839
-1.1923 -0.3077 -0.5700 0.9946
-1.1887 -0.3534 -0.5740 0.9945
-1.1782 -0.5471 -0.6013 0.9943
-1.1688 -0.6501 -0.6191 0.9941
-1.1626 -0.7033 -0.6289 0.9940
-2.8524 -2.0231 -1.6187 0.9847
-2.6976 -2.2254 -1.6187 0.9847
-2.3458 -2.5935 -1.6187 0.9847
-2.2497 -2.6773 -1.6187 0.9847
-2.1507 -2.7575 -1.6187 0.9847
-2.0488 -2.8340 -1.6187 0.9847
-1.5015 -3.1583 -1.6187 0.9847
-1.1541 -0.1664 -0.5719 0.9948
-1.1582 -0.2543 -0.5817 0.9947
-1.1564 -0.2984 -0.5858 0.9947
-1.1527 -0.3427 -0.5899 0.9947
-1.1481 -0.3874 -0.5943 0.9946
-1.1433 -0.4811 -0.6084 0.9945
-1.1352 -0.5783 -0.6249 0.9943
-1.1229 -0.6793 -0.6438 0.9942
-2.6204 -2.0059 -1.6187 0.9854
-2.5456 -2.1000 -1.6187 0.9854
-2.1230 -2.5264 -1.6187 0.9854
-2.0295 -2.6021 -1.6187 0.9854
-1.9334 -2.6743 -1.6187 0.9854
-1.8347 -2.7430 -1.6187 0.9854
-1.7336 -2.8080 -1.6187 0.9854
-1.6301 -2.8692 -1.6187 0.9854
-1.3074 -3.0300 -1.6187 0.9854
-1.1175 -0.1612 -0.5857 0.9949
-1.1196 -0.2033 -0.5903 0.9949
-1.1209 -0.2461 -0.5953 0.9948
-1.1213 -0.2894 -0.6008 0.9948
-1.1133 -0.3756 -0.6095 0.9947
-1.1068 -0.4657 -0.6230 0.9946
-1.1029 -0.5121 -0.6309 0.9945
-1.0980 -0.5594 -0.6393 0.9945
-1.0921 -0.6074 -0.6483 0.9944
-1.0744 -0.7046 -0.6665 0.9942
-2.3330 -2.0720 -1.6187 0.9860
-2.0930 -2.3141 -1.6187 0.9860
-1.9190 -2.4604 -1.6187 0.9860
-1.7348 -2.5935 -1.6187 0.9860
-1.3397 -2.8180 -1.6187 0.9860
-1.0823 -0.1561 -0.5989 0.9950
-1.0841 -0.1969 -0.6035 0.9950
-1.0844 -0.3224 -0.6196 0.9949
-1.0676 -0.4957 -0.6447 0.9946
-1.0624 -0.5412 -0.6531 0.9946
-1.0562 -0.5875 -0.6620 0.9945
-1.0244 -0.6719 -0.6710 0.9944
-1.0049 -0.7127 -0.6748 0.9944
-0.9840 -0.7533 -0.6787 0.9944
-2.0611 -2.1182 -1.6187 0.9866
-1.9825 -2.1919 -1.6187 0.9866
-1.9013 -2.2627 -1.6187 0.9866
-1.8176 -2.3304 -1.6187 0.9866
-1.2690 -2.6692 -1.6187 0.9866
-1.0485 -0.1512 -0.6116 0.9951
-1.0500 -0.1907 -0.6162 0.9951
-1.0507 -0.2307 -0.6211 0.9950
-1.0494 -0.3120 -0.6321 0.9950
-1.0474 -0.3534 -0.6382 0.9949
-1.0382 -0.4369 -0.6503 0.9948
-1.0263 -0.5229 -0.6650 0.9947
-1.0115 -0.5626 -0.6683 0.9947
-0.9953 -0.6021 -0.6716 0.9946
-0.9778 -0.6413 -0.6751 0.9946
-0.9293 -0.8253 -0.7176 0.9943
-1.9552 -2.0095 -1.6187 0.9871
-1.7243 -2.2108 -1.6187 0.9871
-1.6426 -2.2721 -1.6187 0.9871
-1.4728 -2.3857 -1.6187 0.9871
-1.2952 -2.4866 -1.6187 0.9871
-1.1107 -2.5743 -1.6187 0.9871
