ply
format ascii 1.0
element vertex 336
property float32 x
property float32 y
property float32 z
property float32 I
end_header
35.3771 14.5252 -0.2154 0.8582
35.2663 14.4797 -1.0735 0.8585
26.5378 -11.9870 -1.4768 0.8899
26.9119 -11.0270 -1.4749 0.8900
27.2546 -10.0567 -1.4733 0.8902
27.8255 -8.0834 -1.4695 0.8904
28.0547 -7.0840 -1.4674 0.8906
28.2648 -6.0821 -1.4662 0.8907
28.8401 -2.0340 -1.4662 0.8907
28.8933 1.0332 -1.4662 0.8907
28.8387 2.0547 -1.4662 0.8907
29.2128 4.1733 -1.4965 0.8885
30.8285 6.6570 -1.5995 0.8813
30.9400 7.8362 -1.6186 0.8800
30.6434 8.9259 -1.6186 0.8800
29.9356 11.0704 -1.6186 0.8800
29.0780 13.1595 -1.6187 0.8800
17.5969 -9.5000 -1.4663 0.9229
17.9219 -8.8716 -1.4663 0.9229
18.5044 -7.5821 -1.4663 0.9229
18.7610 -6.9227 -1.4663 0.9229
18.9942 -6.2546 -1.4663 0.9229
19.6821 -5.7177 -1.5028 0.9211
21.1248 -4.5458 -1.5844 0.9170
21.6662 -3.8658 -1.6137 0.9155
21.9525 -2.3312 -1.6187 0.9153
22.0213 -1.5531 -1.6187 0.9153
22.0760 0.0079 -1.6187 0.9153
21.7301 3.8933 -1.6187 0.9153
21.4004 5.4201 -1.6187 0.9153
21.1953 6.1738 -1.6187 0.9153
20.9636 6.9198 -1.6187 0.9153
20.7057 7.6571 -1.6187 0.9153
20.4219 8.3849 -1.6187 0.9153
14.2007 -9.0184 -1.6150 0.9346
15.3655 -6.9405 -1.6187 0.9345
15.8178 -5.8367 -1.6187 0.9345
16.0144 -5.2734 -1.6187 0.9345
16.3473 -4.1279 -1.6187 0.9345
16.4830 -3.5469 -1.6187 0.9345
16.5982 -2.9615 -1.6187 0.9345
16.6926 -2.3725 -1.6187 0.9345
16.7661 -1.7804 -1.6187 0.9345
16.8186 -1.1862 -1.6187 0.9345
16.8604 0.0061 -1.6187 0.9345
16.8177 1.1983 -1.6187 0.9345
16.7648 1.7925 -1.6187 0.9345
16.5961 2.9735 -1.6187 0.9345
16.0107 5.2850 -1.6187 0.9345
15.8138 5.8481 -1.6187 0.9345
15.5970 6.4039 -1.6187 0.9345
15.3607 6.9517 -1.6187 0.9345
11.7545 -6.8938 -1.6187 0.9466
11.9910 -6.4736 -1.6187 0.9466
12.2125 -6.0453 -1.6187 0.9466
12.6094 -5.1666 -1.6187 0.9466
13.2122 -3.3362 -1.6187 0.9466
13.4913 -1.9175 -1.6187 0.9466
13.5507 -1.4390 -1.6187 0.9466
13.5931 -0.9587 -1.6187 0.9466
13.6185 -0.4772 -1.6187 0.9466
13.6269 0.0049 -1.6187 0.9466
13.6182 0.4870 -1.6187 0.9466
13.5497 1.4487 -1.6187 0.9466
13.4900 1.9272 -1.6187 0.9466
13.2099 3.3457 -1.6187 0.9466
13.0832 3.8109 -1.6187 0.9466
12.9402 4.2714 -1.6187 0.9466
12.7810 4.7265 -1.6187 0.9466
9.6438 -6.1245 -1.6187 0.9549
10.0528 -5.4272 -1.6187 0.9549
10.5713 -4.3315 -1.6187 0.9549
10.7178 -3.9548 -1.6187 0.9549
10.8511 -3.5732 -1.6187 0.9549
10.9707 -3.1870 -1.6187 0.9549
11.0765 -2.7969 -1.6187 0.9549
11.3959 -0.8037 -1.6187 0.9549
11.4170 0.4083 -1.6187 0.9549
11.3954 0.8119 -1.6187 0.9549
11.3595 1.2146 -1.6187 0.9549
11.3094 1.6157 -1.6187 0.9549
11.2452 2.0148 -1.6187 0.9549
10.8486 3.5810 -1.6187 0.9549
10.7151 3.9625 -1.6187 0.9549
8.6463 -4.6679 -1.6187 0.9609
8.8060 -4.3591 -1.6187 0.9609
8.9547 -4.0448 -1.6187 0.9609
9.2183 -3.4015 -1.6187 0.9609
9.3328 -3.0732 -1.6187 0.9610
9.4357 -2.7411 -1.6187 0.9609
9.6059 -2.0670 -1.6187 0.9609
9.8198 -0.3441 -1.6187 0.9609
9.8196 0.3511 -1.6187 0.9609
9.8010 0.6983 -1.6187 0.9609
9.7271 1.3896 -1.6187 0.9609
9.4338 2.7479 -1.6187 0.9609
7.4286 -4.3567 -1.6187 0.9656
7.5780 -4.0912 -1.6187 0.9656
7.7180 -3.8205 -1.6187 0.9656
7.9689 -3.2652 -1.6187 0.9656
8.0794 -2.9812 -1.6187 0.9656
8.2700 -2.4025 -1.6187 0.9656
8.4192 -1.8117 -1.6187 0.9656
8.6066 -0.3016 -1.6187 0.9656
8.6064 0.3078 -1.6187 0.9656
8.5631 0.9156 -1.6187 0.9656
8.5254 1.2179 -1.6187 0.9656
8.4770 1.5188 -1.6187 0.9656
8.1779 2.6994 -1.6187 0.9656
8.0773 2.9871 -1.6187 0.9656
7.9666 3.2710 -1.6187 0.9656
7.8459 3.5507 -1.6187 0.9656
6.7385 -3.6379 -1.6187 0.9692
6.9789 -3.1523 -1.6187 0.9692
7.0860 -2.9034 -1.6187 0.9692
7.1843 -2.6509 -1.6187 0.9692
7.4247 -1.8748 -1.6187 0.9692
7.4864 -1.6109 -1.6187 0.9692
7.5387 -1.3451 -1.6187 0.9692
7.5816 -1.0775 -1.6187 0.9692
7.6150 -0.8087 -1.6187 0.9692
7.6578 0.0028 -1.6187 0.9692
7.6144 0.8141 -1.6187 0.9692
7.4234 1.8802 -1.6187 0.9692
7.3523 2.1416 -1.6187 0.9692
7.2719 2.4004 -1.6187 0.9692
6.9766 3.1574 -1.6187 0.9692
5.8141 -3.6923 -1.6187 0.9721
5.9410 -3.4843 -1.6187 0.9721
6.6140 -1.9214 -1.6187 0.9721
6.7333 -1.4489 -1.6187 0.9721
6.7803 -1.2098 -1.6187 0.9721
6.8189 -0.9692 -1.6187 0.9721
6.8704 -0.4845 -1.6187 0.9721
6.8832 -0.2412 -1.6187 0.9721
6.8700 0.4895 -1.6187 0.9721
6.8484 0.7322 -1.6187 0.9721
6.8182 0.9741 -1.6187 0.9721
6.7795 1.2147 -1.6187 0.9721
6.7323 1.4538 -1.6187 0.9721
6.6126 1.9262 -1.6187 0.9721
6.5404 2.1589 -1.6187 0.9721
6.3713 2.6160 -1.6187 0.9721
5.6029 -2.7735 -1.6187 0.9745
5.6975 -2.5736 -1.6187 0.9745
5.8653 -2.1642 -1.6187 0.9745
6.1119 -1.3152 -1.6187 0.9745
6.2169 -0.6602 -1.6187 0.9745
6.2363 -0.4398 -1.6187 0.9745
6.2480 -0.2189 -1.6187 0.9745
6.2478 0.2234 -1.6187 0.9745
6.1538 1.1026 -1.6187 0.9745
6.0605 1.5350 -1.6187 0.9745
5.9368 1.9597 -1.6187 0.9745
4.9323 -2.8927 -1.6187 0.9765
5.2110 -2.3538 -1.6187 0.9765
5.4909 -1.5951 -1.6187 0.9765
5.6291 -1.0044 -1.6187 0.9765
5.6610 -0.8046 -1.6187 0.9765
5.6860 -0.6038 -1.6187 0.9765
5.7038 -0.4023 -1.6187 0.9765
5.7179 0.0021 -1.6187 0.9765
5.7143 0.2044 -1.6187 0.9765
5.6283 1.0084 -1.6187 0.9765
5.5891 1.2069 -1.6187 0.9765
5.4898 1.5991 -1.6187 0.9765
5.3630 1.9833 -1.6187 0.9765
5.2895 2.1718 -1.6187 0.9765
4.5396 -2.6624 -1.6187 0.9782
4.8698 -1.9954 -1.6187 0.9782
4.9373 -1.8218 -1.6187 0.9782
4.9987 -1.6460 -1.6187 0.9782
5.1026 -1.2884 -1.6187 0.9782
5.2595 -0.1843 -1.6187 0.9782
5.2594 0.1881 -1.6187 0.9782
5.1803 0.9281 -1.6187 0.9782
5.1442 1.1108 -1.6187 0.9782
4.9975 1.6496 -1.6187 0.9782
4.8684 1.9989 -1.6187 0.9782
4.7946 2.1699 -1.6187 0.9782
4.2006 -2.4635 -1.6187 0.9797
4.3643 -2.1603 -1.6187 0.9797
4.5686 -1.6858 -1.6187 0.9797
4.6254 -1.5231 -1.6187 0.9797
4.7215 -1.1922 -1.6187 0.9797
4.7940 -0.8554 -1.6187 0.9797
4.8576 -0.3426 -1.6187 0.9797
4.8667 -0.1705 -1.6187 0.9797
4.8697 0.0018 -1.6187 0.9797
4.8666 0.1740 -1.6187 0.9797
4.8421 0.5177 -1.6187 0.9797
4.7934 0.8588 -1.6187 0.9797
4.7600 1.0279 -1.6187 0.9797
4.7206 1.1956 -1.6187 0.9797
4.6754 1.3619 -1.6187 0.9797
4.5674 1.6891 -1.6187 0.9797
4.4365 2.0078 -1.6187 0.9797
3.9831 -2.1504 -1.6187 0.9810
4.1252 -1.8633 -1.6187 0.9810
4.1886 -1.7162 -1.6187 0.9810
4.2994 -1.4157 -1.6187 0.9810
4.3468 -1.2628 -1.6187 0.9810
4.4252 -0.9522 -1.6187 0.9810
4.4815 -0.6369 -1.6187 0.9810
4.5012 -0.4780 -1.6187 0.9810
4.5153 -0.3184 -1.6187 0.9810
4.5237 -0.1585 -1.6187 0.9810
4.5265 0.0016 -1.6187 0.9810
4.5151 0.3217 -1.6187 0.9810
4.5009 0.4812 -1.6187 0.9810
4.4810 0.6402 -1.6187 0.9810
4.4245 0.9554 -1.6187 0.9810
4.3880 1.1114 -1.6187 0.9810
4.3459 1.2659 -1.6187 0.9810
4.2984 1.4189 -1.6187 0.9810
4.2455 1.5700 -1.6187 0.9810
4.1873 1.7192 -1.6187 0.9810
4.1239 1.8663 -1.6187 0.9810
3.5657 -2.2645 -1.6187 0.9821
3.6436 -2.1369 -1.6187 0.9821
3.7169 -2.0066 -1.6187 0.9821
3.9628 -1.4622 -1.6187 0.9821
4.0121 -1.3211 -1.6187 0.9821
4.1583 -0.7419 -1.6187 0.9821
4.1820 -0.5943 -1.6187 0.9821
4.2004 -0.4460 -1.6187 0.9821
4.2135 -0.2972 -1.6187 0.9821
4.2214 -0.1479 -1.6187 0.9821
4.2240 0.0015 -1.6187 0.9821
4.1816 0.5974 -1.6187 0.9821
4.1578 0.7450 -1.6187 0.9821
4.1288 0.8916 -1.6187 0.9821
4.0555 1.1813 -1.6187 0.9821
3.9075 1.6044 -1.6187 0.9821
3.4803 -1.8789 -1.6187 0.9831
3.5446 -1.7546 -1.6187 0.9831
3.6044 -1.6281 -1.6187 0.9831
3.6598 -1.4996 -1.6187 0.9831
3.7105 -1.3691 -1.6187 0.9831
3.7566 -1.2370 -1.6187 0.9831
3.7981 -1.1033 -1.6187 0.9831
3.8347 -0.9683 -1.6187 0.9831
3.8666 -0.8320 -1.6187 0.9831
3.9157 -0.5565 -1.6187 0.9831
3.9525 0.1414 -1.6187 0.9831
3.9327 0.4205 -1.6187 0.9831
3.8931 0.6975 -1.6187 0.9831
3.8340 0.9711 -1.6187 0.9831
3.6587 1.5022 -1.6187 0.9831
3.6033 1.6307 -1.6187 0.9831
3.1354 -1.9912 -1.6187 0.9839
3.3287 -1.6477 -1.6187 0.9839
3.4369 -1.4082 -1.6187 0.9839
3.4845 -1.2858 -1.6187 0.9839
3.6012 -0.9093 -1.6187 0.9839
3.7119 -0.1300 -1.6187 0.9839
3.7048 0.2640 -1.6187 0.9839
3.6932 0.3949 -1.6187 0.9839
3.6560 0.6550 -1.6187 0.9839
3.6305 0.7840 -1.6187 0.9839
3.6005 0.9119 -1.6187 0.9839
3.5270 1.1643 -1.6187 0.9839
3.4836 1.2883 -1.6187 0.9839
3.4359 1.4107 -1.6187 0.9839
3.3838 1.5314 -1.6187 0.9839
3.0165 -1.7691 -1.6187 0.9847
3.0772 -1.6613 -1.6187 0.9847
3.1341 -1.5514 -1.6187 0.9847
3.1870 -1.4395 -1.6187 0.9847
3.3216 -1.0938 -1.6187 0.9847
3.3906 -0.8561 -1.6187 0.9847
3.4426 -0.6142 -1.6187 0.9847
3.4775 -0.3693 -1.6187 0.9847
3.4948 0.1250 -1.6187 0.9847
3.4882 0.2486 -1.6187 0.9847
3.4619 0.4946 -1.6187 0.9847
3.4182 0.7381 -1.6187 0.9847
3.2350 1.3282 -1.6187 0.9847
2.9575 -1.4640 -1.6187 0.9854
3.0536 -1.2512 -1.6187 0.9854
3.1690 -0.9206 -1.6187 0.9854
3.1995 -0.8079 -1.6187 0.9854
3.2261 -0.6942 -1.6187 0.9854
3.2487 -0.5796 -1.6187 0.9854
3.2671 -0.4643 -1.6187 0.9854
3.2815 -0.3485 -1.6187 0.9854
3.2980 -0.1156 -1.6187 0.9854
3.3000 0.0012 -1.6187 0.9854
3.2979 0.1179 -1.6187 0.9854
3.2256 0.6965 -1.6187 0.9854
3.1990 0.8102 -1.6187 0.9854
3.1683 0.9229 -1.6187 0.9854
2.6340 -1.6727 -1.6187 0.9860
2.6915 -1.5785 -1.6187 0.9860
2.7457 -1.4823 -1.6187 0.9860
2.7964 -1.3842 -1.6187 0.9860
2.8873 -1.1830 -1.6187 0.9860
2.9637 -0.9759 -1.6187 0.9860
2.9964 -0.8704 -1.6187 0.9860
3.0717 -0.5481 -1.6187 0.9860
3.1125 -0.2195 -1.6187 0.9860
3.1202 0.0011 -1.6187 0.9860
3.1183 0.1115 -1.6187 0.9860
3.1124 0.2218 -1.6187 0.9860
3.1025 0.3317 -1.6187 0.9860
3.0889 0.4413 -1.6187 0.9860
3.0714 0.5503 -1.6187 0.9860
2.6007 -1.4040 -1.6187 0.9866
2.6934 -1.2166 -1.6187 0.9866
2.7727 -1.0231 -1.6187 0.9866
2.8381 -0.8245 -1.6187 0.9866
2.8893 -0.6217 -1.6187 0.9866
2.9095 -0.5191 -1.6187 0.9866
2.9481 -0.2079 -1.6187 0.9866
2.9537 -0.1035 -1.6187 0.9866
2.9536 0.1056 -1.6187 0.9866
2.9387 0.3142 -1.6187 0.9866
2.9258 0.4180 -1.6187 0.9866
2.9091 0.5212 -1.6187 0.9866
2.8889 0.6238 -1.6187 0.9866
2.8650 0.7256 -1.6187 0.9866
2.8065 0.9264 -1.6187 0.9866
2.7720 1.0251 -1.6187 0.9866
2.7340 1.1225 -1.6187 0.9866
2.4184 -1.4184 -1.6187 0.9871
2.4671 -1.3319 -1.6187 0.9871
2.5551 -1.1541 -1.6187 0.9871
2.6924 -0.7821 -1.6187 0.9871
2.7184 -0.6864 -1.6187 0.9871
2.7410 -0.5898 -1.6187 0.9871
2.7758 -0.3945 -1.6187 0.9871
2.7880 -0.2961 -1.6187 0.9871
2.8019 0.1002 -1.6187 0.9871
2.7755 0.3965 -1.6187 0.9871
2.6918 0.7841 -1.6187 0.9871
2.5543 1.1560 -1.6187 0.9871
