ply
format ascii 1.0
element vertex 367
property float32 x
property float32 y
property float32 z
property float32 I
end_header
10.3019 -11.8637 2.7704 0.9382
24.0422 -3.0465 4.2732 0.9063
24.0358 -3.0457 2.6016 0.9071
10.2985 -11.8597 1.3296 0.9389
10.2973 -11.8583 0.9739 0.9390
24.4705 -41.5133 1.9001 0.8246
25.4572 -39.7939 0.7980 0.8278
28.3327 -40.9197 0.8407 0.8195
10.2949 -11.8556 0.2652 0.9391
24.0223 -3.0440 0.4090 0.9077
24.1676 -37.7780 -0.2525 0.8358
26.6276 -38.4572 -0.2634 0.8294
29.3125 -39.1984 -0.2756 0.8222
20.9647 -35.5659 -1.1625 0.8477
25.2067 -36.4050 -1.2468 0.8376
27.7482 -37.1067 -1.3047 0.8308
12.5531 -12.4872 -0.4986 0.9316
12.6816 -11.7264 -0.4863 0.9332
14.9975 -25.4426 -1.4978 0.8884
15.9007 -24.8554 -1.4964 0.8885
16.8010 -24.2652 -1.4968 0.8885
17.6579 -23.6133 -1.4953 0.8886
18.4889 -22.9303 -1.4938 0.8887
10.2501 -11.8039 -0.7928 0.9393
17.1165 -18.3166 -1.2714 0.9045
12.4358 -12.3705 -0.8896 0.9322
12.8050 -11.0018 -0.8562 0.9346
14.9924 -11.0888 -0.9457 0.9280
15.0915 -10.3323 -0.9275 0.9294
15.1154 -9.5581 -0.9070 0.9309
15.2373 -8.8742 -0.8942 0.9318
26.6048 -11.8147 -1.4763 0.8899
26.9833 -10.8225 -1.4744 0.8901
28.3384 -5.7154 -1.4661 0.8907
28.5280 -4.6779 -1.4661 0.8907
28.8683 -1.5336 -1.4661 0.8907
10.1546 -17.2268 -1.4662 0.9229
10.7761 -16.8448 -1.4662 0.9229
10.2272 -11.7776 -1.1437 0.9394
12.7274 -12.6607 -1.3163 0.9305
12.6217 -11.6710 -1.2605 0.9334
12.8768 -11.0634 -1.2448 0.9342
14.0092 -10.3616 -1.2776 0.9325
17.6350 -9.4265 -1.4662 0.9229
17.9671 -8.7769 -1.4662 0.9229
18.2753 -8.1157 -1.4662 0.9229
18.5591 -7.4437 -1.4662 0.9229
18.8182 -6.7618 -1.4662 0.9229
20.6310 -4.9504 -1.5556 0.9184
21.3892 -4.3138 -1.5999 0.9162
21.7552 -3.5673 -1.6164 0.9154
21.9860 -1.9743 -1.6185 0.9153
22.0434 -1.1711 -1.6185 0.9153
22.0714 -0.3662 -1.6185 0.9153
22.0701 0.4391 -1.6185 0.9153
7.7555 -13.1569 -1.4662 0.9405
9.5862 -11.8891 -1.4662 0.9405
10.0135 -11.5315 -1.4662 0.9405
10.4631 -11.1967 -1.4712 0.9403
12.1146 -10.4086 -1.5334 0.9378
12.6777 -10.1125 -1.5569 0.9369
14.5688 -8.4848 -1.6186 0.9345
15.1486 -7.4001 -1.6186 0.9345
15.6477 -6.2760 -1.6186 0.9345
15.8662 -5.7010 -1.6186 0.9345
16.3940 -3.9338 -1.6186 0.9345
16.6372 -2.7281 -1.6186 0.9345
16.8571 -0.2797 -1.6186 0.9345
16.8561 0.3354 -1.6186 0.9345
6.9196 -11.7389 -1.6186 0.9466
7.3432 -11.4787 -1.6186 0.9466
7.7570 -11.2032 -1.6186 0.9466
8.1605 -10.9127 -1.6186 0.9466
8.9344 -10.2887 -1.6186 0.9466
10.0048 -9.2512 -1.6186 0.9466
10.6525 -8.4971 -1.6186 0.9466
11.7749 -6.8577 -1.6186 0.9466
12.2435 -5.9810 -1.6186 0.9466
12.6470 -5.0725 -1.6186 0.9466
12.8236 -4.6077 -1.6186 0.9466
12.9831 -4.1369 -1.6186 0.9466
13.2502 -3.1794 -1.6186 0.9466
13.3573 -2.6939 -1.6186 0.9466
13.4467 -2.2049 -1.6186 0.9466
13.5182 -1.7130 -1.6186 0.9466
13.5717 -1.2187 -1.6186 0.9466
13.6071 -0.7229 -1.6186 0.9466
13.6244 -0.2260 -1.6186 0.9466
5.8012 -9.8414 -1.6187 0.9549
6.1563 -9.6233 -1.6187 0.9549
6.5032 -9.3923 -1.6187 0.9549
8.3876 -7.7558 -1.6186 0.9549
9.8717 -5.7492 -1.6186 0.9549
10.2645 -5.0142 -1.6186 0.9549
10.4406 -4.6365 -1.6186 0.9549
10.6028 -4.2525 -1.6186 0.9549
10.7508 -3.8630 -1.6186 0.9549
10.8846 -3.4682 -1.6186 0.9549
11.0038 -3.0689 -1.6186 0.9549
11.1084 -2.6655 -1.6186 0.9549
11.1983 -2.2585 -1.6186 0.9549
11.3331 -1.4361 -1.6186 0.9549
11.4077 -0.6060 -1.6186 0.9549
11.4222 -0.1895 -1.6186 0.9549
4.9895 -8.4645 -1.6187 0.9610
6.4423 -7.4188 -1.6187 0.9610
7.2141 -6.6707 -1.6186 0.9610
7.6812 -6.1270 -1.6186 0.9610
7.8996 -5.8427 -1.6186 0.9610
8.3045 -5.2513 -1.6186 0.9610
8.4905 -4.9449 -1.6186 0.9610
8.6652 -4.6319 -1.6186 0.9610
9.1193 -3.6576 -1.6186 0.9610
9.5543 -2.2925 -1.6186 0.9610
9.6315 -1.9425 -1.6186 0.9610
9.7861 -0.8788 -1.6186 0.9610
4.9023 -7.0802 -1.6187 0.9656
5.4054 -6.7039 -1.6187 0.9656
5.6464 -6.5023 -1.6187 0.9656
5.8798 -6.2920 -1.6187 0.9656
6.5319 -5.6121 -1.6187 0.9656
6.7322 -5.3700 -1.6187 0.9656
7.1058 -4.8650 -1.6187 0.9656
7.4416 -4.3340 -1.6187 0.9656
7.7377 -3.7799 -1.6186 0.9656
8.4416 -1.7025 -1.6186 0.9656
8.4981 -1.3935 -1.6186 0.9656
8.5771 -0.7702 -1.6186 0.9656
8.5995 -0.4568 -1.6186 0.9656
8.5529 -0.1419 -1.6078 0.9658
8.6099 0.1713 -1.6186 0.9656
3.8886 -6.5968 -1.6187 0.9692
4.1266 -6.4506 -1.6187 0.9692
5.0208 -5.7819 -1.6187 0.9692
5.2284 -5.5949 -1.6187 0.9692
5.4290 -5.4005 -1.6187 0.9692
5.6224 -5.1989 -1.6187 0.9692
6.1566 -4.5536 -1.6187 0.9692
7.2065 -2.5894 -1.6187 0.9692
7.2961 -2.3248 -1.6187 0.9692
7.4462 -1.7867 -1.6187 0.9692
7.5064 -1.5139 -1.6187 0.9692
7.5566 -1.2391 -1.6187 0.9692
7.6565 -0.1270 -1.6187 0.9692
3.4974 -5.9332 -1.6187 0.9721
3.7115 -5.8017 -1.6187 0.9721
3.9207 -5.6625 -1.6187 0.9721
4.1246 -5.5157 -1.6187 0.9721
4.5157 -5.2003 -1.6187 0.9721
4.8829 -4.8572 -1.6187 0.9721
5.3842 -4.2948 -1.6187 0.9721
5.6830 -3.8908 -1.6187 0.9721
5.8211 -3.6809 -1.6187 0.9721
6.2945 -2.7953 -1.6187 0.9721
6.3922 -2.5638 -1.6187 0.9721
6.4815 -2.3289 -1.6187 0.9721
6.5622 -2.0909 -1.6187 0.9721
6.8775 -0.3654 -1.6187 0.9721
6.8859 0.1370 -1.6187 0.9721
3.1747 -5.3857 -1.6187 0.9745
3.9241 -4.8668 -1.6187 0.9745
4.4322 -4.4090 -1.6187 0.9745
4.8873 -3.8984 -1.6187 0.9745
5.0262 -3.7175 -1.6187 0.9745
5.2839 -3.3412 -1.6187 0.9745
5.4023 -3.1463 -1.6187 0.9745
5.6173 -2.7440 -1.6187 0.9745
5.7136 -2.5373 -1.6187 0.9745
6.0218 -1.6795 -1.6187 0.9745
6.0791 -1.4587 -1.6187 0.9745
6.2020 -0.7859 -1.6187 0.9745
6.2508 -0.1037 -1.6187 0.9745
6.2504 0.1244 -1.6187 0.9745
2.9036 -4.9258 -1.6187 0.9765
3.4242 -4.5791 -1.6187 0.9765
3.7490 -4.3173 -1.6187 0.9765
3.9039 -4.1776 -1.6187 0.9765
4.0537 -4.0325 -1.6187 0.9765
4.3369 -3.7262 -1.6187 0.9765
4.4700 -3.5655 -1.6187 0.9765
4.7180 -3.2301 -1.6187 0.9765
5.1376 -2.5097 -1.6187 0.9765
5.3810 -1.9335 -1.6187 0.9765
5.4479 -1.7359 -1.6187 0.9765
5.5600 -1.3341 -1.6187 0.9765
5.6049 -1.1304 -1.6187 0.9765
5.6949 -0.5114 -1.6187 0.9765
5.7097 -0.3033 -1.6187 0.9765
5.7170 -0.0948 -1.6187 0.9765
3.1517 -4.2146 -1.6187 0.9782
3.3033 -4.0968 -1.6187 0.9782
3.4505 -3.9736 -1.6187 0.9782
3.5932 -3.8451 -1.6187 0.9782
3.7310 -3.7115 -1.6187 0.9782
3.8639 -3.5729 -1.6187 0.9782
3.9917 -3.4296 -1.6187 0.9782
4.1141 -3.2817 -1.6187 0.9782
4.3424 -2.9730 -1.6187 0.9782
4.5476 -2.6485 -1.6187 0.9782
4.8097 -2.1359 -1.6187 0.9782
4.8844 -1.9590 -1.6187 0.9782
5.0142 -1.5977 -1.6187 0.9782
5.1933 -0.8516 -1.6187 0.9782
5.2552 -0.2792 -1.6187 0.9782
5.2619 -0.0873 -1.6187 0.9782
5.2616 0.1047 -1.6187 0.9782
2.6242 -4.1021 -1.6187 0.9797
2.9163 -3.8998 -1.6187 0.9797
3.1928 -3.6768 -1.6187 0.9797
3.3248 -3.5579 -1.6187 0.9797
3.4524 -3.4343 -1.6187 0.9797
3.6936 -3.1734 -1.6187 0.9797
3.8069 -3.0366 -1.6187 0.9797
4.0181 -2.7510 -1.6187 0.9797
4.1158 -2.6026 -1.6187 0.9797
4.3754 -2.1374 -1.6187 0.9797
4.4505 -1.9764 -1.6187 0.9797
4.8054 -0.7880 -1.6187 0.9797
4.8627 -0.2583 -1.6187 0.9797
4.8686 0.0969 -1.6187 0.9797
2.2986 -3.8994 -1.6187 0.9810
2.9678 -3.4177 -1.6187 0.9810
3.0905 -3.3072 -1.6187 0.9810
3.2091 -3.1922 -1.6187 0.9810
3.4333 -2.9498 -1.6187 0.9810
3.9114 -2.2780 -1.6187 0.9810
4.0671 -1.9868 -1.6187 0.9810
4.2598 -1.5306 -1.6187 0.9810
4.3600 -1.2160 -1.6187 0.9810
4.4371 -0.8949 -1.6187 0.9810
4.4905 -0.5690 -1.6187 0.9810
4.5083 -0.4048 -1.6187 0.9810
4.5200 -0.2401 -1.6187 0.9810
4.5255 0.0900 -1.6187 0.9810
2.2762 -3.5581 -1.6187 0.9821
2.4045 -3.4727 -1.6187 0.9821
2.6513 -3.2882 -1.6187 0.9821
2.8839 -3.0861 -1.6187 0.9821
2.9946 -2.9789 -1.6187 0.9821
3.3960 -2.5117 -1.6187 0.9821
3.4853 -2.3862 -1.6187 0.9821
3.7251 -1.9912 -1.6187 0.9821
3.8604 -1.7143 -1.6187 0.9821
3.9751 -1.4283 -1.6187 0.9821
4.0686 -1.1347 -1.6187 0.9821
4.1405 -0.8351 -1.6187 0.9821
4.2070 -0.3778 -1.6187 0.9821
2.1313 -3.3316 -1.6187 0.9831
2.2514 -3.2516 -1.6187 0.9831
2.3685 -3.1674 -1.6187 0.9831
2.4825 -3.0789 -1.6187 0.9831
2.5932 -2.9862 -1.6187 0.9831
2.7004 -2.8897 -1.6187 0.9831
2.8040 -2.7892 -1.6187 0.9831
3.1798 -2.3519 -1.6187 0.9831
3.4176 -1.9904 -1.6187 0.9831
3.4880 -1.8644 -1.6187 0.9831
3.7683 -1.2007 -1.6187 0.9831
3.8096 -1.0625 -1.6187 0.9831
3.8458 -0.9228 -1.6187 0.9831
3.9392 -0.3537 -1.6187 0.9831
3.9494 -0.2098 -1.6187 0.9831
3.9542 0.0787 -1.6187 0.9831
1.8861 -3.1996 -1.6187 0.9839
2.0015 -3.1287 -1.6187 0.9839
2.2243 -2.9745 -1.6187 0.9839
2.4352 -2.8044 -1.6187 0.9839
2.5359 -2.7137 -1.6187 0.9839
2.6332 -2.6194 -1.6187 0.9839
2.7270 -2.5216 -1.6187 0.9839
2.8172 -2.4204 -1.6187 0.9839
2.9861 -2.2086 -1.6187 0.9839
3.0647 -2.0982 -1.6187 0.9839
3.3372 -1.6302 -1.6187 0.9839
3.3945 -1.5074 -1.6187 0.9839
3.4472 -1.3826 -1.6187 0.9839
3.5776 -0.9978 -1.6187 0.9839
3.6116 -0.8666 -1.6187 0.9839
3.6408 -0.7343 -1.6187 0.9839
3.6847 -0.4669 -1.6187 0.9839
3.7136 -0.0616 -1.6187 0.9839
1.7758 -3.0125 -1.6187 0.9847
1.9907 -2.8750 -1.6187 0.9847
2.0942 -2.8005 -1.6187 0.9847
2.1950 -2.7223 -1.6187 0.9847
2.2928 -2.6404 -1.6187 0.9847
2.4792 -2.4662 -1.6187 0.9847
2.6524 -2.2789 -1.6187 0.9847
2.7338 -2.1806 -1.6187 0.9847
2.8115 -2.0795 -1.6187 0.9847
2.8855 -1.9755 -1.6187 0.9847
3.0218 -1.7599 -1.6187 0.9847
3.0840 -1.6485 -1.6187 0.9847
3.1960 -1.4193 -1.6187 0.9847
3.3319 -1.0617 -1.6187 0.9847
3.3684 -0.9394 -1.6187 0.9847
3.4279 -0.6913 -1.6187 0.9847
3.4509 -0.5658 -1.6187 0.9847
3.4920 -0.1855 -1.6187 0.9847
3.4965 -0.0580 -1.6187 0.9847
3.4963 0.0696 -1.6187 0.9847
1.6757 -2.8428 -1.6187 0.9854
1.7783 -2.7798 -1.6187 0.9854
1.9762 -2.6427 -1.6187 0.9854
2.1636 -2.4916 -1.6187 0.9854
2.2531 -2.4110 -1.6187 0.9854
2.3395 -2.3273 -1.6187 0.9854
2.4229 -2.2404 -1.6187 0.9854
2.6531 -1.9623 -1.6187 0.9854
2.9650 -1.4484 -1.6187 0.9854
3.0159 -1.3393 -1.6187 0.9854
3.1055 -1.1159 -1.6187 0.9854
3.1442 -1.0019 -1.6187 0.9854
3.1786 -0.8865 -1.6187 0.9854
3.2867 -0.2951 -1.6187 0.9854
3.2995 -0.0547 -1.6187 0.9854
3.2993 0.0656 -1.6187 0.9854
1.9585 -2.4290 -1.6187 0.9860
2.0458 -2.3559 -1.6187 0.9860
2.1304 -2.2797 -1.6187 0.9860
2.3666 -2.0334 -1.6187 0.9860
2.4392 -1.9457 -1.6187 0.9860
2.5086 -1.8554 -1.6187 0.9860
2.5746 -1.7627 -1.6187 0.9860
2.6962 -1.5703 -1.6187 0.9860
2.8959 -1.1615 -1.6187 0.9860
3.0341 -0.7280 -1.6187 0.9860
3.1158 -0.1655 -1.6187 0.9860
3.1196 0.0621 -1.6187 0.9860
1.5926 -2.4896 -1.6187 0.9866
1.6824 -2.4298 -1.6187 0.9866
2.0179 -2.1593 -1.6187 0.9866
2.2417 -1.9260 -1.6187 0.9866
2.3104 -1.8429 -1.6187 0.9866
2.3761 -1.7574 -1.6187 0.9866
2.4979 -1.5795 -1.6187 0.9866
2.6064 -1.3932 -1.6187 0.9866
2.6555 -1.2972 -1.6187 0.9866
2.7430 -1.1002 -1.6187 0.9866
2.7813 -0.9994 -1.6187 0.9866
2.8159 -0.8973 -1.6187 0.9866
2.8971 -0.5843 -1.6187 0.9866
2.9165 -0.4782 -1.6187 0.9866
2.9320 -0.3715 -1.6187 0.9866
2.9436 -0.2643 -1.6187 0.9866
2.9513 -0.1568 -1.6187 0.9866
2.9550 -0.0490 -1.6187 0.9866
2.9548 0.0588 -1.6187 0.9866
1.5109 -2.3617 -1.6187 0.9871
1.5960 -2.3051 -1.6187 0.9871
1.7598 -2.1826 -1.6187 0.9871
1.9877 -1.9773 -1.6187 0.9871
2.0585 -1.9034 -1.6187 0.9871
2.1266 -1.8271 -1.6187 0.9871
2.3134 -1.5838 -1.6187 0.9871
2.4227 -1.4110 -1.6187 0.9871
2.4726 -1.3217 -1.6187 0.9871
2.5624 -1.1379 -1.6187 0.9871
2.6022 -1.0437 -1.6187 0.9871
2.6385 -0.9481 -1.6187 0.9871
2.6713 -0.8512 -1.6187 0.9871
2.7006 -0.7532 -1.6187 0.9871
2.7814 -0.3524 -1.6187 0.9871
2.7924 -0.2507 -1.6187 0.9871
2.7997 -0.1487 -1.6187 0.9871
2.8033 -0.0465 -1.6187 0.9871
2.8031 0.0558 -1.6187 0.9871
