ply
format ascii 1.0
element vertex 488
property float32 x
property float32 y
property float32 z
property float32 I
end_header
-7.8011 37.4835 6.7510 0.8560
-8.5479 30.1141 5.5197 0.8806
-9.6417 29.8662 5.5339 0.8803
-10.1044 25.0326 4.7600 0.8962
-12.2947 21.1572 4.3147 0.9054
-12.6091 20.0181 4.1716 0.9084
-12.9039 18.9510 4.0427 0.9111
-12.4700 15.7665 3.5445 0.9216
-14.3699 11.7990 3.2785 0.9273
-14.7818 11.2787 3.2785 0.9273
-15.1748 10.7440 3.2785 0.9273
-4.8165 48.9312 7.5322 0.8196
-5.4915 40.7938 6.3058 0.8466
-6.7601 39.4997 6.1391 0.8503
-7.8011 37.4835 5.8653 0.8565
-8.5478 30.1136 4.7955 0.8810
-9.5319 26.2793 4.2825 0.8930
-11.0777 24.8500 4.1680 0.8957
-11.6076 23.7240 4.0461 0.8986
-12.2945 21.1569 3.7486 0.9057
-12.8669 18.8966 3.5022 0.9116
-13.2344 18.0188 3.4249 0.9135
-13.9855 15.2994 3.1755 0.9195
-14.2130 14.4753 3.1078 0.9212
-14.4313 13.6847 3.0467 0.9227
-14.5994 12.8865 2.9832 0.9242
-14.9837 11.4327 2.8873 0.9266
-15.1885 10.7537 2.8510 0.9275
-4.7997 48.7598 6.3802 0.8207
-6.7652 39.5294 5.2224 0.8506
-8.5336 34.7383 4.6581 0.8656
-9.5977 29.7298 4.0682 0.8816
-9.5050 26.2050 3.6300 0.8936
-10.0964 25.0127 3.5125 0.8969
-11.6078 23.7243 3.4394 0.8989
-11.9575 22.3790 3.3041 0.9027
-12.2948 21.1573 3.1865 0.9060
-12.6092 20.0183 3.0808 0.9090
-12.9039 18.9510 2.9856 0.9117
-13.2343 18.0188 2.9113 0.9138
-13.4587 17.0164 2.8252 0.9162
-13.7473 16.1609 2.7629 0.9180
-14.4242 14.6904 2.6810 0.9203
-12.1745 10.7461 2.1146 0.9366
-12.4746 9.5183 2.0433 0.9387
-4.7996 48.7598 5.2612 0.8211
-5.4904 40.7861 4.4192 0.8474
-7.8011 37.4832 4.1112 0.8572
-8.5336 34.7383 3.8412 0.8660
-9.6280 29.8239 3.3653 0.8815
-10.3395 28.5058 3.2561 0.8852
-10.7825 26.7124 3.0933 0.8906
-11.2130 25.1536 2.9573 0.8951
-11.6077 23.7242 2.8361 0.8992
-9.9879 18.6929 2.2758 0.9183
-12.2948 21.1573 2.6277 0.9062
-13.2343 18.0188 2.4007 0.9140
-13.7472 16.1609 2.2783 0.9182
-14.6708 14.9416 2.2486 0.9192
-14.8962 14.1255 2.2044 0.9207
-14.5994 12.8865 2.0911 0.9246
-14.9654 12.2879 2.0793 0.9251
-14.9978 11.4435 2.0258 0.9269
-15.1884 10.7536 1.9984 0.9279
-6.7475 39.4261 3.3861 0.8517
-8.5337 34.7388 3.0282 0.8662
-10.6726 29.4240 2.6496 0.8819
-8.9535 22.1815 2.0249 0.9084
-12.0303 24.5880 2.3172 0.8959
-9.9686 18.6567 1.7907 0.9186
-12.4424 21.4114 2.0963 0.9054
-12.7134 20.1836 2.0193 0.9087
-13.7472 16.1609 1.7961 0.9184
-13.9855 15.2994 1.7547 0.9202
-14.6708 14.9416 1.7726 0.9194
-14.9224 14.1504 1.7409 0.9208
-15.1883 10.7536 1.5754 0.9280
-8.5337 34.7387 2.2182 0.8664
-9.8152 30.4035 1.9811 0.8798
-11.2129 25.1533 1.7077 0.8955
-12.0039 24.5339 1.6937 0.8963
-12.4424 21.4114 1.5356 0.9055
-12.7134 20.1837 1.4792 0.9088
-14.9224 14.1504 1.2752 0.9209
-15.1883 10.7536 1.1540 0.9281
-6.9384 40.5412 1.6218 0.8482
-7.8012 37.4838 1.5097 0.8579
-9.2308 32.5200 1.3330 0.8734
-10.6726 29.4240 1.2342 0.8822
-11.2129 25.1532 1.0859 0.8956
-9.7832 18.3098 0.8186 0.9203
-10.6211 15.5985 0.7441 0.9272
-10.8514 14.7745 0.7228 0.9292
-11.2091 13.1771 0.6821 0.9331
-11.8422 11.2296 0.6435 0.9368
-12.0164 10.6065 0.6320 0.9379
-12.1846 10.0046 0.6217 0.9388
-12.3476 9.4214 0.6124 0.9397
-12.5061 8.8545 0.6042 0.9405
-4.7720 48.4784 0.8229 0.8229
-5.9553 44.2398 0.7540 0.8365
-5.6894 33.2435 0.5697 0.8738
-6.3940 30.7225 0.5301 0.8820
-7.5483 26.5926 0.4669 0.8953
-7.9817 24.7242 0.4389 0.9013
-8.8517 21.9292 0.3995 0.9097
-9.2078 20.6553 0.3820 0.9135
-9.5344 19.4867 0.3665 0.9169
-9.7832 18.3098 0.3507 0.9203
-10.3765 16.4736 0.3289 0.9251
-10.6211 15.5985 0.3188 0.9273
-11.0692 13.9953 0.3014 0.9311
-11.4729 12.5508 0.2872 0.9342
-12.5060 8.8545 0.2588 0.9405
-4.6218 46.9535 -0.2656 0.8280
-5.6894 33.2434 -0.1899 0.8738
-7.0077 28.5267 -0.1654 0.8891
-7.5483 26.5925 -0.1556 0.8953
-9.5344 19.4867 -0.1221 0.9169
-9.7832 18.3098 -0.1169 0.9203
-10.8514 14.7745 -0.1032 0.9293
-11.0692 13.9953 -0.1005 0.9311
-11.2091 13.1771 -0.0974 0.9331
-11.8422 11.2296 -0.0919 0.9368
-12.0163 10.6065 -0.0902 0.9379
-12.1846 10.0046 -0.0888 0.9389
-12.3476 9.4214 -0.0874 0.9398
-2.8707 45.9246 -1.2957 0.8318
-4.0877 41.5270 -1.1748 0.8462
-7.5483 26.5925 -0.7784 0.8953
-7.9817 24.7242 -0.7316 0.9013
-8.8517 21.9291 -0.6659 0.9097
-9.2077 20.6553 -0.6368 0.9135
-9.5344 19.4867 -0.6109 0.9169
-10.1156 17.4073 -0.5669 0.9226
-10.3765 16.4736 -0.5482 0.9250
-10.6211 15.5985 -0.5314 0.9273
-10.8514 14.7745 -0.5162 0.9293
-12.0163 10.6065 -0.4513 0.9379
-12.1846 10.0046 -0.4439 0.9389
-12.3476 9.4214 -0.4373 0.9397
-12.5061 8.8545 -0.4315 0.9405
1.2904 28.8844 -1.4663 0.8907
-0.7729 28.9037 -1.4664 0.8906
-4.8777 28.5013 -1.4664 0.8906
-5.8918 28.3094 -1.4665 0.8906
-6.8984 28.0816 -1.4665 0.8906
-8.4610 23.3269 -1.2584 0.9054
-9.2078 20.6553 -1.1469 0.9134
-9.7832 18.3098 -1.0528 0.9202
-10.1156 17.4073 -1.0210 0.9225
-10.8514 14.7744 -0.9297 0.9292
-11.0692 13.9953 -0.9049 0.9310
-11.2091 13.1771 -0.8773 0.9331
-11.4729 12.5508 -0.8624 0.9342
-11.6613 11.8766 -0.8441 0.9355
-12.0163 10.6065 -0.8128 0.9378
-12.1846 10.0046 -0.7995 0.9388
-12.3476 9.4214 -0.7877 0.9397
-12.5060 8.8545 -0.7771 0.9405
0.8926 19.9782 -1.4663 0.9229
-0.5346 19.9914 -1.4663 0.9229
-4.7712 19.4223 -1.4664 0.9229
-5.4612 19.2398 -1.4664 0.9229
-6.8197 18.8017 -1.4665 0.9229
-10.3765 16.4736 -1.4275 0.9249
-10.6211 15.5984 -1.3837 0.9271
-11.6614 11.8766 -1.2204 0.9354
-12.5060 8.8545 -1.1235 0.9404
0.6817 15.2580 -1.4663 0.9405
-0.9529 15.2438 -1.4663 0.9405
-2.0377 15.1373 -1.4664 0.9405
-3.6438 14.8332 -1.4664 0.9405
-4.1708 14.6938 -1.4664 0.9405
-4.6925 14.5357 -1.4664 0.9405
-7.1985 13.4724 -1.4665 0.9405
-7.6747 13.2069 -1.4665 0.9405
-8.1411 12.9248 -1.4665 0.9405
-8.5972 12.6261 -1.4665 0.9405
-9.0423 12.3114 -1.4665 0.9405
-9.8975 11.6352 -1.4665 0.9405
-10.3064 11.2747 -1.4665 0.9405
-11.0844 10.5110 -1.4665 0.9405
-11.8060 9.6938 -1.4666 0.9405
-12.1444 9.2663 -1.4666 0.9405
-12.4674 8.8271 -1.4666 0.9405
0.5510 12.3318 -1.4663 0.9515
0.1106 12.3437 -1.4663 0.9515
-0.3300 12.3398 -1.4663 0.9515
-0.7701 12.3203 -1.4663 0.9515
-1.2092 12.2850 -1.4663 0.9515
-2.9450 11.9883 -1.4664 0.9515
-4.2093 11.6051 -1.4664 0.9515
-4.6208 11.4476 -1.4664 0.9515
-5.0264 11.2754 -1.4664 0.9515
-5.4255 11.0890 -1.4664 0.9515
-5.8178 10.8884 -1.4664 0.9515
-6.5796 10.4458 -1.4664 0.9515
-7.3080 9.9500 -1.4665 0.9515
-7.6584 9.6829 -1.4665 0.9515
-8.3296 9.1121 -1.4665 0.9515
-9.5415 7.8344 -1.4665 0.9515
-9.8150 7.4890 -1.4665 0.9515
0.4619 10.3384 -1.4663 0.9591
0.0927 10.3484 -1.4663 0.9591
-0.6456 10.3287 -1.4663 0.9591
-1.0138 10.2992 -1.4663 0.9591
-1.3807 10.2565 -1.4663 0.9591
-2.1087 10.1320 -1.4664 0.9591
-2.8260 9.9559 -1.4664 0.9591
-3.1794 9.8488 -1.4664 0.9591
-3.8738 9.5970 -1.4664 0.9591
-4.5485 9.2964 -1.4664 0.9591
-5.5160 8.7571 -1.4664 0.9591
-5.8250 8.5548 -1.4664 0.9591
-6.4204 8.1176 -1.4664 0.9590
0.3973 8.8919 -1.4663 0.9646
0.0797 8.9005 -1.4663 0.9646
-0.5553 8.8835 -1.4663 0.9646
-0.8719 8.8581 -1.4663 0.9646
-1.5015 8.7734 -1.4663 0.9646
-2.7346 8.4707 -1.4664 0.9646
-3.0351 8.3677 -1.4664 0.9646
-3.9120 7.9956 -1.4664 0.9646
-4.4724 7.6962 -1.4664 0.9646
-4.7442 7.5318 -1.4664 0.9646
-5.0099 7.3577 -1.4664 0.9646
-5.2693 7.1743 -1.4664 0.9646
-5.7676 6.7802 -1.4664 0.9646
-6.6737 5.8907 -1.4664 0.9646
-6.8797 5.6488 -1.4665 0.9646
-7.2651 5.1438 -1.4665 0.9646
0.3482 7.7933 -1.4663 0.9687
0.0699 7.8008 -1.4663 0.9687
-0.2085 7.7984 -1.4663 0.9687
-0.4867 7.7860 -1.4663 0.9687
-1.0407 7.7315 -1.4663 0.9687
-1.3160 7.6895 -1.4663 0.9687
-1.5896 7.6377 -1.4663 0.9687
-2.6601 7.3339 -1.4664 0.9687
-3.4287 7.0077 -1.4664 0.9687
-3.9198 6.7454 -1.4664 0.9687
-4.1580 6.6012 -1.4664 0.9687
-4.3909 6.4486 -1.4664 0.9687
-5.2638 5.7584 -1.4664 0.9687
-5.6612 5.3683 -1.4664 0.9687
0.3096 6.9299 -1.4663 0.9720
0.0622 6.9366 -1.4663 0.9720
-0.1854 6.9344 -1.4663 0.9720
-0.6795 6.9036 -1.4663 0.9720
-1.6549 6.7367 -1.4663 0.9720
-1.8942 6.6734 -1.4664 0.9720
-2.5966 6.4328 -1.4664 0.9720
-3.0488 6.2313 -1.4664 0.9720
-3.2692 6.1185 -1.4664 0.9720
-3.4855 5.9980 -1.4664 0.9720
-4.1065 5.5912 -1.4664 0.9720
-4.4949 5.2841 -1.4664 0.9720
-4.6806 5.1203 -1.4664 0.9720
-4.8603 4.9501 -1.4664 0.9720
-5.2010 4.5908 -1.4664 0.9720
-5.3616 4.4023 -1.4664 0.9720
-5.5152 4.2082 -1.4664 0.9720
-5.6619 4.0087 -1.4664 0.9720
0.2785 6.2328 -1.4663 0.9747
-0.8323 6.1833 -1.4663 0.9747
-1.0525 6.1497 -1.4663 0.9747
-1.9168 5.9374 -1.4664 0.9747
-2.3354 5.7857 -1.4664 0.9747
-2.5403 5.6986 -1.4664 0.9747
-2.7421 5.6044 -1.4664 0.9747
-2.9403 5.5030 -1.4664 0.9747
-3.1348 5.3946 -1.4664 0.9747
-3.5116 5.1573 -1.4664 0.9747
-3.6934 5.0287 -1.4664 0.9747
-3.8705 4.8937 -1.4664 0.9747
-4.0427 4.7525 -1.4664 0.9747
-4.3714 4.4521 -1.4664 0.9747
-4.6778 4.1290 -1.4664 0.9747
-4.8221 3.9594 -1.4664 0.9747
-4.9604 3.7848 -1.4664 0.9747
-5.0923 3.6054 -1.4664 0.9747
-0.1514 5.6612 -1.4663 0.9769
-0.3533 5.6522 -1.4663 0.9769
-0.9553 5.5821 -1.4663 0.9769
-1.7399 5.3895 -1.4663 0.9769
-2.3059 5.1727 -1.4664 0.9769
-2.6689 4.9951 -1.4664 0.9769
-2.8455 4.8967 -1.4664 0.9769
-3.0184 4.7921 -1.4664 0.9769
-3.5133 4.4420 -1.4664 0.9769
-3.8212 4.1802 -1.4664 0.9769
-3.9679 4.0412 -1.4664 0.9769
-4.5135 3.7060 -1.5121 0.9762
0.0464 5.1794 -1.4663 0.9787
-1.2357 5.0301 -1.4663 0.9787
-1.4144 4.9829 -1.4663 0.9787
-1.5913 4.9292 -1.4663 0.9787
-1.7662 4.8693 -1.4663 0.9787
-1.9388 4.8032 -1.4663 0.9787
-2.1090 4.7310 -1.4664 0.9787
-2.2764 4.6527 -1.4664 0.9787
-2.4410 4.5685 -1.4664 0.9787
-2.6025 4.4785 -1.4664 0.9787
-2.9153 4.2815 -1.4664 0.9787
-3.0662 4.1748 -1.4664 0.9787
-3.3887 3.9837 -1.4806 0.9785
-4.4029 3.6152 -1.6128 0.9766
-4.5349 3.4602 -1.6149 0.9766
-4.6618 3.3006 -1.6170 0.9765
0.0450 5.0203 -1.5442 0.9792
-0.3067 4.9068 -1.5122 0.9796
-0.8114 4.7412 -1.4795 0.9801
-0.9756 4.6877 -1.4727 0.9802
-1.3021 4.5872 -1.4667 0.9802
-1.4650 4.5381 -1.4668 0.9802
-1.7904 4.4356 -1.4712 0.9802
-2.4563 4.2269 -1.5037 0.9797
-2.6297 4.1750 -1.5177 0.9796
-2.9917 4.0733 -1.5545 0.9791
-3.1795 4.0200 -1.5765 0.9788
-3.3726 3.9648 -1.6010 0.9785
-3.5361 3.8683 -1.6120 0.9783
-3.6752 3.7430 -1.6135 0.9783
-3.8101 3.6130 -1.6150 0.9783
-3.9408 3.4784 -1.6167 0.9782
-0.1297 4.8498 -1.6127 0.9798
-0.4748 4.8238 -1.6112 0.9798
-0.6427 4.7748 -1.6015 0.9799
-0.8079 4.7205 -1.5919 0.9800
-0.9711 4.6663 -1.5844 0.9801
-1.6192 4.4640 -1.5785 0.9802
-1.9454 4.3641 -1.5883 0.9801
-2.1103 4.3130 -1.5961 0.9800
-2.2767 4.2611 -1.6059 0.9798
-2.7313 4.0112 -1.6131 0.9798
-2.8744 3.9136 -1.6141 0.9797
-3.1506 3.7038 -1.6164 0.9797
-3.4119 3.4749 -1.6188 0.9797
-3.6510 3.2227 -1.6188 0.9797
-3.9746 2.8140 -1.6188 0.9797
0.2021 4.5220 -1.6187 0.9810
0.0406 4.5263 -1.6187 0.9810
-0.1209 4.5228 -1.6180 0.9810
-0.2821 4.5135 -1.6172 0.9810
-0.6029 4.4786 -1.6160 0.9810
-0.9203 4.4220 -1.6152 0.9810
-1.2330 4.3441 -1.6148 0.9810
-1.5399 4.2454 -1.6150 0.9810
-1.6906 4.1882 -1.6152 0.9810
-2.1300 3.9864 -1.6163 0.9810
-2.6796 3.6483 -1.6188 0.9810
-2.9330 3.4479 -1.6188 0.9810
-3.3937 2.9956 -1.6188 0.9810
-3.6944 2.6157 -1.6188 0.9810
0.1885 4.2198 -1.6187 0.9821
-0.1129 4.2225 -1.6187 0.9821
-0.2635 4.2158 -1.6187 0.9821
-0.4138 4.2037 -1.6187 0.9821
-0.7125 4.1635 -1.6187 0.9821
-0.8606 4.1354 -1.6187 0.9821
-1.2977 4.0198 -1.6187 0.9821
-1.4403 3.9709 -1.6187 0.9821
-1.5811 3.9170 -1.6187 0.9821
-1.7198 3.8581 -1.6187 0.9821
-2.3774 3.4916 -1.6188 0.9821
-2.5005 3.4045 -1.6188 0.9821
-2.6204 3.3131 -1.6188 0.9821
-2.7369 3.2175 -1.6188 0.9821
-2.8500 3.1178 -1.6188 0.9821
-3.2646 2.6806 -1.6188 0.9821
0.1765 3.9511 -1.6187 0.9831
0.0354 3.9549 -1.6187 0.9831
-0.1057 3.9537 -1.6187 0.9831
-1.0800 3.8048 -1.6187 0.9831
-1.2151 3.7639 -1.6187 0.9831
-1.7382 3.5527 -1.6187 0.9831
-1.8639 3.4884 -1.6187 0.9831
-2.1080 3.3466 -1.6188 0.9831
-2.3413 3.1877 -1.6188 0.9831
-2.6686 2.9193 -1.6188 0.9831
-2.9653 2.6174 -1.6188 0.9831
-3.2280 2.2855 -1.6188 0.9831
0.1658 3.7105 -1.6187 0.9839
-0.2317 3.7070 -1.6187 0.9839
-0.3638 3.6963 -1.6187 0.9839
-0.4955 3.6810 -1.6187 0.9839
-0.7568 3.6363 -1.6187 0.9839
-1.0142 3.5731 -1.6187 0.9839
-1.1411 3.5346 -1.6187 0.9839
-1.5123 3.3925 -1.6187 0.9839
-1.6324 3.3363 -1.6187 0.9839
-1.8662 3.2114 -1.6187 0.9839
-2.1987 2.9936 -1.6188 0.9839
-2.3041 2.9132 -1.6188 0.9839
-2.5060 2.7415 -1.6188 0.9839
-2.7847 2.4580 -1.6188 0.9839
-2.8706 2.3570 -1.6188 0.9839
-2.9529 2.2531 -1.6188 0.9839
0.0313 3.4969 -1.6187 0.9847
-0.2182 3.4902 -1.6187 0.9847
-0.3426 3.4802 -1.6187 0.9847
-0.5899 3.4469 -1.6187 0.9847
-0.7125 3.4237 -1.6187 0.9847
-0.8343 3.3961 -1.6187 0.9847
-1.1924 3.2875 -1.6187 0.9847
-1.4238 3.1941 -1.6187 0.9847
-1.6480 3.0844 -1.6187 0.9847
-1.7570 3.0236 -1.6187 0.9847
-1.9682 2.8906 -1.6187 0.9847
-2.2659 2.6637 -1.6188 0.9847
-2.5376 2.4063 -1.6188 0.9847
-2.7027 2.2192 -1.6188 0.9847
-2.7802 2.1214 -1.6188 0.9847
-2.8542 2.0208 -1.6188 0.9847
-0.2059 3.2935 -1.6187 0.9854
-0.3233 3.2841 -1.6187 0.9854
-0.4403 3.2705 -1.6187 0.9854
-0.5567 3.2527 -1.6187 0.9854
-0.6724 3.2308 -1.6187 0.9854
-0.7872 3.2047 -1.6187 0.9854
-0.9011 3.1746 -1.6187 0.9854
-1.0138 3.1404 -1.6187 0.9854
-1.1252 3.1022 -1.6187 0.9854
-1.2352 3.0601 -1.6187 0.9854
-1.6580 2.8533 -1.6187 0.9854
-1.7588 2.7923 -1.6187 0.9854
-1.8573 2.7277 -1.6187 0.9854
-2.2265 2.4357 -1.6188 0.9854
-2.4741 2.1838 -1.6188 0.9854
-2.5505 2.0942 -1.6188 0.9854
-2.6235 2.0018 -1.6188 0.9854
-1.1159 0.7901 -0.6707 0.9939
0.1393 3.1171 -1.6187 0.9860
-0.0834 3.1191 -1.6187 0.9860
-0.1946 3.1142 -1.6187 0.9860
-0.3056 3.1052 -1.6187 0.9860
-0.5263 3.0755 -1.6187 0.9860
-0.7443 3.0302 -1.6187 0.9860
-0.8520 3.0017 -1.6187 0.9860
-0.9586 2.9694 -1.6187 0.9860
-1.0639 2.9333 -1.6187 0.9860
-1.2704 2.8499 -1.6187 0.9860
-1.4704 2.7521 -1.6187 0.9860
-1.6630 2.6402 -1.6187 0.9860
-1.7561 2.5792 -1.6187 0.9860
-1.8471 2.5148 -1.6187 0.9860
-1.9356 2.4473 -1.6187 0.9860
-2.0217 2.3767 -1.6187 0.9860
-2.2642 2.1471 -1.6188 0.9860
-2.4115 1.9801 -1.6188 0.9860
-1.0504 0.8015 -0.6855 0.9941
-1.0547 0.7467 -0.6704 0.9942
0.0265 2.9553 -1.6187 0.9866
-0.0790 2.9544 -1.6187 0.9866
-0.1844 2.9497 -1.6187 0.9866
-0.3943 2.9290 -1.6187 0.9866
-0.7050 2.8701 -1.6187 0.9866
-0.9079 2.8125 -1.6187 0.9866
-1.1062 2.7406 -1.6187 0.9866
-1.2033 2.6994 -1.6187 0.9866
-1.3928 2.6067 -1.6187 0.9866
-1.4849 2.5554 -1.6187 0.9866
-1.5752 2.5007 -1.6187 0.9866
-1.7495 2.3820 -1.6187 0.9866
-1.9150 2.2512 -1.6187 0.9866
-2.0707 2.1089 -1.6187 0.9866
-2.1446 2.0337 -1.6188 0.9866
-1.0053 0.7118 -0.6747 0.9944
0.1251 2.8009 -1.6187 0.9871
-0.1749 2.7982 -1.6187 0.9871
-0.2746 2.7902 -1.6187 0.9871
-0.3740 2.7786 -1.6187 0.9871
-0.5712 2.7449 -1.6187 0.9871
-0.6688 2.7228 -1.6187 0.9871
-0.7656 2.6972 -1.6187 0.9871
-0.9560 2.6357 -1.6187 0.9871
-1.0494 2.5999 -1.6187 0.9871
-1.3213 2.4729 -1.6187 0.9871
-1.4087 2.4242 -1.6187 0.9871
-1.4943 2.3723 -1.6187 0.9871
-1.7393 2.1991 -1.6187 0.9871
-1.8166 2.1356 -1.6187 0.9871
-0.9199 0.8723 -0.7319 0.9942
-0.9286 0.8196 -0.7151 0.9943
-0.9186 0.7543 -0.6862 0.9945
-0.9396 0.7170 -0.6824 0.9946
-0.9594 0.6793 -0.6787 0.9946
