ply
format ascii 1.0
element vertex 503
property float32 x
property float32 y
property float32 z
property float32 I
end_header
-23.1684 -37.7540 7.8106 0.8353
-21.5918 -38.1892 7.7356 0.8368
-20.0640 -38.6566 7.6796 0.8379
-18.5793 -39.1666 7.6438 0.8386
-17.0121 -39.4536 7.5759 0.8399
-15.5209 -39.8652 7.5433 0.8405
-3.6959 -15.9301 2.8834 0.9357
-6.6903 -42.4490 7.5773 0.8398
-5.1782 -42.7663 7.5959 0.8395
-20.1095 -38.7442 6.6873 0.8381
-17.0121 -39.4536 6.5820 0.8404
-15.5209 -39.8653 6.5537 0.8410
-11.6925 -43.2904 6.8695 0.8341
-6.6903 -42.4490 6.5832 0.8404
-5.1900 -42.8632 6.6144 0.8397
-3.6613 -43.1395 6.6325 0.8393
-2.1294 -43.5624 6.6815 0.8382
1.0363 -45.4286 6.9612 0.8320
11.5097 -47.4924 7.4862 0.8206
-23.1684 -37.7540 5.7683 0.8364
-21.5791 -38.1667 5.7095 0.8379
-19.9979 -38.5293 5.6529 0.8394
-16.9523 -39.3150 5.5753 0.8414
-13.9913 -40.1325 5.5346 0.8424
-12.5232 -40.5378 5.5250 0.8427
-11.0583 -40.9423 5.5226 0.8428
-5.1581 -42.6002 5.5880 0.8411
-3.6531 -43.0418 5.6251 0.8401
-2.1234 -43.4381 5.6633 0.8391
2.6246 -44.7120 5.8324 0.8347
4.2776 -45.1498 5.9058 0.8328
5.9781 -45.6252 5.9921 0.8306
7.7315 -46.1152 6.0890 0.8281
9.5448 -46.6220 6.1971 0.8253
6.6105 -23.5561 3.1860 0.9060
14.7478 -46.1325 6.3069 0.8225
-23.1683 -37.7539 4.7566 0.8368
-21.5918 -38.1892 4.7109 0.8382
-20.1094 -38.7441 4.6874 0.8389
-17.0121 -39.4535 4.6137 0.8413
-15.5209 -39.8652 4.5938 0.8419
-14.0406 -40.2738 4.5800 0.8423
-6.6750 -42.3519 4.6040 0.8416
-3.6613 -43.1383 4.6489 0.8402
-1.0715 -21.9191 2.3565 0.9155
-0.5727 -43.9910 4.7242 0.8378
2.6246 -44.7120 4.8095 0.8351
7.7315 -46.1152 5.0210 0.8285
9.5448 -46.6220 5.1102 0.8258
11.4262 -47.1479 5.2094 0.8227
12.5013 -44.5477 4.9684 0.8302
13.9330 -43.5837 4.9134 0.8319
-23.0953 -37.6350 3.7380 0.8376
-19.9954 -38.5245 3.6743 0.8401
-16.9907 -39.4040 3.6325 0.8418
-15.3316 -39.3792 3.5773 0.8440
-14.0229 -40.2233 3.6060 0.8428
-12.5515 -40.6295 3.5998 0.8431
-8.1413 -41.8471 3.6089 0.8427
-5.1662 -42.6673 3.6383 0.8415
2.6247 -44.7120 3.7915 0.8354
5.9781 -45.6251 3.8953 0.8313
11.4262 -47.1479 4.1067 0.8230
12.5013 -44.5477 3.9168 0.8305
13.3076 -41.6272 3.6995 0.8391
15.0714 -41.9062 3.7699 0.8363
17.1530 -42.8128 3.9043 0.8310
-23.1683 -37.7539 2.7468 0.8373
-21.5918 -38.1892 2.7204 0.8388
-20.0777 -38.6831 2.7026 0.8397
-16.5759 -34.9434 2.3983 0.8564
-15.3715 -39.4815 2.6273 0.8438
-14.0406 -40.2738 2.6448 0.8429
-12.4906 -40.4323 2.6241 0.8440
-11.0972 -41.0864 2.6391 0.8432
-8.1515 -41.8997 2.6469 0.8428
-6.6750 -42.3519 2.6587 0.8421
-2.1294 -43.5612 2.7045 0.8396
2.6246 -44.7121 2.7774 0.8357
4.2776 -45.1498 2.8123 0.8338
5.9781 -45.6252 2.8534 0.8316
9.5448 -46.6220 2.9510 0.8264
13.3076 -41.6273 2.7100 0.8393
13.6078 -30.7277 2.0839 0.8740
-23.1683 -37.7539 1.7466 0.8375
-21.5918 -38.1892 1.7299 0.8389
-18.5793 -39.1666 1.7093 0.8407
-15.3715 -39.4815 1.6706 0.8440
-13.9835 -40.1101 1.6749 0.8436
-12.4906 -40.4323 1.6686 0.8442
-3.6924 -15.9149 0.6442 0.9367
-8.1515 -41.8997 1.6831 0.8429
-2.1294 -43.5612 1.7197 0.8398
-0.5727 -43.9910 1.7348 0.8385
4.2776 -45.1498 1.7883 0.8340
5.9781 -45.6252 1.8144 0.8318
9.5448 -46.6220 1.8765 0.8265
15.5080 -38.7070 1.6442 0.8463
17.3690 -39.2208 1.6914 0.8422
-18.5373 -39.0780 0.7306 0.8411
-15.3715 -39.4815 0.7157 0.8441
-11.7500 -38.0347 0.6724 0.8528
-11.0972 -41.0864 0.7189 0.8434
-3.6919 -15.9127 0.2759 0.9367
-5.1829 -42.8047 0.7283 0.8416
-0.5727 -43.9910 0.7432 0.8386
2.6246 -44.7121 0.7566 0.8360
4.2776 -45.1498 0.7661 0.8341
5.9781 -45.6252 0.7773 0.8319
7.7315 -46.1152 0.7898 0.8294
11.4262 -47.1479 0.8195 0.8236
12.5013 -44.5478 0.7816 0.8310
14.0300 -39.0106 0.7003 0.8472
14.7603 -36.8407 0.6704 0.8532
16.5315 -37.3297 0.6896 0.8493
-23.1683 -37.7539 -0.2494 0.8376
-18.5792 -39.1666 -0.2441 0.8408
-14.0869 -40.4068 -0.2409 0.8427
-11.8165 -38.2504 -0.2254 0.8520
-11.0972 -41.0864 -0.2396 0.8435
-3.6914 -15.9105 -0.0920 0.9368
-5.1829 -42.8047 -0.2428 0.8416
-3.6612 -43.1383 -0.2437 0.8410
2.6247 -44.7121 -0.2523 0.8360
4.2776 -45.1498 -0.2553 0.8341
9.5448 -46.6220 -0.2679 0.8267
11.4262 -47.1479 -0.2731 0.8236
12.5013 -44.5477 -0.2605 0.8310
14.6826 -36.6468 -0.2223 0.8539
-23.1683 -37.7539 -1.2473 0.8376
-7.2885 -14.0424 -0.4455 0.9387
-6.6553 -14.0299 -0.4372 0.9398
-6.1397 -14.2390 -0.4366 0.9398
-15.3715 -39.4815 -1.1930 0.8441
-14.0869 -40.4068 -1.2049 0.8426
-1.6050 -13.2554 -0.3760 0.9480
-0.5727 -43.9910 -1.2388 0.8386
4.2776 -45.1498 -1.2770 0.8340
5.9781 -45.6252 -1.2957 0.8318
7.7315 -46.1152 -1.3166 0.8294
9.5448 -46.6220 -1.3400 0.8266
14.0300 -39.0106 -1.1673 0.8471
14.6826 -36.6468 -1.1116 0.8539
-16.9687 -23.6654 -1.4768 0.8899
-8.5646 -13.9564 -0.8304 0.9365
-6.5436 -13.7945 -0.7743 0.9407
-5.9489 -13.7963 -0.7619 0.9416
-5.5076 -14.1462 -0.7699 0.9410
-3.1802 -13.7075 -0.7136 0.9452
-2.0842 -13.2239 -0.6789 0.9478
-1.1010 -12.9728 -0.6603 0.9492
-0.6452 -13.1984 -0.6701 0.9485
-0.1872 -14.3838 -0.7295 0.9440
1.7395 -29.6367 -1.5056 0.8879
2.7968 -29.5280 -1.5042 0.8880
4.9090 -29.2810 -1.5057 0.8879
5.9507 -29.0673 -1.5047 0.8880
6.9816 -28.8083 -1.5033 0.8881
9.0113 -28.1881 -1.5008 0.8882
10.0188 -27.8574 -1.5013 0.8882
11.0085 -27.4767 -1.5011 0.8882
11.9751 -27.0409 -1.4998 0.8883
-9.3046 -14.0105 -1.2332 0.9348
-8.5528 -13.9372 -1.1990 0.9365
-7.8444 -13.8742 -1.1686 0.9381
-7.1709 -13.8159 -1.1413 0.9395
-5.9404 -13.7767 -1.1000 0.9416
-5.4672 -14.0424 -1.1049 0.9414
-4.2519 -13.7636 -1.0562 0.9439
-3.6603 -13.5519 -1.0293 0.9453
-2.0729 -13.1520 -0.9762 0.9480
-1.5782 -13.0344 -0.9627 0.9487
-0.6219 -12.7223 -0.9339 0.9502
-0.1642 -12.6154 -0.9251 0.9507
0.3118 -13.6668 -1.0023 0.9466
1.1719 -19.9634 -1.4663 0.9229
1.8862 -19.9086 -1.4663 0.9229
3.3066 -19.7223 -1.4663 0.9229
4.7100 -19.4349 -1.4663 0.9229
5.4031 -19.2536 -1.4662 0.9229
8.0973 -18.2844 -1.4662 0.9229
-9.8253 -13.7028 -1.6188 0.9345
-9.3281 -14.0459 -1.6188 0.9345
-8.8190 -14.3710 -1.6188 0.9345
-6.6113 -13.9372 -1.4809 0.9399
-4.8130 -15.5796 -1.5655 0.9366
-3.6779 -13.6172 -1.3542 0.9449
-2.5966 -13.3469 -1.3054 0.9468
-2.0820 -13.2102 -1.2839 0.9477
-1.0935 -12.8837 -1.2413 0.9494
-0.1649 -12.6654 -1.2160 0.9504
0.3483 -15.2691 -1.4663 0.9405
3.0632 -14.9625 -1.4663 0.9405
3.5972 -14.8432 -1.4663 0.9405
-7.9409 -11.0748 -1.6188 0.9466
-7.5391 -11.3521 -1.6188 0.9466
-7.1276 -11.6149 -1.6188 0.9466
-6.7070 -11.8626 -1.6187 0.9466
-6.2778 -12.0953 -1.6187 0.9466
-5.3958 -12.5136 -1.6187 0.9466
-4.9441 -12.6988 -1.6187 0.9466
-4.4860 -12.8677 -1.6187 0.9466
-4.0222 -13.0201 -1.6187 0.9466
-2.6024 -13.3764 -1.6187 0.9466
-2.1215 -13.4610 -1.6187 0.9466
-1.6380 -13.5283 -1.6187 0.9466
-1.1524 -13.5783 -1.6187 0.9466
-0.1774 -13.6258 -1.6187 0.9466
0.3108 -13.6234 -1.6187 0.9466
0.7986 -13.6035 -1.6187 0.9466
1.7704 -13.5114 -1.6187 0.9466
2.2532 -13.4393 -1.6187 0.9466
2.7331 -13.3499 -1.6187 0.9466
3.2095 -13.2434 -1.6187 0.9466
3.6818 -13.1200 -1.6187 0.9466
4.1494 -12.9796 -1.6187 0.9466
4.6116 -12.8227 -1.6187 0.9466
5.0679 -12.6492 -1.6187 0.9466
-6.6573 -9.2846 -1.6188 0.9549
-5.9755 -9.7373 -1.6187 0.9549
-5.2630 -10.1401 -1.6187 0.9549
-4.1449 -10.6461 -1.6187 0.9549
-2.9789 -11.0292 -1.6187 0.9549
-2.5820 -11.1288 -1.6187 0.9549
-2.1817 -11.2141 -1.6187 0.9549
-0.5578 -11.4107 -1.6187 0.9549
-0.1487 -11.4233 -1.6187 0.9549
0.2605 -11.4213 -1.6187 0.9549
0.6695 -11.4046 -1.6187 0.9549
1.0775 -11.3733 -1.6187 0.9549
1.8890 -11.2669 -1.6187 0.9549
2.2913 -11.1920 -1.6187 0.9549
2.6907 -11.1028 -1.6187 0.9549
3.4787 -10.8816 -1.6187 0.9549
3.8662 -10.7500 -1.6187 0.9549
4.2487 -10.6046 -1.6187 0.9549
4.6259 -10.4456 -1.6187 0.9549
-5.7258 -7.9855 -1.6187 0.9609
-4.5266 -8.7213 -1.6187 0.9609
-3.5649 -9.1565 -1.6187 0.9609
-3.2347 -9.2783 -1.6187 0.9609
-2.9002 -9.3882 -1.6187 0.9609
-2.2207 -9.5717 -1.6187 0.9609
-1.5298 -9.7061 -1.6187 0.9609
-1.1811 -9.7546 -1.6187 0.9609
-0.8310 -9.7907 -1.6187 0.9609
1.2765 -9.7425 -1.6187 0.9610
1.9707 -9.6261 -1.6187 0.9610
2.3142 -9.5493 -1.6187 0.9610
2.6548 -9.4603 -1.6187 0.9610
2.9920 -9.3591 -1.6187 0.9610
3.9786 -8.9841 -1.6187 0.9610
-5.0184 -6.9989 -1.6187 0.9656
-4.7645 -7.1741 -1.6187 0.9656
-3.6910 -7.7810 -1.6187 0.9656
-3.4100 -7.9082 -1.6187 0.9656
-1.0352 -8.5495 -1.6187 0.9656
-0.7283 -8.5811 -1.6187 0.9656
-0.1121 -8.6112 -1.6187 0.9656
0.1964 -8.6096 -1.6187 0.9656
0.8123 -8.5735 -1.6187 0.9656
1.1188 -8.5389 -1.6187 0.9656
1.4240 -8.4933 -1.6187 0.9656
2.3268 -8.2915 -1.6187 0.9656
2.6223 -8.2029 -1.6187 0.9656
3.2028 -7.9940 -1.6187 0.9656
3.4871 -7.8742 -1.6187 0.9656
-4.4624 -6.2235 -1.6187 0.9692
-4.0054 -6.5269 -1.6187 0.9692
-3.7690 -6.6662 -1.6187 0.9692
-3.5278 -6.7969 -1.6187 0.9692
-3.0321 -7.0320 -1.6187 0.9692
-2.7783 -7.1361 -1.6187 0.9692
-2.5209 -7.2310 -1.6187 0.9692
-1.7307 -7.4597 -1.6187 0.9692
-1.1922 -7.5644 -1.6187 0.9692
-0.9205 -7.6023 -1.6187 0.9692
-0.3739 -7.6487 -1.6187 0.9692
0.7223 -7.6236 -1.6187 0.9692
1.5359 -7.5021 -1.6187 0.9692
2.0691 -7.3729 -1.6187 0.9692
-3.8104 -5.7375 -1.6187 0.9721
-3.3899 -5.9956 -1.6187 0.9721
-3.1729 -6.1132 -1.6187 0.9721
-2.7271 -6.3246 -1.6187 0.9721
-2.4988 -6.4182 -1.6187 0.9721
-2.0329 -6.5806 -1.6187 0.9721
-1.7959 -6.6492 -1.6187 0.9721
-1.5566 -6.7093 -1.6187 0.9721
-1.3153 -6.7607 -1.6187 0.9721
-1.0723 -6.8035 -1.6187 0.9721
0.1571 -6.8856 -1.6187 0.9721
0.8948 -6.8290 -1.6187 0.9721
1.8609 -6.6312 -1.6187 0.9721
2.3309 -6.4809 -1.6187 0.9721
2.7888 -6.2974 -1.6187 0.9721
-3.0770 -5.4422 -1.6187 0.9745
-2.6795 -5.6486 -1.6187 0.9745
-1.8453 -5.9733 -1.6187 0.9745
-1.6302 -6.0356 -1.6187 0.9745
-1.1939 -6.1368 -1.6187 0.9745
-0.7515 -6.2065 -1.6187 0.9745
-0.0814 -6.2513 -1.6187 0.9745
0.3664 -6.2411 -1.6187 0.9745
0.8122 -6.1988 -1.6187 0.9745
1.0337 -6.1657 -1.6187 0.9745
1.4725 -6.0759 -1.6187 0.9745
1.9037 -5.9549 -1.6187 0.9745
2.3251 -5.8033 -1.6187 0.9745
-3.3319 -4.6469 -1.6187 0.9765
-2.6341 -5.0751 -1.6187 0.9765
-2.0745 -5.3284 -1.6187 0.9765
-1.8823 -5.3993 -1.6187 0.9765
-1.6877 -5.4632 -1.6187 0.9765
-1.4910 -5.5201 -1.6187 0.9765
-1.2923 -5.5700 -1.6187 0.9765
-0.8902 -5.6482 -1.6187 0.9765
-0.4836 -5.6975 -1.6187 0.9765
0.1304 -5.7164 -1.6187 0.9765
0.3351 -5.7081 -1.6187 0.9765
1.3467 -5.5570 -1.6187 0.9765
1.5449 -5.5052 -1.6187 0.9765
1.7411 -5.4463 -1.6187 0.9765
-3.0667 -4.2770 -1.6187 0.9782
-2.9115 -4.3841 -1.6187 0.9782
-2.4244 -4.6711 -1.6187 0.9782
-2.0838 -4.8327 -1.6187 0.9782
-1.7325 -4.9694 -1.6187 0.9782
-1.1894 -5.1266 -1.6187 0.9782
-1.0050 -5.1659 -1.6187 0.9782
0.1200 -5.2614 -1.6187 0.9782
0.4964 -5.2393 -1.6187 0.9782
0.6837 -5.2181 -1.6187 0.9782
1.0555 -5.1558 -1.6187 0.9782
1.6025 -5.0128 -1.6187 0.9782
1.7810 -4.9522 -1.6187 0.9782
-2.8376 -3.9575 -1.6187 0.9797
-2.3967 -4.2391 -1.6187 0.9797
-2.2433 -4.3222 -1.6187 0.9797
-2.0871 -4.3998 -1.6187 0.9797
-1.7667 -4.5379 -1.6187 0.9797
-1.4374 -4.6527 -1.6187 0.9797
-1.2698 -4.7012 -1.6187 0.9797
-0.9300 -4.7801 -1.6187 0.9797
-0.4118 -4.8522 -1.6187 0.9797
-0.2378 -4.8639 -1.6187 0.9797
0.1111 -4.8684 -1.6187 0.9797
0.9767 -4.7707 -1.6187 0.9797
1.3157 -4.6885 -1.6187 0.9797
1.4828 -4.6384 -1.6187 0.9797
1.6480 -4.5823 -1.6187 0.9797
1.9718 -4.4525 -1.6187 0.9797
-2.0853 -4.0176 -1.6187 0.9810
-1.4901 -4.2742 -1.6187 0.9810
-1.3360 -4.3249 -1.6187 0.9810
-1.1803 -4.3699 -1.6187 0.9810
-0.7047 -4.4713 -1.6187 0.9810
-0.5441 -4.4937 -1.6187 0.9810
-0.3828 -4.5103 -1.6187 0.9810
0.2653 -4.5187 -1.6187 0.9810
0.4269 -4.5063 -1.6187 0.9810
1.0661 -4.3991 -1.6187 0.9810
1.2230 -4.3581 -1.6187 0.9810
1.3783 -4.3115 -1.6187 0.9810
1.8329 -4.1388 -1.6187 0.9810
-2.4614 -3.4328 -1.6187 0.9821
-2.3369 -3.5187 -1.6187 0.9821
-2.2093 -3.6002 -1.6187 0.9821
-2.0789 -3.6770 -1.6187 0.9821
-1.9459 -3.7491 -1.6187 0.9821
-1.8104 -3.8164 -1.6187 0.9821
-1.6725 -3.8788 -1.6187 0.9821
-1.5325 -3.9362 -1.6187 0.9821
-1.3905 -3.9886 -1.6187 0.9821
-1.2468 -4.0358 -1.6187 0.9821
-1.1014 -4.0779 -1.6187 0.9821
-0.9546 -4.1147 -1.6187 0.9821
-0.6576 -4.1725 -1.6187 0.9821
-0.5078 -4.1933 -1.6187 0.9821
-0.3572 -4.2088 -1.6187 0.9821
-0.2062 -4.2189 -1.6187 0.9821
0.0963 -4.2229 -1.6187 0.9821
0.2475 -4.2167 -1.6187 0.9821
0.3984 -4.2051 -1.6187 0.9821
0.5488 -4.1882 -1.6187 0.9821
0.6984 -4.1658 -1.6187 0.9821
0.9949 -4.1051 -1.6187 0.9821
1.2862 -4.0233 -1.6187 0.9821
1.4295 -3.9747 -1.6187 0.9821
-2.3047 -3.2142 -1.6187 0.9831
-2.0686 -3.3710 -1.6187 0.9831
-1.8220 -3.5104 -1.6187 0.9831
-1.5660 -3.6318 -1.6187 0.9831
-1.0313 -3.8183 -1.6187 0.9831
-0.7553 -3.8823 -1.6187 0.9831
-0.3345 -3.9409 -1.6187 0.9831
0.2318 -3.9483 -1.6187 0.9831
0.3730 -3.9374 -1.6187 0.9831
0.7933 -3.8747 -1.6187 0.9831
0.9315 -3.8438 -1.6187 0.9831
1.0686 -3.8079 -1.6187 0.9831
1.2043 -3.7672 -1.6187 0.9831
1.3385 -3.7217 -1.6187 0.9831
1.6015 -3.6163 -1.6187 0.9831
-2.0548 -3.0941 -1.6187 0.9839
-1.5919 -3.3558 -1.6187 0.9839
-1.3475 -3.4611 -1.6187 0.9839
-1.2227 -3.5072 -1.6187 0.9839
-0.9685 -3.5857 -1.6187 0.9839
-0.8394 -3.6181 -1.6187 0.9839
-0.7093 -3.6458 -1.6187 0.9839
-0.3141 -3.7009 -1.6187 0.9839
-0.1813 -3.7098 -1.6187 0.9839
0.0847 -3.7132 -1.6187 0.9839
0.2177 -3.7078 -1.6187 0.9839
0.3503 -3.6976 -1.6187 0.9839
0.4825 -3.6827 -1.6187 0.9839
0.6141 -3.6631 -1.6187 0.9839
0.8748 -3.6097 -1.6187 0.9839
1.1310 -3.5378 -1.6187 0.9839
1.2570 -3.4950 -1.6187 0.9839
-1.9346 -2.9131 -1.6187 0.9847
-1.8291 -2.9805 -1.6187 0.9847
-1.4988 -3.1595 -1.6187 0.9847
-1.1512 -3.3021 -1.6187 0.9847
-1.0322 -3.3412 -1.6187 0.9847
-0.4204 -3.4716 -1.6187 0.9847
-0.1707 -3.4928 -1.6187 0.9847
-0.0455 -3.4967 -1.6187 0.9847
0.0798 -3.4961 -1.6187 0.9847
0.3298 -3.4814 -1.6187 0.9847
0.4543 -3.4673 -1.6187 0.9847
0.8236 -3.3986 -1.6187 0.9847
1.3006 -3.2461 -1.6187 0.9847
1.4160 -3.1975 -1.6187 0.9847
-1.8256 -2.7490 -1.6187 0.9854
-1.7260 -2.8126 -1.6187 0.9854
-1.6241 -2.8726 -1.6187 0.9854
-1.5202 -2.9290 -1.6187 0.9854
-1.0863 -3.1160 -1.6187 0.9854
-0.9740 -3.1530 -1.6187 0.9854
-0.8605 -3.1858 -1.6187 0.9854
-0.5138 -3.2597 -1.6187 0.9854
-0.3967 -3.2760 -1.6187 0.9854
-0.2791 -3.2881 -1.6187 0.9854
-0.1611 -3.2960 -1.6187 0.9854
0.0753 -3.2991 -1.6187 0.9854
0.3113 -3.2852 -1.6187 0.9854
0.6619 -3.2329 -1.6187 0.9854
0.7773 -3.2071 -1.6187 0.9854
0.8916 -3.1772 -1.6187 0.9854
1.0048 -3.1432 -1.6187 0.9854
1.1168 -3.1052 -1.6187 0.9854
1.2273 -3.0632 -1.6187 0.9854
1.3362 -3.0173 -1.6187 0.9854
-1.8182 -2.5358 -1.6187 0.9860
-1.2355 -2.8652 -1.6187 0.9860
-1.1320 -2.9076 -1.6187 0.9860
-1.0272 -2.9463 -1.6187 0.9860
-0.2639 -3.1091 -1.6187 0.9860
-0.0406 -3.1200 -1.6187 0.9860
0.0712 -3.1194 -1.6187 0.9860
0.6258 -3.0568 -1.6187 0.9860
0.9501 -2.9720 -1.6187 0.9860
1.1605 -2.8964 -1.6187 0.9860
1.2634 -2.8530 -1.6187 0.9860
-1.6351 -2.4620 -1.6187 0.9866
-1.4546 -2.5727 -1.6187 0.9866
-1.2667 -2.6703 -1.6187 0.9866
-1.0722 -2.7541 -1.6187 0.9866
-0.9729 -2.7907 -1.6187 0.9866
-0.5644 -2.9011 -1.6187 0.9866
-0.4601 -2.9194 -1.6187 0.9866
-0.2499 -2.9449 -1.6187 0.9866
-0.1443 -2.9519 -1.6187 0.9866
0.0674 -2.9546 -1.6187 0.9866
0.1732 -2.9504 -1.6187 0.9866
0.3840 -2.9304 -1.6187 0.9866
0.4887 -2.9147 -1.6187 0.9866
0.6961 -2.8723 -1.6187 0.9866
0.7985 -2.8455 -1.6187 0.9866
0.8999 -2.8151 -1.6187 0.9866
1.0002 -2.7810 -1.6187 0.9866
1.0992 -2.7434 -1.6187 0.9866
1.1967 -2.7023 -1.6187 0.9866
-1.6337 -2.2785 -1.6187 0.9871
-1.5511 -2.3356 -1.6187 0.9871
-1.4664 -2.3896 -1.6187 0.9871
-1.3799 -2.4406 -1.6187 0.9871
-1.0172 -2.6127 -1.6187 0.9871
-0.9230 -2.6474 -1.6187 0.9871
-0.8276 -2.6788 -1.6187 0.9871
-0.5354 -2.7521 -1.6187 0.9871
-0.4365 -2.7695 -1.6187 0.9871
-0.3370 -2.7834 -1.6187 0.9871
-0.0365 -2.8034 -1.6187 0.9871
0.0639 -2.8029 -1.6187 0.9871
0.3642 -2.7799 -1.6187 0.9871
0.4636 -2.7651 -1.6187 0.9871
0.5623 -2.7467 -1.6187 0.9871
0.8537 -2.6705 -1.6187 0.9871
1.0427 -2.6025 -1.6187 0.9871
1.1353 -2.5635 -1.6187 0.9871
