ply
format ascii 1.0
element vertex 575
property float32 x
property float32 y
property float32 z
property float32 I
end_header
-34.5350 -19.7109 7.0115 0.8509
-34.9132 -21.6404 7.2428 0.8463
-34.6796 -23.2760 7.3646 0.8440
-34.2912 -24.8637 7.4686 0.8419
-35.9691 -28.1238 8.0509 0.8307
-21.3291 -38.2617 7.7240 0.8370
-16.7631 -39.6681 7.5934 0.8395
-14.4418 -42.5313 7.9200 0.8332
-12.8726 -42.9646 7.9085 0.8335
-6.2445 -42.4263 7.5615 0.8401
-4.7324 -42.8894 7.6085 0.8392
4.9254 -45.6197 8.0908 0.8300
6.6756 -46.1048 8.2143 0.8276
-35.9159 -20.4991 6.3352 0.8459
-32.6599 -36.7906 7.5365 0.8195
-22.9190 -37.8229 6.7750 0.8361
-21.3291 -38.2617 6.7107 0.8376
-18.2883 -39.2470 6.6331 0.8393
-16.7631 -39.6681 6.5972 0.8401
-12.8726 -42.9646 6.8710 0.8340
-11.2705 -43.2611 6.8486 0.8345
1.5933 -45.4126 6.9612 0.8320
3.2037 -44.8497 6.8882 0.8336
6.6326 -45.8081 7.0907 0.8292
10.2890 -46.8300 7.3452 0.8236
-35.6877 -20.3688 5.3509 0.8473
-34.3267 -21.2769 5.2591 0.8497
-34.5614 -23.1968 5.4203 0.8454
-36.9530 -26.7938 5.9439 0.8318
-21.3165 -38.2392 5.7010 0.8381
-16.6493 -39.3987 5.5698 0.8415
-15.1487 -39.8130 5.5471 0.8421
-13.6585 -40.2244 5.5318 0.8425
-10.6927 -41.0432 5.5231 0.8427
-6.2224 -42.2763 5.5646 0.8417
-4.7168 -42.7482 5.6005 0.8407
4.8933 -45.3219 5.9362 0.8320
6.6326 -45.8081 6.0274 0.8297
8.4286 -46.3100 6.1296 0.8271
10.2890 -46.8300 6.2437 0.8241
-36.1288 -22.3939 4.5644 0.8428
-35.4514 -23.7941 4.5848 0.8422
-35.0872 -25.4409 4.6539 0.8400
-21.3291 -38.2617 4.7039 0.8384
-19.7670 -38.6929 4.6657 0.8396
-15.2021 -39.9532 4.5903 0.8420
-12.2173 -40.7772 4.5710 0.8426
-10.7658 -41.3237 4.5855 0.8422
-9.2419 -41.5987 4.5759 0.8425
-7.7478 -42.0101 4.5872 0.8421
-3.1959 -43.3124 4.6636 0.8397
-1.6356 -43.6975 4.6956 0.8387
4.8933 -45.3219 4.8950 0.8324
8.4286 -46.3100 5.0545 0.8275
10.2890 -46.8300 5.1486 0.8246
-37.2227 -24.9830 3.7949 0.8353
-22.8483 -37.7062 3.7322 0.8378
-21.2720 -38.1594 3.6983 0.8391
-19.7270 -38.6146 3.6707 0.8402
-16.6869 -39.4878 3.6290 0.8419
-15.1830 -39.9030 3.6142 0.8425
-13.6103 -40.0825 3.5834 0.8437
-12.2019 -40.7260 3.5990 0.8431
-10.7169 -41.1360 3.5985 0.8431
-6.2365 -42.3719 3.6255 0.8420
-4.7214 -42.7902 3.6443 0.8413
-3.1886 -43.2133 3.6681 0.8403
-0.0515 -44.0028 3.7250 0.8381
3.2037 -44.8497 3.8063 0.8349
4.8933 -45.3219 3.8589 0.8328
8.4286 -46.3100 3.9847 0.8278
10.2890 -46.8300 4.0588 0.8249
-22.9189 -37.8228 2.7424 0.8376
-21.3290 -38.2617 2.7164 0.8390
-16.7885 -36.0282 2.4648 0.8527
-16.7630 -39.6680 2.6704 0.8415
-7.7478 -42.0101 2.6490 0.8427
-4.7429 -42.9854 2.6817 0.8409
-1.6356 -43.6975 2.7116 0.8392
3.2037 -44.8497 2.7882 0.8351
8.4286 -46.3100 2.9189 0.8281
9.7809 -44.5170 2.8264 0.8330
-27.4146 -33.2332 1.6987 0.8416
-22.9189 -37.8228 1.7438 0.8377
-21.3290 -38.2617 1.7273 0.8392
-19.7670 -38.6929 1.7133 0.8404
-18.2883 -39.2469 1.7073 0.8409
-16.7631 -39.6680 1.6981 0.8416
-13.6931 -40.3265 1.6793 0.8433
-9.2419 -41.5987 1.6803 0.8432
-7.7478 -42.0101 1.6844 0.8428
-1.6356 -43.6975 1.7242 0.8394
4.8933 -45.3219 1.7975 0.8332
6.6326 -45.8080 1.8251 0.8309
-31.3943 -19.4593 0.6239 0.8626
-39.8316 -28.8810 0.8311 0.8213
-21.3290 -38.2617 0.7399 0.8393
-19.7670 -38.6929 0.7339 0.8404
-15.0806 -39.6339 0.7163 0.8440
-12.0997 -40.3848 0.7121 0.8448
-7.7478 -42.0101 0.7216 0.8429
-3.2005 -43.3746 0.7347 0.8403
-1.6356 -43.6975 0.7386 0.8395
3.2036 -44.8497 0.7595 0.8354
4.8933 -45.3220 0.7700 0.8333
6.6326 -45.8081 0.7819 0.8310
8.4286 -46.3100 0.7951 0.8284
-31.3241 -19.4157 -0.2075 0.8629
-32.2908 -23.4133 -0.2246 0.8525
-34.4658 -31.2235 -0.2618 0.8303
-22.9189 -37.8228 -0.2490 0.8379
-21.3290 -38.2617 -0.2466 0.8393
-19.7670 -38.6929 -0.2446 0.8405
-18.2883 -39.2469 -0.2438 0.8410
-15.0806 -39.6339 -0.2388 0.8440
-13.7518 -40.4993 -0.2408 0.8428
-10.7658 -41.3237 -0.2404 0.8430
-7.7478 -42.0101 -0.2405 0.8429
-3.2031 -43.4105 -0.2451 0.8402
-1.6356 -43.6975 -0.2462 0.8395
-33.2596 -18.9830 -1.0783 0.8579
-32.0937 -21.5404 -1.0884 0.8567
-32.2908 -23.4133 -1.1231 0.8525
-33.2532 -26.0003 -1.1886 0.8446
-33.9599 -28.5947 -1.2501 0.8372
-35.6138 -34.6944 -1.4000 0.8196
-25.4042 -26.6093 -1.0359 0.8631
-29.0293 -37.9093 -1.3445 0.8261
-22.9189 -37.8228 -1.2453 0.8378
-7.8404 -14.0647 -0.4534 0.9376
-6.0597 -14.3397 -0.4383 0.9396
-15.0806 -39.6339 -1.1941 0.8439
-13.7518 -40.4993 -1.2043 0.8427
-9.2419 -41.5987 -1.1999 0.8432
-1.9642 -13.3451 -0.3798 0.9475
-1.4589 -13.2225 -0.3746 0.9482
-1.0160 -13.7695 -0.3888 0.9462
-1.6356 -43.6975 -1.2313 0.8395
3.2037 -44.8497 -1.2661 0.8353
4.8933 -45.3220 -1.2836 0.8333
6.6326 -45.8080 -1.3033 0.8309
10.2890 -46.8300 -1.3501 0.8254
-25.9015 -14.7833 -1.5125 0.8874
-24.0097 -16.1147 -1.4665 0.8906
-23.4101 -16.9741 -1.4665 0.8906
-16.8630 -23.7577 -1.4775 0.8899
-8.4493 -13.9438 -0.8268 0.9368
-7.7285 -13.8639 -0.8050 0.9384
-5.8411 -13.8223 -0.7610 0.9417
-9.7224 -28.6316 -1.5335 0.8859
-8.6851 -28.9880 -1.5347 0.8859
-3.0360 -13.6652 -0.7099 0.9455
-1.9405 -13.1841 -0.6758 0.9480
-1.4416 -13.0650 -0.6666 0.9487
-0.5050 -13.4913 -0.6847 0.9474
1.0420 -29.6906 -1.5067 0.8878
2.1146 -29.6019 -1.5051 0.8879
6.3645 -28.9675 -1.5041 0.8880
-19.1751 -10.9442 -1.6188 0.9153
-17.8742 -12.9602 -1.6188 0.9153
-16.8886 -14.2205 -1.6188 0.9153
-16.3622 -14.8230 -1.6188 0.9153
-14.3574 -16.1733 -1.5857 0.9169
-13.3566 -16.1914 -1.5390 0.9193
-8.4410 -13.9301 -1.1943 0.9368
-7.0524 -13.8048 -1.1366 0.9397
-6.4444 -13.8297 -1.1187 0.9406
-5.8283 -13.7920 -1.0978 0.9417
-5.4088 -14.2150 -1.1152 0.9408
-6.4300 -18.9366 -1.4663 0.9229
-4.0970 -13.6744 -1.0467 0.9444
-3.5259 -13.5340 -1.0255 0.9455
-2.9694 -13.3656 -1.0039 0.9466
-2.4417 -13.2394 -0.9871 0.9474
-0.9452 -12.8099 -0.9418 0.9498
-0.4751 -12.6927 -0.9313 0.9503
0.4975 -14.1799 -1.0403 0.9447
1.4249 -19.9469 -1.4663 0.9229
4.2913 -19.5316 -1.4663 0.9229
-14.6443 -8.3583 -1.6188 0.9345
-14.3319 -8.8834 -1.6188 0.9345
-14.0006 -9.3968 -1.6188 0.9345
-13.6508 -9.8979 -1.6188 0.9345
-12.4961 -11.3206 -1.6188 0.9345
-10.7296 -13.0070 -1.6188 0.9345
-10.2513 -13.3871 -1.6188 0.9345
-8.7381 -14.4204 -1.6188 0.9345
-8.2098 -14.7275 -1.6188 0.9345
-7.6708 -15.0152 -1.6188 0.9345
-6.5525 -15.5059 -1.6161 0.9346
-5.9706 -15.6915 -1.6118 0.9348
-5.3140 -15.6498 -1.5867 0.9357
-3.5309 -13.5530 -1.3446 0.9453
-2.9884 -13.4511 -1.3229 0.9461
-2.4546 -13.3097 -1.2993 0.9471
-1.9388 -13.1725 -1.2782 0.9479
1.6395 -15.1847 -1.4663 0.9405
2.7348 -15.0261 -1.4663 0.9405
-11.8357 -6.7552 -1.6188 0.9466
-11.5831 -7.1796 -1.6188 0.9466
-11.3154 -7.5946 -1.6188 0.9466
-10.7357 -8.3941 -1.6188 0.9466
-10.4244 -8.7775 -1.6188 0.9466
-10.0995 -9.1495 -1.6188 0.9466
-9.7614 -9.5094 -1.6188 0.9466
-9.4104 -9.8568 -1.6188 0.9466
-9.0470 -10.1913 -1.6188 0.9466
-8.6718 -10.5124 -1.6188 0.9466
-8.2852 -10.8196 -1.6188 0.9466
-7.8877 -11.1127 -1.6188 0.9466
-7.4799 -11.3912 -1.6188 0.9466
-7.0622 -11.6547 -1.6188 0.9466
-6.6353 -11.9029 -1.6187 0.9466
-5.7559 -12.3521 -1.6187 0.9466
-5.3045 -12.5525 -1.6187 0.9466
-3.9111 -13.0539 -1.6187 0.9466
-2.9555 -13.3028 -1.6187 0.9466
-2.4715 -13.4011 -1.6187 0.9466
-1.9843 -13.4819 -1.6187 0.9466
-1.4945 -13.5449 -1.6187 0.9466
-0.9478 -12.8443 -1.5299 0.9494
-0.5097 -13.6175 -1.6187 0.9466
-0.0160 -13.6270 -1.6187 0.9466
0.9709 -13.5923 -1.6187 0.9466
1.4628 -13.5482 -1.6187 0.9466
1.9527 -13.4862 -1.6187 0.9466
-9.4862 -6.3669 -1.6188 0.9549
-8.4670 -7.6704 -1.6188 0.9549
-8.1834 -7.9722 -1.6188 0.9549
-7.8892 -8.2634 -1.6188 0.9549
-7.5846 -8.5439 -1.6188 0.9549
-6.9459 -9.0707 -1.6188 0.9549
-6.6127 -9.3164 -1.6187 0.9549
-5.9206 -9.7708 -1.6187 0.9549
-5.5627 -9.9788 -1.6187 0.9549
-4.8254 -10.3554 -1.6187 0.9549
-3.2789 -10.9438 -1.6187 0.9549
-2.0720 -11.2349 -1.6187 0.9549
-1.6636 -11.3026 -1.6187 0.9549
-0.8407 -11.3933 -1.6187 0.9549
-0.4273 -11.4163 -1.6187 0.9549
-0.0134 -11.4243 -1.6187 0.9549
0.4006 -11.4172 -1.6187 0.9549
0.8140 -11.3952 -1.6187 0.9549
1.2264 -11.3582 -1.6187 0.9549
1.6371 -11.3063 -1.6187 0.9549
-8.1589 -5.4761 -1.6188 0.9609
-7.9551 -5.7681 -1.6188 0.9609
-7.7409 -6.0525 -1.6188 0.9609
-7.5165 -6.3290 -1.6188 0.9609
-7.2822 -6.5972 -1.6188 0.9609
-7.0384 -6.8567 -1.6188 0.9609
-6.7853 -7.1072 -1.6188 0.9609
-5.6875 -8.0128 -1.6187 0.9609
-5.3934 -8.2136 -1.6187 0.9609
-5.0922 -8.4036 -1.6187 0.9609
-4.4702 -8.7503 -1.6187 0.9609
-4.1503 -8.9065 -1.6187 0.9609
-2.8201 -9.4126 -1.6187 0.9609
-2.4772 -9.5086 -1.6187 0.9609
-1.7821 -9.6629 -1.6187 0.9609
-0.7231 -9.7992 -1.6187 0.9609
-0.0115 -9.8258 -1.6187 0.9609
0.3445 -9.8198 -1.6187 0.9609
0.7001 -9.8008 -1.6187 0.9609
1.0547 -9.7690 -1.6187 0.9610
1.4080 -9.7244 -1.6187 0.9610
1.7594 -9.6670 -1.6187 0.9610
-7.3201 -4.5372 -1.6188 0.9656
-7.1509 -4.7995 -1.6188 0.9656
-6.1688 -6.0096 -1.6188 0.9656
-5.2360 -6.8376 -1.6187 0.9656
-4.9848 -7.0229 -1.6187 0.9656
-4.7271 -7.1988 -1.6187 0.9656
-4.1933 -7.5222 -1.6187 0.9656
-3.3523 -7.9328 -1.6187 0.9656
-2.7690 -8.1547 -1.6187 0.9656
-2.1712 -8.3338 -1.6187 0.9656
-1.5619 -8.4691 -1.6187 0.9656
-1.2540 -8.5202 -1.6187 0.9656
-0.0101 -8.6119 -1.6187 0.9656
0.9244 -8.5621 -1.6187 0.9656
1.2341 -8.5230 -1.6187 0.9656
1.5421 -8.4726 -1.6187 0.9656
1.8480 -8.4112 -1.6187 0.9656
-6.0328 -4.7170 -1.6188 0.9692
-5.4854 -5.3437 -1.6187 0.9692
-5.2881 -5.5390 -1.6187 0.9692
-4.8731 -5.9074 -1.6187 0.9692
-4.2033 -6.4013 -1.6187 0.9692
-3.9686 -6.5493 -1.6187 0.9692
-2.9809 -7.0539 -1.6187 0.9692
-2.7233 -7.1573 -1.6187 0.9692
-2.4622 -7.2512 -1.6187 0.9692
-2.1979 -7.3357 -1.6187 0.9692
-1.6608 -7.4756 -1.6187 0.9692
-1.1151 -7.5762 -1.6187 0.9692
-0.8398 -7.6116 -1.6187 0.9692
-0.2864 -7.6524 -1.6187 0.9692
-0.0090 -7.6578 -1.6187 0.9692
0.8220 -7.6135 -1.6187 0.9692
1.0973 -7.5787 -1.6187 0.9692
1.3712 -7.5340 -1.6187 0.9692
1.6433 -7.4793 -1.6187 0.9692
-5.9819 -3.4142 -1.6188 0.9721
-5.5761 -4.0431 -1.6187 0.9721
-4.9335 -4.8062 -1.6187 0.9721
-4.5725 -5.1508 -1.6187 0.9721
-4.3829 -5.3131 -1.6187 0.9721
-4.1875 -5.4684 -1.6187 0.9721
-3.9866 -5.6165 -1.6187 0.9721
-3.7805 -5.7573 -1.6187 0.9721
-3.5694 -5.8905 -1.6187 0.9721
-2.2145 -6.5218 -1.6187 0.9721
-1.9767 -6.5977 -1.6187 0.9721
-1.4938 -6.7235 -1.6187 0.9721
-1.2492 -6.7732 -1.6187 0.9721
-1.0029 -6.8140 -1.6187 0.9721
-0.7554 -6.8459 -1.6187 0.9721
-0.2576 -6.8826 -1.6187 0.9721
0.2415 -6.8832 -1.6187 0.9721
0.4907 -6.8699 -1.6187 0.9721
0.7393 -6.8476 -1.6187 0.9721
0.9869 -6.8163 -1.6187 0.9721
1.2333 -6.7761 -1.6187 0.9721
-5.0615 -3.6700 -1.6187 0.9745
-4.9252 -3.8509 -1.6187 0.9745
-4.4782 -4.3626 -1.6187 0.9745
-4.1505 -4.6755 -1.6187 0.9745
-3.8010 -4.9637 -1.6187 0.9745
-3.6187 -5.0982 -1.6187 0.9745
-3.4316 -5.2260 -1.6187 0.9745
-3.2400 -5.3469 -1.6187 0.9745
-2.6406 -5.6668 -1.6187 0.9745
-2.0101 -5.9199 -1.6187 0.9745
-1.5761 -6.0499 -1.6187 0.9745
-1.1339 -6.1482 -1.6187 0.9745
-0.9104 -6.1852 -1.6187 0.9745
-0.6857 -6.2141 -1.6187 0.9745
-0.4600 -6.2349 -1.6187 0.9745
-0.2338 -6.2474 -1.6187 0.9745
-0.0073 -6.2518 -1.6187 0.9745
0.2192 -6.2479 -1.6187 0.9745
0.4454 -6.2359 -1.6187 0.9745
0.8959 -6.1872 -1.6187 0.9745
1.3416 -6.1061 -1.6187 0.9745
-4.8602 -3.0125 -1.6187 0.9765
-4.7478 -3.1866 -1.6187 0.9765
-4.5046 -3.5221 -1.6187 0.9765
-3.9485 -4.1358 -1.6187 0.9765
-3.6386 -4.4109 -1.6187 0.9765
-3.4764 -4.5398 -1.6187 0.9765
-3.1385 -4.7797 -1.6187 0.9765
-2.4151 -5.1829 -1.6187 0.9765
-2.2258 -5.2670 -1.6187 0.9765
-2.0335 -5.3442 -1.6187 0.9765
-1.2401 -5.5819 -1.6187 0.9765
-0.8326 -5.6570 -1.6187 0.9765
-0.6271 -5.6834 -1.6187 0.9765
-0.2139 -5.7139 -1.6187 0.9765
0.2005 -5.7144 -1.6187 0.9765
0.8194 -5.6589 -1.6187 0.9765
1.0238 -5.6255 -1.6187 0.9765
1.2270 -5.5847 -1.6187 0.9765
-1.5799 -0.9017 -0.5595 0.9924
-1.5478 -0.9594 -0.5601 0.9924
-4.2607 -3.0893 -1.6187 0.9782
-4.0258 -3.3898 -1.6187 0.9782
-3.7697 -3.6724 -1.6187 0.9782
-3.6342 -3.8066 -1.6187 0.9782
-3.4939 -3.9358 -1.6187 0.9782
-3.1997 -4.1784 -1.6187 0.9782
-2.5625 -4.5968 -1.6187 0.9782
-2.3942 -4.6866 -1.6187 0.9782
-1.6921 -4.9833 -1.6187 0.9782
-0.9545 -5.1755 -1.6187 0.9782
-0.7663 -5.2067 -1.6187 0.9782
-0.5772 -5.2310 -1.6187 0.9782
-0.3873 -5.2485 -1.6187 0.9782
-0.1968 -5.2590 -1.6187 0.9782
0.1845 -5.2595 -1.6187 0.9782
-1.5799 -0.9017 -0.6047 0.9924
-1.5446 -0.9574 -0.6040 0.9924
-3.9425 -2.8586 -1.6187 0.9797
-3.8363 -2.9996 -1.6187 0.9797
-3.7251 -3.1366 -1.6187 0.9797
-3.3627 -3.5223 -1.6187 0.9797
-3.0988 -3.7565 -1.6187 0.9797
-2.9607 -3.8663 -1.6187 0.9797
-2.6729 -4.0706 -1.6187 0.9797
-2.2154 -4.3366 -1.6187 0.9797
-2.0569 -4.4140 -1.6187 0.9797
-1.8956 -4.4856 -1.6187 0.9797
-1.7318 -4.5514 -1.6187 0.9797
-1.5658 -4.6111 -1.6187 0.9797
-1.3976 -4.6648 -1.6187 0.9797
-1.2277 -4.7124 -1.6187 0.9797
-1.0561 -4.7538 -1.6187 0.9797
-0.8832 -4.7889 -1.6187 0.9797
-0.7091 -4.8178 -1.6187 0.9797
-0.0057 -4.8697 -1.6187 0.9797
0.1708 -4.8667 -1.6187 0.9797
0.5227 -4.8415 -1.6187 0.9797
-1.5225 -0.8690 -0.6269 0.9926
-3.4626 -2.9155 -1.6187 0.9810
-3.2423 -3.1586 -1.6187 0.9810
-3.0051 -3.3851 -1.6187 0.9810
-2.7520 -3.5939 -1.6187 0.9810
-1.9119 -4.1029 -1.6187 0.9810
-1.6097 -4.2306 -1.6187 0.9810
-0.8210 -4.4514 -1.6187 0.9810
-0.6591 -4.4782 -1.6187 0.9810
-0.4964 -4.4992 -1.6187 0.9810
-0.3331 -4.5142 -1.6187 0.9810
-0.0053 -4.5265 -1.6187 0.9810
0.3225 -4.5150 -1.6187 0.9810
0.8105 -4.4533 -1.6187 0.9810
-1.2987 -0.7412 -0.5731 0.9936
-3.5903 -2.2254 -1.6187 0.9821
-3.2312 -2.7207 -1.6187 0.9821
-3.0256 -2.9475 -1.6187 0.9821
-2.8042 -3.1589 -1.6187 0.9821
-2.6879 -3.2584 -1.6187 0.9821
-2.5681 -3.3537 -1.6187 0.9821
-2.1890 -3.6125 -1.6187 0.9821
-1.9217 -3.7616 -1.6187 0.9821
-1.5022 -3.9479 -1.6187 0.9821
-1.3581 -3.9997 -1.6187 0.9821
-1.2123 -4.0463 -1.6187 0.9821
-0.4633 -4.1985 -1.6187 0.9821
-0.3108 -4.2125 -1.6187 0.9821
-0.1580 -4.2210 -1.6187 0.9821
-0.0049 -4.2240 -1.6187 0.9821
0.1481 -4.2214 -1.6187 0.9821
0.3010 -4.2132 -1.6187 0.9821
0.6053 -4.1804 -1.6187 0.9821
0.7564 -4.1557 -1.6187 0.9821
0.9064 -4.1256 -1.6187 0.9821
-3.2020 -2.3217 -1.6187 0.9831
-3.1158 -2.4362 -1.6187 0.9831
-2.9311 -2.6554 -1.6187 0.9831
-2.2892 -3.2252 -1.6187 0.9831
-2.1709 -3.3061 -1.6187 0.9831
-2.0497 -3.3825 -1.6187 0.9831
-1.7993 -3.5221 -1.6187 0.9831
-1.6705 -3.5850 -1.6187 0.9831
-1.5395 -3.6431 -1.6187 0.9831
-1.4065 -3.6965 -1.6187 0.9831
-1.1351 -3.7887 -1.6187 0.9831
-0.8578 -3.8609 -1.6187 0.9831
-0.5759 -3.9129 -1.6187 0.9831
-0.0046 -3.9550 -1.6187 0.9831
0.2818 -3.9450 -1.6187 0.9831
0.4246 -3.9322 -1.6187 0.9831
0.5668 -3.9142 -1.6187 0.9831
0.7082 -3.8911 -1.6187 0.9831
0.8487 -3.8629 -1.6187 0.9831
-1.2084 -0.6897 -0.6064 0.9939
-1.2027 -0.7455 -0.6167 0.9938
-3.0840 -2.0699 -1.6187 0.9839
-2.7526 -2.4937 -1.6187 0.9839
-2.6605 -2.5918 -1.6187 0.9839
-2.4658 -2.7776 -1.6187 0.9839
-2.2582 -2.9489 -1.6187 0.9839
-1.9248 -3.1765 -1.6187 0.9839
-1.4458 -3.4213 -1.6187 0.9839
-1.3209 -3.4714 -1.6187 0.9839
-1.1942 -3.5170 -1.6187 0.9839
-0.9364 -3.5942 -1.6187 0.9839
-0.6736 -3.6526 -1.6187 0.9839
-0.1389 -3.7116 -1.6187 0.9839
-0.0043 -3.7142 -1.6187 0.9839
0.1302 -3.7119 -1.6187 0.9839
0.2646 -3.7047 -1.6187 0.9839
0.6651 -3.6542 -1.6187 0.9839
0.7970 -3.6276 -1.6187 0.9839
-1.1605 -0.7193 -0.6320 0.9940
-1.1530 -0.7739 -0.6428 0.9939
-2.6750 -2.2524 -1.6187 0.9847
-2.5917 -2.3479 -1.6187 0.9847
-2.5049 -2.4402 -1.6187 0.9847
-2.4148 -2.5294 -1.6187 0.9847
-2.3216 -2.6152 -1.6187 0.9847
-2.2253 -2.6976 -1.6187 0.9847
-2.1261 -2.7765 -1.6187 0.9847
-2.0241 -2.8517 -1.6187 0.9847
-1.7027 -3.0545 -1.6187 0.9847
-1.5909 -3.1142 -1.6187 0.9847
-1.4771 -3.1698 -1.6187 0.9847
-1.3612 -3.2212 -1.6187 0.9847
-1.1244 -3.3113 -1.6187 0.9847
-0.8816 -3.3841 -1.6187 0.9847
-0.6342 -3.4390 -1.6187 0.9847
-0.5092 -3.4597 -1.6187 0.9847
-0.0041 -3.4970 -1.6187 0.9847
0.1226 -3.4948 -1.6187 0.9847
0.3754 -3.4768 -1.6187 0.9847
0.7504 -3.4155 -1.6187 0.9847
-1.1402 -0.8268 -0.6909 0.9937
-2.3637 -2.3027 -1.6187 0.9854
-2.2788 -2.3869 -1.6187 0.9854
-2.1908 -2.4679 -1.6187 0.9854
-2.0999 -2.5456 -1.6187 0.9854
-2.0063 -2.6200 -1.6187 0.9854
-1.8113 -2.7584 -1.6187 0.9854
-1.7102 -2.8223 -1.6187 0.9854
-1.6068 -2.8824 -1.6187 0.9854
-1.5013 -2.9387 -1.6187 0.9854
-1.3938 -2.9912 -1.6187 0.9854
-1.2846 -3.0397 -1.6187 0.9854
-1.0610 -3.1247 -1.6187 0.9854
-0.8319 -3.1934 -1.6187 0.9854
-0.5985 -3.2452 -1.6187 0.9854
-0.3619 -3.2800 -1.6187 0.9854
-0.1234 -3.2976 -1.6187 0.9854
-0.0039 -3.3000 -1.6187 0.9854
0.1157 -3.2979 -1.6187 0.9854
0.2351 -3.2916 -1.6187 0.9854
0.3542 -3.2809 -1.6187 0.9854
0.5909 -3.2466 -1.6187 0.9854
0.7081 -3.2231 -1.6187 0.9854
-1.0901 -0.6222 -0.6512 0.9944
-1.0686 -0.7172 -0.6677 0.9942
-1.0606 -0.8293 -0.6984 0.9940
-2.3868 -2.0097 -1.6187 0.9860
-2.3124 -2.0949 -1.6187 0.9860
-1.9856 -2.4070 -1.6187 0.9860
-1.8970 -2.4773 -1.6187 0.9860
-1.7127 -2.6082 -1.6187 0.9860
-1.5193 -2.7254 -1.6187 0.9860
-0.7866 -3.0195 -1.6187 0.9860
-0.4544 -3.0870 -1.6187 0.9860
-0.2296 -3.1117 -1.6187 0.9860
-0.1167 -3.1180 -1.6187 0.9860
-0.0037 -3.1202 -1.6187 0.9860
0.1094 -3.1183 -1.6187 0.9860
0.6696 -3.0475 -1.6187 0.9860
-1.0541 -0.6017 -0.6648 0.9945
-1.0373 -0.6429 -0.6684 0.9944
-0.9991 -0.7244 -0.6759 0.9944
-1.8807 -2.2798 -1.6187 0.9866
-1.7107 -2.4101 -1.6187 0.9866
-1.6222 -2.4705 -1.6187 0.9866
-1.3446 -2.6319 -1.6187 0.9866
-0.6410 -2.8851 -1.6187 0.9866
-0.5360 -2.9064 -1.6187 0.9866
-0.3241 -2.9376 -1.6187 0.9866
-0.0035 -2.9554 -1.6187 0.9866
0.1036 -2.9536 -1.6187 0.9866
0.4235 -2.9249 -1.6187 0.9866
0.5292 -2.9077 -1.6187 0.9866
0.6342 -2.8866 -1.6187 0.9866
-1.0068 -0.5746 -0.6693 0.9947
-0.9533 -0.6912 -0.6798 0.9946
-0.9166 -0.7718 -0.6918 0.9945
-0.9266 -0.8395 -0.7219 0.9942
-2.0083 -1.9564 -1.6187 0.9871
-1.8613 -2.0967 -1.6187 0.9871
-1.7046 -2.2260 -1.6187 0.9871
-1.6228 -2.2863 -1.6187 0.9871
-1.2755 -2.4968 -1.6187 0.9871
-1.1842 -2.5413 -1.6187 0.9871
-1.0913 -2.5826 -1.6187 0.9871
-0.9971 -2.6204 -1.6187 0.9871
-0.9015 -2.6548 -1.6187 0.9871
-0.6081 -2.7369 -1.6187 0.9871
-0.5085 -2.7572 -1.6187 0.9871
-0.4083 -2.7738 -1.6187 0.9871
-0.3075 -2.7868 -1.6187 0.9871
-0.1049 -2.8017 -1.6187 0.9871
-0.0033 -2.8037 -1.6187 0.9871
0.1998 -2.7965 -1.6187 0.9871
0.4018 -2.7748 -1.6187 0.9871
0.5020 -2.7584 -1.6187 0.9871
0.6017 -2.7384 -1.6187 0.9871
