ply
format ascii 1.0
element vertex 592
property float32 x
property float32 y
property float32 z
property float32 I
end_header
-7.3838 38.9958 6.9982 0.8511
-8.1714 36.0504 6.5179 0.8606
-9.0998 30.0070 5.5290 0.8804
-10.0856 29.4248 5.4847 0.8813
-11.3928 24.3565 4.7413 0.8965
-11.7974 23.0370 4.5637 0.9002
-12.2886 22.0179 4.4461 0.9027
-12.3325 16.1511 3.5832 0.9208
-12.6801 15.4294 3.5215 0.9221
-13.4285 15.1978 3.5760 0.9209
-14.2890 14.0114 3.5287 0.9219
-14.1731 12.0363 3.2787 0.9273
-14.5945 11.5217 3.2787 0.9273
-14.9972 10.9925 3.2787 0.9273
-15.2898 10.3873 3.2593 0.9277
-15.4734 9.7221 3.2222 0.9285
-5.3637 46.1945 7.1243 0.8285
-6.0236 39.4915 6.1199 0.8507
-8.2478 36.3872 5.7157 0.8599
-10.0856 29.4248 4.7651 0.8817
-9.7710 25.4957 4.1828 0.8954
-10.6093 24.9717 4.1565 0.8960
-11.4180 24.4105 4.1284 0.8967
-11.7972 23.0366 3.9649 0.9006
-12.4593 20.5598 3.6828 0.9073
-12.7274 19.4011 3.5546 0.9104
-13.0501 18.4212 3.4584 0.9127
-12.9886 17.0102 3.2787 0.9170
-13.5886 16.5349 3.2787 0.9170
-14.5025 13.2373 3.0080 0.9236
-14.8648 11.7352 2.9013 0.9262
-15.2897 10.3873 2.8317 0.9279
-15.4734 9.7221 2.7995 0.9287
-5.3790 46.3262 6.0732 0.8285
-6.0209 39.4736 5.1997 0.8512
-7.3837 38.9955 5.1682 0.8521
-8.2759 36.5110 4.8751 0.8598
-8.2518 31.1862 4.2009 0.8780
-9.0582 29.8700 4.0646 0.8817
-9.7484 25.4367 3.5473 0.8959
-11.3855 24.3409 3.4993 0.8973
-11.7975 23.0371 3.3704 0.9009
-12.1337 21.7405 3.2421 0.9044
-12.4596 20.5602 3.1306 0.9076
-13.5908 16.5376 2.7875 0.9173
-13.8742 15.7023 2.7286 0.9190
-14.1070 14.8591 2.6681 0.9207
-14.5025 13.2373 2.5569 0.9239
-12.2323 10.3881 2.0898 0.9373
-12.7586 8.6677 2.0086 0.9397
-3.9397 49.2491 5.3053 0.8197
-5.3735 46.2795 5.0029 0.8291
-7.3837 38.9953 4.2618 0.8524
-8.1715 36.0503 3.9693 0.8618
-8.2542 31.1952 3.4651 0.8783
-10.0857 29.4250 3.3402 0.8824
-10.5541 27.5390 3.1669 0.8881
-11.4181 24.4108 2.8939 0.8973
-12.1337 21.7405 2.6735 0.9047
-10.3591 17.0941 2.1463 0.9227
-10.8727 15.3476 2.0197 0.9271
-13.6163 16.5687 2.3029 0.9173
-13.8742 15.7023 2.2500 0.9192
-14.7916 14.5042 2.2245 0.9200
-14.7086 12.4910 2.0721 0.9253
-15.0727 11.8993 2.0621 0.9257
-15.1013 11.0688 2.0106 0.9274
-15.2896 10.3872 1.9849 0.9283
-3.9256 49.0739 4.1675 0.8207
-6.0405 39.6023 3.3912 0.8515
-8.1715 36.0506 3.1292 0.8621
-10.0857 29.4250 2.6332 0.8826
-11.0055 25.9042 2.3826 0.8932
-9.4702 20.2464 1.8921 0.9142
-12.2433 21.9368 2.1266 0.9041
-12.9175 19.6908 1.9935 0.9098
-13.0501 18.4211 1.9111 0.9134
-13.7803 16.7682 1.8373 0.9166
-14.6937 12.4784 1.6319 0.9255
-15.1013 11.0688 1.5850 0.9276
-5.3791 46.3271 2.8921 0.8295
-8.2299 36.3083 2.3086 0.8614
-11.7976 23.0374 1.6050 0.9015
-12.9174 19.6907 1.4603 0.9099
-13.0501 18.4212 1.3999 0.9135
-14.1070 14.8591 1.2705 0.9212
-14.5025 13.2373 1.2176 0.9243
-14.7086 12.4910 1.1966 0.9256
-15.2896 10.3872 1.1462 0.9286
-5.3791 46.3271 1.8390 0.8297
-6.4658 42.3908 1.6908 0.8423
-8.8698 33.5215 1.3673 0.8704
-10.5541 27.5390 1.1629 0.8886
-10.9943 25.8780 1.1087 0.8935
-9.3775 20.0481 0.8727 0.9152
-10.2523 16.9179 0.7800 0.9239
-10.9666 14.3623 0.7125 0.9302
-11.1126 13.5221 0.6901 0.9323
-11.3134 12.8040 0.6737 0.9339
-12.1071 10.2818 0.6263 0.9384
-12.2728 9.6889 0.6166 0.9393
-12.5902 8.5534 0.6002 0.9409
-5.3526 46.0987 0.7839 0.8306
-5.2891 34.6758 0.5925 0.8691
-7.2853 27.5335 0.4811 0.8923
-7.7958 25.7071 0.4538 0.8981
-8.2129 23.9611 0.4279 0.9036
-8.6630 22.6044 0.4089 0.9077
-9.6340 18.8125 0.3570 0.9189
-10.2523 16.9179 0.3342 0.9239
-10.5051 16.0136 0.3235 0.9262
-11.3134 12.8040 0.2886 0.9339
-11.5736 12.1907 0.2839 0.9350
-11.7583 11.5299 0.2782 0.9362
-12.4337 9.1135 0.2604 0.9402
-12.5902 8.5534 0.2571 0.9409
-12.7430 8.0066 0.2542 0.9416
-5.3791 46.3271 -0.2626 0.8298
-5.2891 34.6758 -0.1975 0.8691
-6.7086 29.5968 -0.1709 0.8857
-7.7958 25.7071 -0.1512 0.8981
-8.6630 22.6045 -0.1363 0.9077
-9.0362 21.2690 -0.1301 0.9117
-9.3775 20.0481 -0.1246 0.9153
-10.2523 16.9179 -0.1114 0.9239
-10.5051 16.0136 -0.1078 0.9263
-10.7426 15.1639 -0.1046 0.9284
-10.9666 14.3623 -0.1017 0.9303
-11.3134 12.8040 -0.0962 0.9339
-11.5736 12.1907 -0.0946 0.9350
-11.7583 11.5299 -0.0927 0.9362
-12.1071 10.2818 -0.0894 0.9384
-12.2728 9.6889 -0.0880 0.9394
-12.4337 9.1135 -0.0868 0.9402
-12.5902 8.5534 -0.0857 0.9409
-3.5982 44.9805 -1.2706 0.8348
-6.0501 31.9527 -0.9157 0.8780
-6.7086 29.5968 -0.8545 0.8856
-7.2853 27.5335 -0.8020 0.8923
-7.7958 25.7071 -0.7564 0.8981
-8.2129 23.9611 -0.7132 0.9036
-8.6630 22.6044 -0.6816 0.9077
-9.6340 18.8125 -0.5951 0.9189
-10.2523 16.9179 -0.5570 0.9239
-10.5051 16.0135 -0.5393 0.9262
-10.9666 14.3623 -0.5088 0.9302
-11.5736 12.1907 -0.4733 0.9349
-11.7583 11.5299 -0.4637 0.9362
-11.9359 10.8946 -0.4550 0.9374
-12.2728 9.6889 -0.4403 0.9393
-12.4337 9.1135 -0.4341 0.9402
5.9233 28.2997 -1.4663 0.8907
4.9075 28.4937 -1.4663 0.8907
1.8276 28.8558 -1.4663 0.8907
-0.2396 28.9129 -1.4663 0.8906
-1.2734 28.8859 -1.4664 0.8906
-3.3349 28.7213 -1.4664 0.8906
-5.3793 28.4098 -1.4664 0.8906
-7.2853 27.5335 -1.4444 0.8922
-9.9820 17.8851 -1.0387 0.9212
-10.5051 16.0135 -0.9713 0.9262
-10.9666 14.3623 -0.9164 0.9302
-11.5736 12.1907 -0.8525 0.9349
-11.9358 10.8946 -0.8196 0.9373
-12.1071 10.2818 -0.8055 0.9384
-12.4337 9.1135 -0.7818 0.9401
-12.5902 8.5534 -0.7719 0.9409
-12.7430 8.0066 -0.7632 0.9415
4.7943 19.4148 -1.4663 0.9229
3.3944 19.7080 -1.4663 0.9229
1.9770 19.9003 -1.4663 0.9229
0.5495 19.9909 -1.4663 0.9229
-0.1657 19.9978 -1.4663 0.9229
-1.5947 19.9350 -1.4663 0.9229
-2.3065 19.8652 -1.4663 0.9229
-3.0155 19.7701 -1.4664 0.9229
-3.7206 19.6497 -1.4664 0.9229
-7.1570 18.6747 -1.4664 0.9229
-8.4735 18.1155 -1.4664 0.9229
-9.1160 17.8009 -1.4664 0.9229
-9.7467 17.4636 -1.4664 0.9229
-11.5736 12.1907 -1.2325 0.9348
-11.7583 11.5299 -1.2075 0.9361
-11.9358 10.8946 -1.1849 0.9372
-12.4337 9.1135 -1.1303 0.9400
-12.7430 8.0066 -1.1035 0.9414
2.5924 15.0517 -1.4663 0.9405
-1.2179 15.2249 -1.4663 0.9405
-1.7616 15.1716 -1.4663 0.9405
-3.3764 14.8958 -1.4664 0.9405
-4.4325 14.6165 -1.4664 0.9405
-4.9524 14.4486 -1.4664 0.9405
-5.9725 14.0578 -1.4664 0.9405
-6.9621 13.5950 -1.4664 0.9405
-7.9160 13.0626 -1.4664 0.9405
-8.8295 12.4635 -1.4664 0.9405
-9.6978 11.8005 -1.4664 0.9405
-10.1137 11.4462 -1.4664 0.9405
-10.5165 11.0772 -1.4664 0.9405
-11.2814 10.2972 -1.4664 0.9405
-11.9886 9.4645 -1.4664 0.9405
-12.7430 8.0066 -1.4448 0.9413
2.9594 11.9841 -1.4663 0.9515
2.5289 12.0823 -1.4663 0.9515
2.0952 12.1650 -1.4663 0.9515
1.6588 12.2322 -1.4663 0.9515
1.2204 12.2837 -1.4663 0.9515
-0.5437 12.3323 -1.4663 0.9515
-1.8613 12.2032 -1.4663 0.9515
-2.2966 12.1289 -1.4663 0.9515
-3.1577 11.9338 -1.4663 0.9515
-3.5824 11.8132 -1.4663 0.9515
-4.4176 11.5270 -1.4664 0.9515
-5.2303 11.1818 -1.4664 0.9515
-6.0162 10.7794 -1.4664 0.9515
-6.3978 10.5574 -1.4664 0.9515
-6.7713 10.3218 -1.4664 0.9515
-7.1361 10.0731 -1.4664 0.9515
-7.4918 9.8115 -1.4664 0.9515
-8.8143 8.6430 -1.4664 0.9515
-9.4095 7.9909 -1.4664 0.9515
-9.9567 7.2979 -1.4664 0.9515
-10.2113 6.9372 -1.4664 0.9515
-10.4528 6.5676 -1.4664 0.9515
2.1201 10.1292 -1.4663 0.9591
1.7565 10.1986 -1.4663 0.9591
1.3907 10.2549 -1.4663 0.9591
0.6541 10.3281 -1.4663 0.9591
0.2844 10.3449 -1.4663 0.9591
-0.0858 10.3485 -1.4663 0.9591
-0.4558 10.3388 -1.4663 0.9591
-0.8252 10.3160 -1.4663 0.9591
-1.5605 10.2306 -1.4663 0.9591
-2.6472 10.0047 -1.4663 0.9591
-3.0033 9.9036 -1.4663 0.9591
-3.3556 9.7899 -1.4663 0.9591
-4.0467 9.5251 -1.4664 0.9591
-4.3848 9.3743 -1.4664 0.9591
-4.7172 9.2115 -1.4664 0.9591
-5.6767 8.6533 -1.4664 0.9591
-5.9825 8.4448 -1.4664 0.9591
-6.5708 7.9956 -1.4664 0.9591
-7.3894 7.2459 -1.4664 0.9591
-7.6438 6.9770 -1.4664 0.9591
-8.5606 5.8158 -1.4664 0.9591
-8.7631 5.5059 -1.4664 0.9591
1.5108 8.7716 -1.4663 0.9646
0.8799 8.8572 -1.4663 0.9646
0.5626 8.8830 -1.4663 0.9646
0.2446 8.8975 -1.4663 0.9646
-0.3920 8.8922 -1.4663 0.9646
-0.7097 8.8726 -1.4663 0.9646
-1.0266 8.8415 -1.4663 0.9646
-1.6559 8.7455 -1.4663 0.9646
-2.2768 8.6048 -1.4663 0.9646
-2.5831 8.5179 -1.4663 0.9646
-2.8861 8.4201 -1.4663 0.9646
-3.1853 8.3115 -1.4663 0.9646
-3.7713 8.0626 -1.4663 0.9646
-4.0572 7.9226 -1.4663 0.9646
-5.1454 7.2632 -1.4664 0.9646
-5.4019 7.0745 -1.4664 0.9646
-5.6514 6.8768 -1.4664 0.9646
-5.8938 6.6703 -1.4664 0.9646
-6.5743 6.0008 -1.4664 0.9646
-6.9864 5.5155 -1.4664 0.9646
-7.1792 5.2621 -1.4664 0.9646
-7.3628 5.0020 -1.4664 0.9646
1.5982 7.6357 -1.4663 0.9687
1.3241 7.6879 -1.4663 0.9687
0.7712 7.7630 -1.4663 0.9687
0.2144 7.7982 -1.4663 0.9687
-0.0646 7.8009 -1.4663 0.9687
-0.3436 7.7936 -1.4663 0.9687
-0.8998 7.7492 -1.4663 0.9687
-1.1763 7.7121 -1.4663 0.9687
-1.4513 7.6651 -1.4663 0.9687
-2.2640 7.4656 -1.4663 0.9687
-2.7918 7.2847 -1.4663 0.9687
-3.3053 7.0665 -1.4663 0.9687
-4.0432 6.6719 -1.4663 0.9687
-4.2792 6.5230 -1.4663 0.9687
-4.5097 6.3658 -1.4664 0.9687
-4.7345 6.2005 -1.4664 0.9687
-4.9532 6.0272 -1.4664 0.9687
-5.1656 5.8462 -1.4664 0.9687
-5.3714 5.6578 -1.4664 0.9687
-5.9464 5.0499 -1.4664 0.9687
-6.1232 4.8341 -1.4664 0.9687
-6.4531 4.3840 -1.4664 0.9687
1.6630 6.7345 -1.4663 0.9720
1.1774 6.8362 -1.4663 0.9720
0.4385 6.9230 -1.4663 0.9720
0.1906 6.9343 -1.4663 0.9720
-0.0575 6.9367 -1.4663 0.9720
-0.5531 6.9148 -1.4663 0.9720
-0.8001 6.8906 -1.4663 0.9720
-1.2905 6.8158 -1.4663 0.9720
-1.5335 6.7653 -1.4663 0.9720
-2.0131 6.6384 -1.4663 0.9720
-2.7125 6.3846 -1.4663 0.9720
-3.1620 6.1745 -1.4663 0.9720
-3.3808 6.0574 -1.4663 0.9720
-3.8051 5.8003 -1.4663 0.9720
-4.0101 5.6605 -1.4663 0.9720
-4.4044 5.3594 -1.4663 0.9720
-4.5933 5.1985 -1.4664 0.9720
-4.7762 5.0309 -1.4664 0.9720
-5.2876 4.4904 -1.4664 0.9720
-5.7381 3.8983 -1.4664 0.9720
-5.8739 3.6906 -1.4664 0.9720
1.4957 6.0571 -1.4663 0.9747
1.2782 6.1067 -1.4663 0.9747
0.8384 6.1824 -1.4663 0.9747
0.3944 6.2266 -1.4663 0.9747
0.1715 6.2367 -1.4663 0.9747
-0.0517 6.2388 -1.4663 0.9747
-0.7196 6.1974 -1.4663 0.9747
-1.1607 6.1302 -1.4663 0.9747
-1.5959 6.0315 -1.4663 0.9747
-2.0230 5.9020 -1.4663 0.9747
-2.2327 5.8259 -1.4663 0.9747
-2.4397 5.7424 -1.4663 0.9747
-2.6434 5.6514 -1.4663 0.9747
-3.0406 5.4481 -1.4663 0.9747
-3.2335 5.3358 -1.4663 0.9747
-3.4223 5.2168 -1.4663 0.9747
-3.6067 5.0911 -1.4663 0.9747
-3.9613 4.8203 -1.4663 0.9747
-4.2957 4.5248 -1.4663 0.9747
-4.4548 4.3683 -1.4663 0.9747
-4.7557 4.0387 -1.4664 0.9747
-4.8971 3.8660 -1.4664 0.9747
-5.0322 3.6884 -1.4664 0.9747
-5.5398 3.4807 -1.5376 0.9735
1.1602 5.5431 -1.4663 0.9769
0.7611 5.6119 -1.4663 0.9769
0.3580 5.6519 -1.4663 0.9769
0.1556 5.6611 -1.4663 0.9769
-0.0469 5.6631 -1.4663 0.9769
-0.4516 5.6452 -1.4663 0.9769
-0.8539 5.5985 -1.4663 0.9769
-1.2519 5.5232 -1.4663 0.9769
-1.4486 5.4749 -1.4663 0.9769
-1.6435 5.4196 -1.4663 0.9769
-2.0267 5.2883 -1.4663 0.9769
-2.2145 5.2124 -1.4663 0.9769
-2.7600 4.9453 -1.4663 0.9769
-2.9351 4.8434 -1.4663 0.9769
-3.1065 4.7353 -1.4663 0.9769
-3.2738 4.6212 -1.4663 0.9769
-3.4370 4.5012 -1.4663 0.9769
-3.5958 4.3754 -1.4663 0.9769
-3.7499 4.2440 -1.4663 0.9769
-3.8993 4.1072 -1.4663 0.9769
-4.0437 3.9651 -1.4663 0.9769
-4.1829 3.8180 -1.4663 0.9769
-5.1496 3.4985 -1.6119 0.9746
1.1359 5.4270 -1.5696 0.9772
0.9217 5.3517 -1.5373 0.9777
0.5174 5.2084 -1.4817 0.9785
0.1423 5.1777 -1.4663 0.9787
-0.5974 5.1451 -1.4663 0.9787
-0.9636 5.0892 -1.4663 0.9787
-1.8536 4.8367 -1.4663 0.9787
-2.1946 4.6918 -1.4663 0.9787
-2.6845 4.4298 -1.4663 0.9787
-2.8412 4.3309 -1.4663 0.9787
-3.1435 4.1168 -1.4663 0.9787
-3.2976 4.0126 -1.4703 0.9786
-3.6980 3.8952 -1.5205 0.9779
-3.9100 3.8341 -1.5503 0.9775
-4.1369 3.7760 -1.5856 0.9770
-4.7282 3.2122 -1.6182 0.9765
-4.8417 3.0421 -1.6187 0.9765
1.2602 5.1034 -1.6168 0.9782
0.1388 5.0503 -1.5540 0.9791
-0.2176 4.9357 -1.5196 0.9795
-0.7274 4.7690 -1.4838 0.9800
-1.0568 4.6625 -1.4704 0.9802
-1.2201 4.6113 -1.4671 0.9802
-1.3837 4.5628 -1.4665 0.9802
-1.5468 4.5129 -1.4673 0.9802
-1.8730 4.4086 -1.4733 0.9802
-2.5446 4.1991 -1.5102 0.9797
-2.7220 4.1492 -1.5263 0.9794
-2.9033 4.0983 -1.5448 0.9792
-3.0892 4.0457 -1.5657 0.9789
-3.6101 3.8026 -1.6127 0.9783
-3.8802 3.5417 -1.6159 0.9783
-4.2447 3.1113 -1.6187 0.9782
-4.3533 2.9575 -1.6187 0.9782
-1.5962 1.0029 -0.5798 0.9921
1.1675 4.7277 -1.6187 0.9797
0.9976 4.7664 -1.6187 0.9797
0.4807 4.8387 -1.6163 0.9797
0.3071 4.8491 -1.6151 0.9797
0.1334 4.8538 -1.6140 0.9797
-0.0402 4.8527 -1.6131 0.9798
-0.3866 4.8327 -1.6115 0.9798
-0.7242 4.7481 -1.5965 0.9800
-0.8887 4.6937 -1.5879 0.9801
-1.0516 4.6395 -1.5813 0.9801
-1.2135 4.5863 -1.5770 0.9802
-1.3760 4.5376 -1.5761 0.9802
-1.7012 4.4390 -1.5802 0.9802
-1.8647 4.3890 -1.5851 0.9801
-2.1952 4.2866 -1.6009 0.9799
-2.3621 4.2324 -1.6111 0.9798
-2.8061 3.9610 -1.6136 0.9797
-3.0862 3.7554 -1.6158 0.9797
-3.2210 3.6454 -1.6170 0.9797
-3.3520 3.5307 -1.6183 0.9797
-3.4771 3.4095 -1.6187 0.9797
-3.5967 3.2830 -1.6187 0.9797
-3.7119 3.1523 -1.6187 0.9797
-3.9277 2.8789 -1.6187 0.9797
-4.0281 2.7366 -1.6187 0.9797
0.7683 4.4608 -1.6187 0.9810
0.6083 4.4855 -1.6187 0.9810
0.4475 4.5043 -1.6187 0.9810
-0.1992 4.5190 -1.6176 0.9810
-0.3605 4.5071 -1.6169 0.9810
-0.5213 4.4896 -1.6163 0.9810
-0.8404 4.4384 -1.6154 0.9810
-1.1551 4.3655 -1.6149 0.9810
-1.3104 4.3213 -1.6148 0.9810
-1.7662 4.1572 -1.6153 0.9810
-1.9142 4.0923 -1.6156 0.9810
-2.2031 3.9473 -1.6165 0.9810
-2.3437 3.8675 -1.6172 0.9810
-2.4816 3.7829 -1.6179 0.9810
-2.6167 3.6936 -1.6187 0.9810
-3.3433 3.0516 -1.6187 0.9810
-3.4503 2.9301 -1.6187 0.9810
-3.5529 2.8049 -1.6187 0.9810
-3.7443 2.5437 -1.6187 0.9810
-3.8328 2.4082 -1.6187 0.9810
0.5676 4.1857 -1.6187 0.9821
0.1161 4.2224 -1.6187 0.9821
-0.0350 4.2239 -1.6187 0.9821
-0.1860 4.2199 -1.6187 0.9821
-0.3368 4.2106 -1.6187 0.9821
-0.6369 4.1757 -1.6187 0.9821
-0.7858 4.1503 -1.6187 0.9821
-0.9338 4.1195 -1.6187 0.9821
-1.0805 4.0835 -1.6187 0.9821
-1.2258 4.0423 -1.6187 0.9821
-1.3696 3.9958 -1.6187 0.9821
-1.5116 3.9443 -1.6187 0.9821
-1.6517 3.8877 -1.6187 0.9821
-1.7897 3.8262 -1.6187 0.9821
-1.9254 3.7597 -1.6187 0.9821
-2.0586 3.6885 -1.6187 0.9821
-2.4418 3.4468 -1.6187 0.9821
-2.9083 3.0634 -1.6187 0.9821
-3.0160 2.9574 -1.6187 0.9821
-3.1198 2.8477 -1.6187 0.9821
-3.2197 2.7343 -1.6187 0.9821
-3.4940 2.3737 -1.6187 0.9821
-3.5767 2.2473 -1.6187 0.9821
0.8103 3.8712 -1.6187 0.9831
0.6713 3.8977 -1.6187 0.9831
0.5315 3.9192 -1.6187 0.9831
0.1087 3.9536 -1.6187 0.9831
-0.0328 3.9549 -1.6187 0.9831
-0.1742 3.9513 -1.6187 0.9831
-0.3154 3.9425 -1.6187 0.9831
-0.4562 3.9287 -1.6187 0.9831
-0.5964 3.9099 -1.6187 0.9831
-1.4154 3.6932 -1.6187 0.9831
-1.8028 3.5203 -1.6187 0.9831
-1.9275 3.4536 -1.6187 0.9831
-2.1694 3.3070 -1.6187 0.9831
-2.5112 3.0557 -1.6187 0.9831
-2.6188 2.9639 -1.6187 0.9831
-2.7232 2.8684 -1.6187 0.9831
-2.9212 2.6664 -1.6187 0.9831
-3.1043 2.4508 -1.6187 0.9831
-3.3490 2.1042 -1.6187 0.9831
-0.2962 3.7024 -1.6187 0.9839
-0.4284 3.6894 -1.6187 0.9839
-0.5600 3.6718 -1.6187 0.9839
-0.8211 3.6223 -1.6187 0.9839
-1.0779 3.5544 -1.6187 0.9839
-1.3292 3.4683 -1.6187 0.9839
-1.8101 3.2433 -1.6187 0.9839
-1.9250 3.1765 -1.6187 0.9839
-2.0373 3.1056 -1.6187 0.9839
-2.5573 2.6937 -1.6187 0.9839
-2.6520 2.6005 -1.6187 0.9839
-2.7433 2.5040 -1.6187 0.9839
-2.8311 2.4043 -1.6187 0.9839
-2.9153 2.3015 -1.6187 0.9839
-3.0723 2.0872 -1.6187 0.9839
-1.2016 0.7550 -0.6185 0.9938
0.8384 3.3950 -1.6187 0.9847
0.4699 3.4653 -1.6187 0.9847
0.3457 3.4799 -1.6187 0.9847
0.2210 3.4900 -1.6187 0.9847
-0.4033 3.4737 -1.6187 0.9847
-0.8945 3.3807 -1.6187 0.9847
-1.1339 3.3081 -1.6187 0.9847
-1.3674 3.2186 -1.6187 0.9847
-1.4817 3.1676 -1.6187 0.9847
-1.9182 2.9240 -1.6187 0.9847
-2.1223 2.7794 -1.6187 0.9847
-2.4078 2.5361 -1.6187 0.9847
-2.6656 2.2637 -1.6187 0.9847
-2.7448 2.1669 -1.6187 0.9847
-1.1593 0.7284 -0.6337 0.9940
0.7911 3.2037 -1.6187 0.9854
0.6760 3.2300 -1.6187 0.9854
0.5601 3.2521 -1.6187 0.9854
0.3262 3.2838 -1.6187 0.9854
0.0907 3.2987 -1.6187 0.9854
-0.2631 3.2895 -1.6187 0.9854
-0.3806 3.2780 -1.6187 0.9854
-0.9577 3.1580 -1.6187 0.9854
-1.0700 3.1217 -1.6187 0.9854
-1.2904 3.0373 -1.6187 0.9854
-1.5042 2.9372 -1.6187 0.9854
-1.7103 2.8222 -1.6187 0.9854
-1.8101 2.7593 -1.6187 0.9854
-2.0952 2.5495 -1.6187 0.9854
-2.4373 2.2247 -1.6187 0.9854
-1.1113 0.7550 -0.6590 0.9940
0.7480 3.0292 -1.6187 0.9860
0.6392 3.0541 -1.6187 0.9860
0.5296 3.0750 -1.6187 0.9860
0.3085 3.1050 -1.6187 0.9860
0.1972 3.1140 -1.6187 0.9860
-0.1374 3.1172 -1.6187 0.9860
-0.2488 3.1103 -1.6187 0.9860
-0.6897 3.0431 -1.6187 0.9860
-0.9055 2.9860 -1.6187 0.9860
-1.0117 2.9517 -1.6187 0.9860
-1.1166 2.9136 -1.6187 0.9860
-1.2201 2.8718 -1.6187 0.9860
-1.3220 2.8263 -1.6187 0.9860
-1.4222 2.7773 -1.6187 0.9860
-1.5207 2.7246 -1.6187 0.9860
-1.6171 2.6685 -1.6187 0.9860
-2.0660 2.3383 -1.6187 0.9860
-2.1483 2.2629 -1.6187 0.9860
-2.2279 2.1846 -1.6187 0.9860
0.7085 2.8693 -1.6187 0.9866
0.6055 2.8928 -1.6187 0.9866
0.3972 2.9287 -1.6187 0.9866
-0.0245 2.9554 -1.6187 0.9866
-0.1302 2.9526 -1.6187 0.9866
-0.2357 2.9460 -1.6187 0.9866
-0.3409 2.9358 -1.6187 0.9866
-0.4456 2.9217 -1.6187 0.9866
-0.5498 2.9039 -1.6187 0.9866
-0.8577 2.8283 -1.6187 0.9866
-0.9583 2.7958 -1.6187 0.9866
-1.0576 2.7598 -1.6187 0.9866
-1.1557 2.7202 -1.6187 0.9866
-1.3471 2.6306 -1.6187 0.9866
-1.4404 2.5808 -1.6187 0.9866
-1.5317 2.5276 -1.6187 0.9866
-1.6211 2.4712 -1.6187 0.9866
-1.7936 2.3490 -1.6187 0.9866
-1.9569 2.2148 -1.6187 0.9866
-2.1102 2.0693 -1.6187 0.9866
-2.1829 1.9925 -1.6187 0.9866
-0.9767 0.7711 -0.6815 0.9943
-1.0342 0.6498 -0.6690 0.9944
0.5744 2.7442 -1.6187 0.9871
0.3768 2.7783 -1.6187 0.9871
0.2772 2.7900 -1.6187 0.9871
0.1772 2.7981 -1.6187 0.9871
0.0770 2.8026 -1.6187 0.9871
-0.0232 2.8036 -1.6187 0.9871
-0.1235 2.8010 -1.6187 0.9871
-0.3234 2.7850 -1.6187 0.9871
-0.4227 2.7717 -1.6187 0.9871
-0.7172 2.7104 -1.6187 0.9871
-0.8136 2.6831 -1.6187 0.9871
-0.9091 2.6522 -1.6187 0.9871
-1.0963 2.5805 -1.6187 0.9871
-1.1879 2.5396 -1.6187 0.9871
-1.2780 2.4955 -1.6187 0.9871
-1.3664 2.4482 -1.6187 0.9871
-1.4531 2.3978 -1.6187 0.9871
-1.6207 2.2878 -1.6187 0.9871
-1.8564 2.1011 -1.6187 0.9871
-1.9304 2.0333 -1.6187 0.9871
-0.9301 0.7343 -0.6842 0.9945
-0.9505 0.6967 -0.6804 0.9946
-0.9696 0.6587 -0.6767 0.9946
