ply
format ascii 1.0
element vertex 464
property float32 x
property float32 y
property float32 z
property float32 I
end_header
-12.4009 20.7716 4.2657 0.9064
-12.7130 19.6420 4.1256 0.9093
-13.0055 18.5826 3.9994 0.9120
-12.2965 16.2813 3.5976 0.9205
-12.5779 15.4567 3.5138 0.9222
-13.3385 15.2303 3.5698 0.9211
-14.0091 14.8732 3.6027 0.9204
-14.5136 13.3291 3.4746 0.9231
-14.1415 12.0734 3.2787 0.9273
-14.9780 11.0184 3.2787 0.9273
-15.2830 10.4117 3.2607 0.9276
-15.4691 9.7377 3.2231 0.9284
-15.6512 9.0783 3.1904 0.9291
-15.8298 8.4312 3.1624 0.9297
-19.1856 9.3433 3.7628 0.9170
-24.2509 10.7420 4.6768 0.8979
-35.0889 14.0461 6.6644 0.8577
-25.3893 5.1389 4.5676 0.9001
-12.4009 20.7716 3.7060 0.9067
-12.6608 19.5613 3.5696 0.9100
-12.9974 18.5709 3.4725 0.9124
-13.8446 15.8081 3.2192 0.9185
-14.5417 13.3549 3.0246 0.9232
-15.0921 11.1024 2.8702 0.9270
-15.4691 9.7377 2.8002 0.9287
-15.6512 9.0783 2.7718 0.9294
-12.4011 20.7720 3.1503 0.9070
-12.7130 19.6421 3.0468 0.9099
-13.0055 18.5826 2.9536 0.9126
-13.8446 15.8081 2.7364 0.9187
-11.6708 12.3906 2.2166 0.9336
-14.6503 14.4668 2.6812 0.9203
-14.5417 13.3549 2.5710 0.9234
-12.3877 9.8235 2.0588 0.9382
-12.5610 9.2404 2.0306 0.9390
-12.7519 8.6873 2.0093 0.9397
-16.2233 9.4101 2.4423 0.9271
-14.0592 7.4882 2.0743 0.9378
-19.1893 9.3451 2.7794 0.9175
-24.2516 10.7423 3.4540 0.8985
-34.7548 13.9123 4.8749 0.8598
-12.4011 20.7720 2.5978 0.9073
-10.8258 15.4682 2.0274 0.9269
-13.8446 15.8081 2.2565 0.9189
-15.0605 11.9430 2.0640 0.9256
-12.5687 9.2461 1.6755 0.9392
-15.2829 10.4116 1.9857 0.9283
-35.3845 14.1644 4.0928 0.8578
-12.8657 19.8780 2.0044 0.9093
-10.8808 15.5467 1.6063 0.9267
-11.6708 12.3906 1.4409 0.9340
-14.7955 14.6101 1.7602 0.9199
-14.5417 13.3549 1.6714 0.9238
-15.0861 11.9633 1.6299 0.9256
-15.9688 10.0522 1.5973 0.9271
-13.8446 15.8081 1.3031 0.9192
-11.6708 12.3906 1.0555 0.9341
-14.7954 14.6101 1.2894 0.9200
-14.5417 13.3549 1.2243 0.9239
-14.6937 12.5448 1.1981 0.9255
-15.0861 11.9633 1.1939 0.9257
-15.9688 10.0522 1.1701 0.9272
-22.2575 9.8590 1.5095 0.9070
-25.3796 5.1369 1.6057 0.9014
-10.4627 16.1652 0.7593 0.9258
-11.1508 13.7031 0.6966 0.9317
-11.2892 12.8903 0.6756 0.9337
-11.9209 10.9480 0.6382 0.9373
-12.0948 10.3260 0.6271 0.9383
-12.4259 9.1410 0.6083 0.9401
-12.5846 8.5734 0.6004 0.9409
-12.7395 8.0194 0.5936 0.9415
-16.2267 7.9023 0.7117 0.9303
-20.5094 9.0847 0.8845 0.9141
-25.3761 5.1362 1.0209 0.9015
-10.2038 17.0915 0.3362 0.9235
-11.1509 13.7031 0.2984 0.9318
-11.2892 12.8903 0.2894 0.9337
-11.5527 12.2653 0.2846 0.9348
-11.7405 11.5934 0.2787 0.9361
-12.2629 9.7245 0.2644 0.9393
-12.5846 8.5734 0.2572 0.9409
-12.7395 8.0194 0.2543 0.9416
-13.0102 6.9295 0.2490 0.9427
-27.5514 11.0288 0.5013 0.8881
-25.3727 5.1355 0.4373 0.9016
-10.2038 17.0915 -0.1121 0.9235
-10.4627 16.1652 -0.1084 0.9259
-10.7055 15.2964 -0.1051 0.9280
-11.2892 12.8903 -0.0965 0.9338
-11.5527 12.2653 -0.0949 0.9348
-11.7405 11.5934 -0.0929 0.9361
-11.9209 10.9480 -0.0911 0.9373
-12.0947 10.3260 -0.0895 0.9384
-12.5846 8.5734 -0.0857 0.9409
-13.0102 6.9295 -0.0830 0.9427
-16.2267 7.9023 -0.1016 0.9303
-20.5095 9.0847 -0.1263 0.9142
-27.5515 11.0288 -0.1671 0.8881
-25.3692 5.1348 -0.1457 0.9016
-10.2038 17.0915 -0.5605 0.9234
-10.4627 16.1652 -0.5422 0.9258
-11.1508 13.7031 -0.4975 0.9317
-11.5527 12.2653 -0.4744 0.9348
-11.7405 11.5934 -0.4646 0.9361
-12.4259 9.1410 -0.4344 0.9401
-12.5846 8.5734 -0.4288 0.9409
-12.7394 8.0194 -0.4239 0.9415
-13.0102 6.9295 -0.4151 0.9427
-20.5095 9.0847 -0.6316 0.9141
-27.5514 11.0288 -0.8356 0.8880
-25.3664 5.1343 -0.7287 0.9016
-10.4627 16.1652 -0.9765 0.9258
-11.1508 13.7031 -0.8960 0.9317
-11.2892 12.8903 -0.8690 0.9337
-11.5527 12.2653 -0.8545 0.9347
-11.7405 11.5934 -0.8368 0.9361
-11.9209 10.9480 -0.8208 0.9372
-12.0947 10.3260 -0.8065 0.9383
-12.2629 9.7245 -0.7937 0.9392
-12.4259 9.1410 -0.7823 0.9401
-12.5846 8.5734 -0.7722 0.9408
-12.7394 8.0194 -0.7634 0.9415
-12.8186 7.4353 -0.7515 0.9424
-16.2267 7.9023 -0.9153 0.9303
-20.5095 9.0847 -1.1376 0.9141
-26.8474 10.7470 -1.4666 0.8906
-27.2189 9.7680 -1.4666 0.8906
-25.2575 5.1122 -1.3069 0.9019
-31.4988 5.1962 -1.6190 0.8800
-31.6662 4.0525 -1.6190 0.8800
-2.9857 0.2727 -0.1520 0.9881
-2.9679 0.1630 -0.1507 0.9882
-2.9469 0.0550 -0.1495 0.9883
-11.1508 13.7031 -1.2954 0.9316
-11.5527 12.2653 -1.2354 0.9347
-11.7405 11.5934 -1.2098 0.9360
-11.9209 10.9480 -1.1867 0.9371
-12.2629 9.7245 -1.1475 0.9392
-12.4259 9.1410 -1.1311 0.9400
-12.8185 7.4352 -1.0866 0.9423
-16.2267 7.9023 -1.3234 0.9302
-18.2867 8.1001 -1.4665 0.9229
-18.5680 7.4328 -1.4665 0.9229
-10.7440 3.8556 -0.8370 0.9553
-19.0572 6.0697 -1.4665 0.9229
-19.2645 5.3758 -1.4665 0.9229
-2.5496 0.6129 -0.1923 0.9895
-2.4137 0.3089 -0.1784 0.9903
-2.4097 0.2200 -0.1774 0.9903
-2.4079 0.1322 -0.1768 0.9904
-8.2991 12.8224 -1.4664 0.9405
-8.7579 12.5136 -1.4664 0.9405
-9.6405 11.8471 -1.4664 0.9405
-10.0631 11.4904 -1.4664 0.9405
-10.8683 10.7321 -1.4664 0.9405
-11.6164 9.9176 -1.4664 0.9405
-11.9679 9.4906 -1.4664 0.9405
-12.3037 9.0511 -1.4664 0.9405
-12.7394 8.0194 -1.4452 0.9413
-13.9657 6.1861 -1.4664 0.9405
-10.7166 3.8458 -1.0931 0.9553
-14.5541 4.6355 -1.4664 0.9405
-2.2520 0.6284 -0.2245 0.9906
-2.1961 0.4445 -0.2151 0.9910
-2.1551 0.1183 -0.2072 0.9914
-2.1523 0.0401 -0.2067 0.9914
-6.3278 10.5991 -1.4663 0.9515
-6.7074 10.3631 -1.4663 0.9515
-7.0782 10.1135 -1.4663 0.9515
-7.7915 9.5749 -1.4664 0.9515
-8.1331 9.2866 -1.4664 0.9515
-9.0921 8.3501 -1.4664 0.9515
-9.3884 8.0154 -1.4664 0.9515
-9.6725 7.6703 -1.4664 0.9515
-10.4471 6.5764 -1.4664 0.9515
-10.6784 6.1939 -1.4664 0.9515
-10.8956 5.8032 -1.4664 0.9515
-11.2871 4.9996 -1.4664 0.9515
-2.0283 0.4105 -0.2458 0.9917
-2.0131 0.3321 -0.2424 0.9918
-2.0103 0.2573 -0.2407 0.9919
-2.0072 0.1833 -0.2394 0.9919
-5.6231 8.6879 -1.4663 0.9591
-6.5320 8.0271 -1.4663 0.9591
-7.3638 7.2716 -1.4663 0.9591
-7.6223 7.0002 -1.4663 0.9591
-7.8707 6.7197 -1.4664 0.9591
-8.1089 6.4304 -1.4664 0.9591
-8.3364 6.1326 -1.4664 0.9591
-8.5529 5.8267 -1.4664 0.9591
-8.7583 5.5133 -1.4664 0.9591
-8.9522 5.1926 -1.4664 0.9591
-9.4624 4.1914 -1.4664 0.9591
-1.9685 0.6270 -0.2927 0.9917
-1.9547 0.5455 -0.2875 0.9918
-1.9287 0.3904 -0.2788 0.9921
-1.9204 0.3168 -0.2758 0.9922
-1.9161 0.1750 -0.2726 0.9923
-1.9129 0.1050 -0.2715 0.9923
-1.9073 0.0356 -0.2703 0.9923
-5.1037 7.2923 -1.4663 0.9646
-5.3644 7.1027 -1.4663 0.9646
-5.6180 6.9039 -1.4663 0.9646
-6.5557 6.0207 -1.4663 0.9646
-6.7694 5.7794 -1.4663 0.9646
-6.9742 5.5306 -1.4663 0.9646
-7.1699 5.2745 -1.4663 0.9646
-8.0025 3.8972 -1.4663 0.9646
-8.1384 3.6049 -1.4664 0.9646
-8.2635 3.3079 -1.4664 0.9646
-1.8689 0.5952 -0.3231 0.9921
-1.8579 0.5184 -0.3178 0.9922
-1.8488 0.4444 -0.3132 0.9923
-1.8324 0.1673 -0.3031 0.9926
-1.8282 0.1004 -0.3016 0.9926
-3.9989 6.6982 -1.4663 0.9687
-4.2388 6.5490 -1.4663 0.9687
-6.1125 4.8473 -1.4663 0.9687
-6.2840 4.6228 -1.4663 0.9687
-6.7482 3.9142 -1.4663 0.9687
-6.8855 3.6673 -1.4663 0.9687
-7.7527 3.1034 -1.5696 0.9666
-1.7871 0.6413 -0.3569 0.9923
-1.7795 0.5667 -0.3510 0.9924
-1.7651 0.4243 -0.3412 0.9926
-1.7574 0.2899 -0.3348 0.9928
-1.7499 0.0961 -0.3294 0.9929
-1.7451 0.0325 -0.3281 0.9929
-3.7691 5.8234 -1.4663 0.9720
-3.9775 5.6832 -1.4663 0.9720
-4.1807 5.5355 -1.4663 0.9720
-4.3783 5.3805 -1.4663 0.9720
-4.5703 5.2185 -1.4663 0.9720
-4.7562 5.0496 -1.4663 0.9720
-5.4353 4.3102 -1.4663 0.9720
-5.5878 4.1106 -1.4663 0.9720
-5.7329 3.9056 -1.4663 0.9720
-6.2866 3.3484 -1.5056 0.9713
-6.6942 3.2600 -1.5739 0.9700
-1.6881 0.4058 -0.3670 0.9929
-1.6845 0.3409 -0.3633 0.9930
-1.6850 0.2780 -0.3610 0.9930
-1.6835 0.2154 -0.3588 0.9931
-3.3900 5.2376 -1.4663 0.9747
-3.5774 5.1114 -1.4663 0.9747
-3.9379 4.8392 -1.4663 0.9747
-4.1105 4.6935 -1.4663 0.9747
-4.2777 4.5416 -1.4663 0.9747
-4.5951 4.2201 -1.4663 0.9747
-4.8885 3.8766 -1.4663 0.9747
-5.2174 3.5544 -1.4837 0.9744
-5.5320 3.4823 -1.5363 0.9735
-5.8748 3.4076 -1.5962 0.9725
-6.0594 3.2273 -1.6135 0.9722
-6.1845 3.0118 -1.6167 0.9721
-1.6347 0.7241 -0.4202 0.9927
-1.6295 0.5847 -0.4069 0.9929
-1.6167 0.2667 -0.3851 0.9933
-1.6153 0.2067 -0.3827 0.9933
-1.6131 0.1473 -0.3807 0.9934
-1.6100 0.0884 -0.3790 0.9934
-3.0771 4.7542 -1.4663 0.9769
-3.2472 4.6397 -1.4663 0.9769
-3.4131 4.5191 -1.4663 0.9769
-3.7311 4.2603 -1.4663 0.9769
-3.8829 4.1224 -1.4663 0.9769
-4.1710 3.8306 -1.4663 0.9769
-4.3802 3.7396 -1.4912 0.9765
-4.6347 3.6753 -1.5315 0.9759
-4.9031 3.6069 -1.5760 0.9752
-5.1447 3.5049 -1.6118 0.9746
-5.2765 3.3215 -1.6143 0.9746
-5.4025 3.1336 -1.6171 0.9745
-5.6208 2.7373 -1.6187 0.9745
-1.5672 0.6274 -0.4371 0.9930
-1.5628 0.5608 -0.4299 0.9932
-1.5547 0.4338 -0.4179 0.9934
-1.5517 0.1986 -0.4050 0.9936
-2.6550 4.4472 -1.4663 0.9787
-2.8143 4.3482 -1.4663 0.9787
-2.9699 4.2435 -1.4663 0.9787
-3.1216 4.1332 -1.4663 0.9787
-3.2725 4.0216 -1.4678 0.9787
-3.6751 3.9018 -1.5174 0.9780
-3.8889 3.8401 -1.5472 0.9775
-4.4662 3.5417 -1.6137 0.9766
-4.5977 3.3822 -1.6158 0.9766
-4.7237 3.2181 -1.6181 0.9765
-1.6401 0.9513 -0.5368 0.9921
-5.0467 2.6880 -1.6187 0.9765
-1.5087 0.6039 -0.4601 0.9933
-1.5014 0.4782 -0.4461 0.9935
-1.4966 0.4176 -0.4399 0.9936
-1.4944 0.3592 -0.4351 0.9936
-1.4922 0.1363 -0.4242 0.9938
-1.4898 0.0818 -0.4224 0.9938
-2.5128 4.2090 -1.5078 0.9797
-3.0614 4.0535 -1.5624 0.9790
-3.2540 3.9987 -1.5857 0.9787
-3.5946 3.8163 -1.6125 0.9783
-3.7339 3.6871 -1.6141 0.9783
-3.8689 3.5531 -1.6157 0.9783
-4.1235 3.2700 -1.6187 0.9782
-1.5567 0.9030 -0.5536 0.9925
-1.4538 0.5819 -0.4817 0.9935
-1.4483 0.4613 -0.4675 0.9937
-1.4457 0.2926 -0.4537 0.9938
-1.4418 0.0792 -0.4441 0.9940
-2.4853 4.1629 -1.6116 0.9798
-2.9270 3.8756 -1.6144 0.9797
-3.0676 3.7697 -1.6155 0.9797
-3.3376 3.5435 -1.6181 0.9797
-3.5866 3.2939 -1.6187 0.9797
-3.9226 2.8856 -1.6187 0.9797
-1.4025 0.6830 -0.5185 0.9934
-1.4027 0.6213 -0.5100 0.9936
-1.4005 0.5026 -0.4946 0.9937
-1.3959 0.3895 -0.4818 0.9939
-1.3978 0.3360 -0.4779 0.9940
-1.3990 0.2832 -0.4745 0.9940
-1.3960 0.0766 -0.4648 0.9941
-1.3879 0.0259 -0.4614 0.9942
-2.3179 3.8824 -1.6170 0.9810
-2.4580 3.7976 -1.6177 0.9810
-2.5953 3.7081 -1.6186 0.9810
-2.7280 3.6120 -1.6187 0.9810
-3.1035 3.2950 -1.6187 0.9810
-3.2208 3.1804 -1.6187 0.9810
-3.3338 3.0617 -1.6187 0.9810
-1.3530 0.5993 -0.5292 0.9937
-1.3516 0.4305 -0.5073 0.9940
-1.3546 0.2742 -0.4942 0.9941
-1.3553 0.2236 -0.4912 0.9942
-1.3543 0.1237 -0.4863 0.9942
-1.3488 0.0740 -0.4831 0.9943
-1.3412 0.0250 -0.4797 0.9943
-2.2951 3.5460 -1.6187 0.9821
-2.4220 3.4606 -1.6187 0.9821
-3.1110 2.8571 -1.6187 0.9821
-3.2124 2.7426 -1.6187 0.9821
-3.3096 2.6245 -1.6187 0.9821
-3.4025 2.5030 -1.6187 0.9821
-1.3016 0.6932 -0.5651 0.9937
-1.3122 0.2656 -0.5131 0.9943
-1.3133 0.1680 -0.5074 0.9943
-1.3103 0.1196 -0.5042 0.9944
-1.2970 0.0242 -0.4971 0.9945
-2.1490 3.3202 -1.6187 0.9831
-2.2678 3.2402 -1.6187 0.9831
-2.4963 3.0676 -1.6187 0.9831
-2.8142 2.7789 -1.6187 0.9831
-3.0989 2.4574 -1.6187 0.9831
-3.2686 2.2267 -1.6187 0.9831
-3.3471 2.1069 -1.6187 0.9831
-1.2514 0.7259 -0.5921 0.9938
-1.2637 0.5058 -0.5571 0.9941
-1.2645 0.4538 -0.5499 0.9942
-1.2645 0.4027 -0.5431 0.9943
-1.2698 0.3052 -0.5345 0.9944
-1.2718 0.2574 -0.5311 0.9944
-1.2729 0.2100 -0.5280 0.9944
-1.2613 0.0692 -0.5170 0.9946
-1.9039 3.1890 -1.6187 0.9839
-2.2384 2.9638 -1.6187 0.9839
-2.4470 2.7941 -1.6187 0.9839
-2.7355 2.5123 -1.6187 0.9839
-2.9102 2.3078 -1.6187 0.9839
-3.0695 2.0911 -1.6187 0.9839
-1.2014 0.7563 -0.6187 0.9938
-1.2074 0.7003 -0.6083 0.9939
-1.2167 0.5925 -0.5898 0.9941
-1.2221 0.4892 -0.5737 0.9943
-1.2279 0.3426 -0.5556 0.9945
-1.2309 0.2959 -0.5517 0.9945
-1.2330 0.2496 -0.5483 0.9945
-1.2341 0.2036 -0.5451 0.9946
-1.2259 0.1119 -0.5365 0.9946
-1.2207 0.0670 -0.5328 0.9947
-1.2146 0.0226 -0.5294 0.9947
-1.7925 3.0025 -1.6187 0.9847
-2.1075 2.7905 -1.6187 0.9847
-2.3976 2.5455 -1.6187 0.9847
-2.4882 2.4571 -1.6187 0.9847
-2.5756 2.3654 -1.6187 0.9847
-2.7400 2.1728 -1.6187 0.9847
-2.8168 2.0722 -1.6187 0.9847
-1.1591 0.7296 -0.6340 0.9940
-1.1715 0.6240 -0.6144 0.9942
-1.1762 0.5728 -0.6056 0.9943
-1.1825 0.4734 -0.5896 0.9944
-1.1936 0.2869 -0.5682 0.9946
-1.1959 0.2420 -0.5648 0.9946
-1.1939 0.1969 -0.5601 0.9947
-1.1866 0.1083 -0.5516 0.9948
-1.1818 0.0649 -0.5479 0.9948
-1.1762 0.0219 -0.5445 0.9948
-1.6915 2.8333 -1.6187 0.9854
-1.8921 2.7035 -1.6187 0.9854
-1.9888 2.6333 -1.6187 0.9854
-2.1741 2.4824 -1.6187 0.9854
-2.4305 2.2321 -1.6187 0.9854
-2.5856 2.0504 -1.6187 0.9854
-1.1556 0.8501 -0.7037 0.9936
-1.1193 0.7046 -0.6488 0.9941
-1.1375 0.5540 -0.6206 0.9944
-1.1416 0.5057 -0.6125 0.9945
-1.1447 0.4582 -0.6048 0.9945
-1.1503 0.3664 -0.5922 0.9946
-1.1446 0.0628 -0.5623 0.9949
-1.1393 0.0212 -0.5590 0.9949
-1.5994 2.6790 -1.6187 0.9860
-1.7891 2.5563 -1.6187 0.9860
-1.9694 2.4201 -1.6187 0.9860
-2.2981 2.1105 -1.6187 0.9860
-2.3730 2.0259 -1.6187 0.9860
-1.0666 0.8458 -0.7062 0.9939
-1.0441 0.7681 -0.6724 0.9942
-1.0648 0.7254 -0.6684 0.9942
-1.0813 0.6806 -0.6628 0.9943
-1.0952 0.5833 -0.6437 0.9944
-1.1006 0.5360 -0.6351 0.9945
-1.1084 0.4437 -0.6194 0.9946
-1.1109 0.3986 -0.6123 0.9947
-1.1156 0.3553 -0.6074 0.9947
-1.1199 0.3125 -0.6032 0.9948
-1.1129 0.1016 -0.5798 0.9950
-1.1089 0.0609 -0.5761 0.9950
-1.6058 2.4810 -1.6187 0.9866
-1.6946 2.4213 -1.6187 0.9866
-1.7811 2.3583 -1.6187 0.9866
-1.8654 2.2923 -1.6187 0.9866
-2.0263 2.1513 -1.6187 0.9866
-2.1767 1.9991 -1.6187 0.9866
-1.0019 0.8554 -0.7215 0.9940
-1.0152 0.6916 -0.6728 0.9944
-1.0338 0.6508 -0.6691 0.9944
-1.0511 0.6097 -0.6655 0.9945
-1.0594 0.5643 -0.6574 0.9945
-1.0651 0.5187 -0.6489 0.9946
-1.0698 0.4738 -0.6408 0.9947
-1.0735 0.4297 -0.6333 0.9947
-1.0769 0.3865 -0.6267 0.9948
-1.0822 0.3447 -0.6221 0.9948
-1.0852 0.2609 -0.6113 0.9949
-1.0834 0.1787 -0.6014 0.9950
-1.0813 0.1384 -0.5971 0.9950
-1.0701 0.0199 -0.5862 0.9951
-1.5233 2.3536 -1.6187 0.9871
-1.6076 2.2969 -1.6187 0.9871
-1.6897 2.2372 -1.6187 0.9871
-1.7696 2.1746 -1.6187 0.9871
-1.8471 2.1091 -1.6187 0.9871
-1.9223 2.0408 -1.6187 0.9871
-0.9288 0.7365 -0.6844 0.9945
-0.9689 0.6600 -0.6769 0.9946
-1.0191 0.5428 -0.6666 0.9947
-1.0311 0.5021 -0.6621 0.9947
-1.0446 0.3749 -0.6408 0.9949
-1.0500 0.2930 -0.6294 0.9950
-1.0507 0.2525 -0.6239 0.9950
-1.0476 0.1340 -0.6098 0.9951
-1.0450 0.0954 -0.6058 0.9952
-1.0416 0.0572 -0.6023 0.9952
