ply
format ascii 1.0
element vertex 415
property float32 x
property float32 y
property float32 z
property float32 I
end_header
-14.7701 11.2957 3.2787 0.9273
-15.3748 10.0792 3.2416 0.9280
-15.7400 8.7563 3.1760 0.9295
-17.3249 8.8304 3.4288 0.9241
-29.1922 12.2999 5.5856 0.8793
-14.9657 11.4452 2.8863 0.9266
-15.3748 10.0792 2.8163 0.9283
-15.7400 8.7563 2.7593 0.9297
-17.3249 8.8304 2.9789 0.9243
-21.0986 9.8061 3.5642 0.9101
-29.3519 12.3672 4.8794 0.8791
-10.6273 4.0301 1.7412 0.9550
-38.7965 -10.0996 6.1415 0.8502
-12.4695 9.5362 2.0442 0.9386
-16.1280 9.7550 2.4545 0.9268
-13.1255 7.3019 1.9559 0.9412
-17.3249 8.8304 2.5322 0.9246
-29.3519 12.3672 4.1477 0.8794
-10.6250 4.0292 1.4797 0.9552
-14.9918 11.4651 2.0266 0.9269
-15.3747 10.0792 1.9741 0.9287
-16.0903 9.7322 2.0193 0.9271
-13.1255 7.3019 1.6129 0.9414
-22.2720 10.3514 2.6373 0.9059
-27.8595 11.7384 3.2463 0.8855
-10.6226 4.0283 1.2199 0.9553
-15.1858 10.7630 1.5757 0.9280
-13.1255 7.3018 1.2715 0.9415
-15.7372 8.0211 1.4953 0.9315
-27.8596 11.7384 2.5592 0.8857
-10.6203 4.0274 0.9615 0.9554
-15.3747 10.0792 1.1400 0.9290
-12.7385 7.7049 0.9232 0.9421
-15.7371 8.0211 1.0953 0.9317
-25.3323 10.6736 1.7046 0.8957
-12.3426 9.4392 0.6127 0.9397
-12.5039 8.8622 0.6043 0.9405
-12.6610 8.3001 0.5969 0.9412
-12.7385 7.7049 0.5870 0.9421
-14.6501 7.4671 0.6484 0.9363
-25.3323 10.6736 1.0839 0.8958
-12.3426 9.4392 0.2625 0.9397
-12.5039 8.8622 0.2589 0.9405
-12.8914 7.1716 0.2492 0.9427
-14.6501 7.4671 0.2778 0.9363
-23.5607 9.9271 0.4319 0.9028
-10.6145 4.0252 0.1918 0.9556
-12.3426 9.4392 -0.0875 0.9397
-12.6610 8.3001 -0.0852 0.9412
-12.8914 7.1716 -0.0831 0.9427
-18.1378 8.4300 -0.1126 0.9231
-23.5606 9.9271 -0.1439 0.9028
-10.6131 4.0247 -0.0639 0.9556
-42.6446 -16.2259 -0.2569 0.8332
-12.3426 9.4392 -0.4375 0.9397
-12.5039 8.8622 -0.4315 0.9405
-12.6610 8.3001 -0.4263 0.9412
-12.8914 7.1716 -0.4154 0.9427
-14.6501 7.4671 -0.4630 0.9363
-23.5606 9.9271 -0.7199 0.9028
-10.6117 4.0242 -0.3196 0.9556
-39.1162 -11.7142 -1.1498 0.8493
-45.7074 -15.5168 -1.3592 0.8244
-42.8292 -16.2961 -1.2903 0.8325
-12.8914 7.1716 -0.7481 0.9426
-18.1378 8.4300 -1.0143 0.9230
-31.4018 5.7452 -1.6190 0.8800
-31.5897 4.6017 -1.6190 0.8800
-3.0960 0.3368 -0.1579 0.9876
-2.9767 0.2148 -0.1514 0.9881
-2.9347 -0.0016 -0.1488 0.9883
-3.1060 -0.3414 -0.1585 0.9876
-30.8930 -8.0422 -1.6189 0.8800
-30.2281 -10.2619 -1.6189 0.8800
-29.8356 -11.3522 -1.6189 0.8800
-29.4040 -12.4276 -1.6189 0.8800
-12.6610 8.3001 -1.1100 0.9411
-12.7385 7.7049 -1.0916 0.9420
-10.5470 3.9996 -0.8271 0.9558
-19.1659 5.7164 -1.4665 0.9229
-19.3607 5.0171 -1.4665 0.9229
-2.5225 0.5568 -0.1894 0.9897
-2.4312 0.3541 -0.1801 0.9902
-2.4060 0.0860 -0.1765 0.9904
-2.4017 -0.0013 -0.1761 0.9904
-2.4061 -0.0887 -0.1765 0.9904
-2.4323 -0.3571 -0.1803 0.9902
-2.5241 -0.5601 -0.1896 0.9897
-21.3666 -5.5622 -1.6189 0.9153
-20.3368 -8.5953 -1.6189 0.9153
-12.7385 7.7049 -1.4293 0.9419
-10.5197 3.9893 -1.0801 0.9558
-14.4692 4.8941 -1.4664 0.9405
-2.2355 0.5793 -0.2217 0.9908
-2.1562 0.3141 -0.2092 0.9913
-2.1569 0.2346 -0.2083 0.9913
-2.1559 0.1556 -0.2075 0.9914
-2.1538 0.0770 -0.2069 0.9914
-2.1569 -0.2370 -0.2083 0.9913
-16.1531 -4.8374 -1.6188 0.9345
-15.9669 -5.4205 -1.6188 0.9345
-15.5316 -6.5644 -1.6188 0.9345
-10.0717 7.1384 -1.4664 0.9515
-10.3241 6.7682 -1.4664 0.9515
-10.7879 6.0014 -1.4664 0.9515
-10.9986 5.6059 -1.4664 0.9515
-11.1948 5.2031 -1.4664 0.9515
-11.3763 4.7933 -1.4664 0.9515
-2.0701 0.6174 -0.2566 0.9913
-2.0366 0.4496 -0.2477 0.9916
-2.0116 0.2930 -0.2415 0.9918
-2.0088 0.2185 -0.2400 0.9919
-1.9957 -0.0011 -0.2371 0.9920
-2.0054 -0.1470 -0.2389 0.9919
-2.0116 -0.2953 -0.2415 0.9918
-2.0371 -0.4520 -0.2479 0.9916
-2.0706 -0.6201 -0.2568 0.9913
-12.9046 -4.3809 -1.6188 0.9466
-12.7370 -4.8463 -1.6188 0.9466
-12.5527 -5.3054 -1.6188 0.9466
-8.2208 6.2870 -1.4664 0.9591
-8.8554 5.3562 -1.4664 0.9591
-9.0440 5.0312 -1.4664 0.9591
-9.2207 4.6997 -1.4664 0.9591
-9.3852 4.3620 -1.4664 0.9591
-9.5373 4.0185 -1.4664 0.9591
-9.6769 3.6697 -1.4664 0.9591
-1.9475 0.5047 -0.2851 0.9919
-1.9343 0.4270 -0.2807 0.9920
-1.9227 0.3518 -0.2769 0.9921
-1.9174 0.2086 -0.2733 0.9922
-1.9146 0.1382 -0.2720 0.9923
-1.9104 -0.0704 -0.2709 0.9923
-1.9346 -0.4293 -0.2808 0.9920
-1.9480 -0.5071 -0.2852 0.9919
-1.9619 -0.5875 -0.2902 0.9918
-1.9756 -0.6707 -0.2956 0.9916
-7.0705 5.4072 -1.4664 0.9646
-7.2621 5.1471 -1.4664 0.9646
-7.6164 4.6067 -1.4664 0.9646
-7.7785 4.3273 -1.4664 0.9646
-8.2028 3.4562 -1.4664 0.9646
-8.3228 3.1562 -1.4664 0.9646
-1.8533 0.4803 -0.3154 0.9923
-1.8439 0.4070 -0.3111 0.9924
-1.8255 0.0653 -0.3009 0.9926
-1.8335 -0.2015 -0.3039 0.9926
-1.8359 -0.3380 -0.3075 0.9925
-1.8635 -0.5581 -0.3205 0.9921
-9.1839 -3.4944 -1.6188 0.9609
-6.1969 4.7392 -1.4664 0.9687
-6.5244 4.2772 -1.4664 0.9687
-6.6754 4.0376 -1.4664 0.9687
-6.8175 3.7926 -1.4664 0.9687
-7.0747 3.2881 -1.4664 0.9687
-1.7827 0.6030 -0.3537 0.9924
-1.7760 0.5297 -0.3484 0.9925
-1.7689 0.4584 -0.3435 0.9926
-1.7610 0.3887 -0.3390 0.9927
-1.7575 0.3215 -0.3358 0.9928
-1.7571 0.2560 -0.3338 0.9928
-1.7555 0.1910 -0.3319 0.9928
-1.7425 -0.0010 -0.3275 0.9929
-1.7476 -0.0645 -0.3287 0.9929
-1.7556 -0.1929 -0.3320 0.9928
-1.7571 -0.2580 -0.3338 0.9928
-1.7574 -0.3236 -0.3359 0.9928
-1.7613 -0.3908 -0.3391 0.9927
-1.7763 -0.5320 -0.3485 0.9925
-1.7830 -0.6053 -0.3539 0.9924
-7.9328 -3.3528 -1.6188 0.9656
-6.4851 3.3054 -1.5386 0.9707
-1.6847 0.3719 -0.3647 0.9930
-1.6846 0.2454 -0.3598 0.9931
-1.6707 -0.0009 -0.3531 0.9932
-1.6793 -0.1231 -0.3559 0.9931
-1.6823 -0.1849 -0.3578 0.9931
-1.6846 -0.2473 -0.3599 0.9931
-1.6972 -0.5083 -0.3745 0.9928
-1.7065 -0.6493 -0.3859 0.9926
-1.7116 -0.7234 -0.3928 0.9924
-4.9560 3.7902 -1.4664 0.9747
-5.0903 3.6078 -1.4664 0.9747
-5.3668 3.5183 -1.5082 0.9740
-5.9936 3.3343 -1.6119 0.9722
-6.2445 2.9023 -1.6184 0.9721
-1.6329 0.6880 -0.4165 0.9927
-1.6308 0.6184 -0.4099 0.9929
-1.6278 0.5506 -0.4039 0.9930
-1.6194 0.4196 -0.3932 0.9931
-1.6161 0.3567 -0.3890 0.9932
-1.6171 0.2958 -0.3864 0.9933
-1.6143 0.1756 -0.3816 0.9934
-1.6116 0.1163 -0.3797 0.9934
-1.6081 0.0575 -0.3782 0.9934
-1.6040 -0.0009 -0.3770 0.9934
-1.6117 -0.1181 -0.3798 0.9934
-1.6161 -0.2372 -0.3839 0.9933
-1.6171 -0.2977 -0.3864 0.9933
-1.6160 -0.3586 -0.3890 0.9932
-4.7631 3.6427 -1.5526 0.9755
-5.0398 3.5720 -1.5994 0.9748
-5.3395 3.2296 -1.6157 0.9745
-1.5725 0.7309 -0.4490 0.9929
-1.5651 0.5935 -0.4334 0.9931
-1.5528 0.4024 -0.4153 0.9934
-1.5525 0.3427 -0.4116 0.9935
-1.5509 0.1687 -0.4039 0.9936
-1.5486 0.1118 -0.4020 0.9936
-1.5417 -0.0009 -0.3992 0.9936
-1.5456 -0.0570 -0.4005 0.9936
-1.5487 -0.1135 -0.4021 0.9936
-1.5509 -0.1704 -0.4040 0.9936
-1.5523 -0.2279 -0.4062 0.9935
-1.5528 -0.2859 -0.4088 0.9935
-1.5525 -0.3445 -0.4117 0.9935
-1.5529 -0.4042 -0.4155 0.9934
-1.5605 -0.5298 -0.4267 0.9932
-1.5693 -0.6633 -0.4411 0.9930
-4.6600 3.3028 -1.6169 0.9765
-4.7821 3.1350 -1.6187 0.9765
-1.6605 1.0043 -0.5494 0.9920
-1.6173 0.8997 -0.5239 0.9923
-5.0945 2.5966 -1.6188 0.9765
-1.5102 0.6363 -0.4639 0.9932
-1.5072 0.5716 -0.4563 0.9933
-1.4990 0.4471 -0.4428 0.9935
-1.4941 0.3872 -0.4369 0.9936
-1.4950 0.2735 -0.4303 0.9937
-1.4945 0.2177 -0.4275 0.9937
-1.4911 0.1076 -0.4232 0.9938
-1.4842 -0.0008 -0.4202 0.9938
-1.4884 -0.0549 -0.4216 0.9938
-1.4932 -0.1641 -0.4253 0.9938
-1.4992 -0.4490 -0.4430 0.9935
-1.5036 -0.5104 -0.4495 0.9934
-4.1805 3.1971 -1.6187 0.9782
-4.4014 2.8854 -1.6187 0.9782
-1.4500 0.4904 -0.4708 0.9936
-1.4454 0.3191 -0.4553 0.9938
-1.4460 0.2646 -0.4521 0.9939
-1.4447 0.1571 -0.4470 0.9939
-1.4325 -0.0008 -0.4406 0.9940
-1.4405 -0.0531 -0.4434 0.9940
-1.4430 -0.1057 -0.4450 0.9940
-1.4454 -0.3207 -0.4554 0.9938
-1.4440 -0.3759 -0.4589 0.9938
-1.4467 -0.4332 -0.4645 0.9937
-1.4548 -0.6149 -0.4858 0.9934
-3.8682 2.9583 -1.6187 0.9797
-3.9731 2.8160 -1.6187 0.9797
-4.0726 2.6699 -1.6187 0.9797
-1.4021 0.7146 -0.5231 0.9934
-1.4027 0.6519 -0.5142 0.9935
-1.4025 0.5909 -0.5059 0.9936
-1.4014 0.5314 -0.4982 0.9937
-1.3985 0.3087 -0.4761 0.9940
-1.3994 0.2560 -0.4729 0.9940
-1.3994 0.2038 -0.4701 0.9941
-1.3987 0.1521 -0.4677 0.9941
-1.3971 0.1008 -0.4656 0.9941
-1.3919 0.0498 -0.4630 0.9941
-1.3836 -0.0008 -0.4599 0.9942
-1.3921 -0.0513 -0.4631 0.9941
-1.3972 -0.1024 -0.4657 0.9941
-1.3994 -0.2055 -0.4702 0.9941
-1.3994 -0.2576 -0.4730 0.9940
-1.3985 -0.3103 -0.4762 0.9940
-1.3974 -0.4185 -0.4849 0.9939
-1.3997 -0.4752 -0.4913 0.9938
-3.5956 2.7498 -1.6187 0.9810
-3.6931 2.6175 -1.6187 0.9810
-1.3512 0.6887 -0.5423 0.9936
-1.3532 0.5701 -0.5251 0.9938
-1.3530 0.5131 -0.5175 0.9939
-1.3523 0.4574 -0.5105 0.9940
-1.3507 0.4029 -0.5040 0.9940
-1.3521 0.3504 -0.4995 0.9941
-1.3551 0.2479 -0.4926 0.9942
-1.3554 0.1974 -0.4898 0.9942
-1.3449 0.0481 -0.4813 0.9943
-1.3372 -0.0008 -0.4782 0.9943
-1.3549 -0.1489 -0.4874 0.9942
-1.3554 -0.1990 -0.4899 0.9942
-1.3523 -0.4591 -0.5107 0.9940
-1.3531 -0.5148 -0.5177 0.9939
-1.3532 -0.5719 -0.5254 0.9938
-3.3553 2.5660 -1.6187 0.9821
-3.4462 2.4426 -1.6187 0.9821
-3.5326 2.3159 -1.6187 0.9821
-1.3031 0.6642 -0.5605 0.9938
-1.3053 0.6067 -0.5516 0.9939
-1.3068 0.5506 -0.5434 0.9939
-1.3075 0.4958 -0.5359 0.9940
-1.3074 0.4422 -0.5289 0.9941
-1.3115 0.2895 -0.5147 0.9943
-1.3134 0.1913 -0.5086 0.9943
-1.3071 0.0943 -0.5022 0.9944
-1.3004 0.0465 -0.4987 0.9944
-1.3073 -0.0958 -0.5023 0.9944
-1.3131 -0.1443 -0.5062 0.9944
-1.3114 -0.2910 -0.5148 0.9943
-3.1417 2.4027 -1.6187 0.9831
-3.2268 2.2871 -1.6187 0.9831
-3.3077 2.1684 -1.6187 0.9831
-1.2537 0.6975 -0.5872 0.9938
-1.2607 0.5859 -0.5690 0.9940
-1.2642 0.4794 -0.5534 0.9942
-1.2646 0.4278 -0.5464 0.9942
-1.2653 0.3774 -0.5404 0.9943
-1.2709 0.2806 -0.5327 0.9944
-1.2725 0.2328 -0.5294 0.9944
-1.2732 0.1855 -0.5266 0.9945
-1.2695 0.1381 -0.5227 0.9945
-1.2697 -0.1395 -0.5228 0.9945
-1.2725 -0.2343 -0.5295 0.9944
-1.2646 -0.4293 -0.5466 0.9942
-1.2629 -0.5337 -0.5611 0.9941
-3.0303 2.1478 -1.6187 0.9839
-1.3205 0.8657 -0.6881 0.9931
-1.2045 0.7286 -0.6135 0.9939
-1.2100 0.6731 -0.6034 0.9940
-1.2147 0.6191 -0.5942 0.9941
-1.2184 0.5663 -0.5856 0.9942
-1.2212 0.5145 -0.5775 0.9942
-1.2296 0.3186 -0.5536 0.9945
-1.2323 0.1795 -0.5427 0.9946
-1.2176 0.0435 -0.5310 0.9947
-1.2178 -0.0449 -0.5311 0.9947
-1.2234 -0.0897 -0.5346 0.9947
-1.2283 -0.1350 -0.5385 0.9946
-1.2324 -0.1809 -0.5429 0.9946
-1.2338 -0.2271 -0.5468 0.9945
-1.2295 -0.3201 -0.5537 0.9945
-1.2238 -0.4155 -0.5633 0.9944
-2.7778 2.1244 -1.6187 0.9847
-1.1554 0.7574 -0.6395 0.9939
-1.1740 0.5984 -0.6099 0.9942
-1.1782 0.5476 -0.6014 0.9943
-1.1813 0.4977 -0.5934 0.9944
-1.1836 0.4488 -0.5859 0.9944
-1.1849 0.4008 -0.5790 0.9945
-1.1886 0.3545 -0.5741 0.9945
-1.1952 0.2187 -0.5624 0.9947
-1.1924 0.1737 -0.5577 0.9947
-1.1887 0.1293 -0.5535 0.9947
-1.1843 -0.0868 -0.5497 0.9948
-1.1925 -0.1751 -0.5579 0.9947
-1.1953 -0.2201 -0.5626 0.9947
-1.1921 -0.3103 -0.5702 0.9946
-1.1885 -0.3559 -0.5743 0.9945
-1.1835 -0.4503 -0.5861 0.9944
-1.1170 0.7917 -0.6716 0.9939
-1.1152 0.7311 -0.6541 0.9941
-1.1229 0.6792 -0.6438 0.9942
-1.1351 0.5786 -0.6250 0.9943
-1.1397 0.5297 -0.6165 0.9944
-1.1433 0.4817 -0.6085 0.9945
-1.1459 0.4345 -0.6011 0.9946
-1.1479 0.3883 -0.5944 0.9946
-1.1566 0.2116 -0.5768 0.9948
-1.1542 0.1681 -0.5721 0.9948
-1.1509 0.1252 -0.5679 0.9949
-1.1468 0.0828 -0.5640 0.9949
-1.1419 0.0408 -0.5605 0.9949
-1.1365 -0.0006 -0.5575 0.9949
-1.1469 -0.0841 -0.5641 0.9949
-1.1510 -0.1265 -0.5680 0.9949
-1.1567 -0.2129 -0.5769 0.9948
-1.1458 -0.4360 -0.6014 0.9946
-1.0921 0.6075 -0.6483 0.9944
-1.1029 0.5126 -0.6309 0.9945
-1.1068 0.4663 -0.6231 0.9946
-1.1179 0.3334 -0.6052 0.9948
-1.1213 0.2906 -0.6009 0.9948
-1.1176 0.1628 -0.5859 0.9949
-1.1147 0.1212 -0.5817 0.9950
-1.1013 -0.0006 -0.5713 0.9950
-1.1110 -0.0814 -0.5779 0.9950
-1.1147 -0.1225 -0.5818 0.9950
-1.1197 -0.2061 -0.5906 0.9949
-1.1209 -0.2487 -0.5957 0.9948
-1.1213 -0.2919 -0.6011 0.9948
-1.1178 -0.3348 -0.6053 0.9948
-1.1130 -0.3779 -0.6098 0.9947
-0.9843 0.7527 -0.6787 0.9944
-1.0425 0.6306 -0.6673 0.9945
-1.0624 0.5415 -0.6531 0.9946
-1.0797 0.3652 -0.6243 0.9948
-1.0851 0.2812 -0.6140 0.9949
-1.0851 0.2395 -0.6086 0.9949
-1.0842 0.1984 -0.6037 0.9950
-1.0824 0.1577 -0.5991 0.9950
-1.0675 -0.0006 -0.5847 0.9951
-1.0825 -0.1589 -0.5992 0.9950
-1.0842 -0.1996 -0.6038 0.9950
-0.9591 0.6798 -0.6787 0.9946
-0.9954 0.6020 -0.6716 0.9946
-1.0263 0.5231 -0.6650 0.9947
-1.0494 0.3130 -0.6322 0.9950
-1.0505 0.2722 -0.6265 0.9950
-1.0507 0.2319 -0.6212 0.9950
-1.0501 0.1921 -0.6163 0.9951
-1.0486 0.1528 -0.6118 0.9951
-1.0463 0.1138 -0.6077 0.9952
-1.0433 0.0753 -0.6039 0.9952
-1.0394 0.0372 -0.6005 0.9952
-1.0350 -0.0006 -0.5975 0.9952
-1.0396 -0.0383 -0.6006 0.9952
-1.0434 -0.0765 -0.6040 0.9952
-1.0487 -0.1540 -0.6119 0.9951
-1.0507 -0.2332 -0.6214 0.9950
-1.0504 -0.2735 -0.6267 0.9950
-1.0493 -0.3142 -0.6324 0.9950
-1.0473 -0.3555 -0.6385 0.9949
