ply
format ascii 1.0
element vertex 504
property float32 x
property float32 y
property float32 z
property float32 I
end_header
-39.2641 -18.1567 7.6277 0.8389
-37.8752 -19.2044 7.4879 0.8416
-34.9049 -19.3138 7.0340 0.8504
-34.2691 -20.6128 7.0515 0.8501
-20.4340 -38.5545 7.6940 0.8376
-18.8698 -38.9407 7.6300 0.8388
-15.8403 -39.7771 7.5495 0.8404
-15.0678 -42.2128 7.9032 0.8336
-10.3913 -43.5038 7.8867 0.8339
-8.4069 -41.8292 7.5231 0.8409
-5.4071 -42.6575 7.5819 0.8398
-3.8798 -43.0134 7.6152 0.8391
-0.7786 -43.9810 7.7562 0.8364
-37.9879 -19.2615 6.5249 0.8417
-36.2875 -21.8269 6.4872 0.8425
-34.4117 -22.4300 6.2927 0.8469
-34.8005 -24.5189 6.5216 0.8418
-20.4803 -38.6418 6.6997 0.8378
-18.8698 -38.9407 6.6290 0.8394
-15.8403 -39.7771 6.5590 0.8409
-11.9862 -43.2093 6.8694 0.8341
-10.3913 -43.5038 6.8520 0.8344
-6.9357 -42.3813 6.5789 0.8405
-5.4071 -42.6575 6.5872 0.8403
-0.7804 -44.0806 6.7540 0.8366
-37.5595 -17.3684 5.3886 0.8463
-34.5006 -20.7521 5.2428 0.8501
-36.9847 -26.0578 5.8915 0.8332
-20.4129 -38.5147 5.6763 0.8388
-18.8271 -38.8526 5.6221 0.8402
-17.2975 -39.2488 5.5853 0.8411
-15.7847 -39.6374 5.5558 0.8419
-14.2953 -40.0486 5.5374 0.8424
-12.8137 -40.4576 5.5263 0.8427
-8.3774 -41.6824 5.5365 0.8424
-6.8884 -42.0924 5.5542 0.8419
-5.3880 -42.5066 5.5795 0.8413
-3.8768 -42.9801 5.6196 0.8402
-2.3373 -43.3790 5.6570 0.8393
-0.7778 -43.9356 5.7222 0.8376
-35.5932 -23.2001 4.5623 0.8429
-35.6444 -25.1135 4.6821 0.8391
-22.0036 -38.1211 4.7265 0.8377
-12.9378 -24.4108 2.9667 0.8948
-12.1707 -25.1161 2.9970 0.8938
-14.3930 -40.3223 4.5974 0.8418
-12.8721 -40.6421 4.5779 0.8424
-9.8933 -41.4188 4.5727 0.8426
-8.4069 -41.8292 4.5815 0.8423
-2.3439 -43.5020 4.6781 0.8392
-17.3252 -39.3116 3.6367 0.8416
-15.8204 -39.7271 3.6199 0.8423
-11.3617 -40.9580 3.5981 0.8431
-9.8809 -41.3668 3.6003 0.8430
-6.9040 -42.1876 3.6188 0.8423
-3.8806 -43.0223 3.6567 0.8408
-2.3382 -43.3959 3.6789 0.8399
-0.7756 -43.8111 3.7093 0.8387
-22.0535 -38.2074 2.7356 0.8379
-20.4480 -38.5809 2.7077 0.8395
-18.8697 -38.9406 2.6833 0.8408
-17.3470 -39.3610 2.6673 0.8417
-15.8403 -39.7770 2.6550 0.8423
-14.3456 -40.1896 2.6462 0.8428
-11.3760 -41.0095 2.6390 0.8432
-9.8933 -41.4188 2.6406 0.8431
-8.4069 -41.8292 2.6457 0.8428
-6.9198 -42.2843 2.6569 0.8422
-5.4070 -42.6563 2.6663 0.8417
-3.8855 -43.0764 2.6820 0.8409
-2.3439 -43.5020 2.7015 0.8398
-20.4803 -38.6418 1.7245 0.8394
-18.8697 -38.9406 1.7062 0.8410
-17.3470 -39.3610 1.6961 0.8418
-12.7169 -40.1523 1.6608 0.8448
-11.3760 -41.0095 1.6781 0.8434
-9.8933 -41.4188 1.6791 0.8433
-6.9355 -42.3801 1.6933 0.8421
-3.8855 -43.0764 1.7054 0.8410
-2.3439 -43.5020 1.7178 0.8400
-22.0036 -38.1211 0.7435 0.8385
-18.8698 -38.9406 0.7309 0.8410
-17.3470 -39.3610 0.7266 0.8419
-12.0225 -37.9595 0.6726 0.8527
-11.3760 -41.0095 0.7189 0.8434
-9.8933 -41.4188 0.7193 0.8434
-3.8797 -43.0123 0.7295 0.8413
-2.3439 -43.5020 0.7359 0.8401
-35.7795 -18.1417 -0.2259 0.8517
-33.3812 -27.3287 -0.2429 0.8415
-34.2260 -30.1495 -0.2568 0.8332
-18.8697 -38.9406 -0.2436 0.8411
-17.3470 -39.3610 -0.2422 0.8419
-12.8032 -40.4248 -0.2387 0.8440
-9.8933 -41.4188 -0.2398 0.8434
-3.8797 -43.0123 -0.2431 0.8413
-0.7803 -44.0794 -0.2482 0.8383
-38.3423 -17.7304 -1.1895 0.8445
-34.0012 -18.8137 -1.0942 0.8560
-32.0787 -19.2953 -1.0541 0.8609
-33.3811 -27.3286 -1.2148 0.8414
-35.4475 -33.5757 -1.3748 0.8225
-7.4455 -14.0480 -0.4477 0.9384
-6.2404 -14.1597 -0.4357 0.9400
-8.1724 -25.8035 -0.7621 0.8973
-8.4069 -41.8292 -1.2014 0.8430
-2.1942 -13.4079 -0.3826 0.9471
-1.1950 -13.2478 -0.3745 0.9482
-2.3439 -43.5020 -1.2267 0.8400
-28.0768 -14.2361 -1.5965 0.8815
-26.4725 -14.6479 -1.5343 0.8859
-24.2247 -15.7900 -1.4665 0.8906
-21.6980 -19.1136 -1.4665 0.8906
-18.7190 -22.0387 -1.4664 0.8906
-17.9600 -22.7629 -1.4705 0.8904
-8.7561 -13.9782 -0.8365 0.9361
-8.0186 -13.8922 -0.8135 0.9378
-7.3340 -13.8376 -0.7942 0.9392
-6.6882 -13.8022 -0.7778 0.9404
-6.0785 -13.7925 -0.7644 0.9414
-8.1724 -25.8034 -1.3727 0.8973
-3.8631 -13.9261 -0.7329 0.9438
-3.2813 -13.7373 -0.7163 0.9450
-2.1677 -13.2459 -0.6807 0.9477
-1.6625 -13.1159 -0.6705 0.9484
-0.2538 -14.3371 -0.7272 0.9442
-18.4961 -12.0560 -1.6188 0.9153
-15.4609 -15.7423 -1.6178 0.9153
-13.7477 -16.1858 -1.5571 0.9184
-11.8524 -16.1921 -1.4713 0.9227
-9.5034 -14.0187 -1.2418 0.9343
-8.0175 -13.8903 -1.1760 0.9377
-7.3304 -13.8308 -1.1477 0.9391
-3.7676 -13.5818 -1.0335 0.9450
-3.2077 -13.4291 -1.0124 0.9461
-2.1555 -13.1716 -0.9786 0.9479
-1.6545 -13.0525 -0.9647 0.9486
-1.1607 -12.8683 -0.9474 0.9495
-0.2236 -12.6302 -0.9262 0.9506
-15.5503 -6.5199 -1.6188 0.9345
-15.3047 -7.0773 -1.6188 0.9345
-15.0390 -7.6254 -1.6188 0.9345
-14.7538 -8.1637 -1.6188 0.9345
-14.4492 -8.6912 -1.6188 0.9345
-14.1259 -9.2074 -1.6188 0.9345
-13.7840 -9.7116 -1.6188 0.9345
-13.4242 -10.2031 -1.6188 0.9345
-13.0469 -10.6813 -1.6188 0.9345
-12.6526 -11.1456 -1.6188 0.9345
-12.2417 -11.5953 -1.6188 0.9345
-11.3726 -12.4488 -1.6188 0.9345
-10.4442 -13.2372 -1.6188 0.9345
-9.9592 -13.6058 -1.6188 0.9345
-9.4612 -13.9566 -1.6188 0.9345
-8.9510 -14.2892 -1.6188 0.9345
-8.4290 -14.6031 -1.6188 0.9345
-6.6719 -13.7685 -1.4689 0.9404
-6.7967 -15.4220 -1.6180 0.9345
-5.6004 -15.6898 -1.5994 0.9352
-4.9400 -15.5974 -1.5707 0.9364
-1.6605 -13.1004 -1.2678 0.9483
-1.1649 -12.9143 -1.2449 0.9492
-0.2244 -12.6788 -1.2174 0.9503
-12.5679 -5.2694 -1.6188 0.9466
-10.5446 -8.6328 -1.6188 0.9466
-10.2259 -9.0080 -1.6188 0.9466
-9.8939 -9.3714 -1.6188 0.9466
-9.1915 -10.0612 -1.6188 0.9466
-8.8221 -10.3866 -1.6188 0.9466
-8.4411 -10.6985 -1.6188 0.9466
-7.2343 -11.5487 -1.6188 0.9466
-5.9425 -12.2634 -1.6187 0.9466
-5.4957 -12.4700 -1.6187 0.9466
-5.0417 -12.6604 -1.6187 0.9466
-4.5811 -12.8342 -1.6187 0.9466
-3.6426 -13.1314 -1.6187 0.9466
-2.2008 -13.4483 -1.6187 0.9466
-1.7136 -13.5189 -1.6187 0.9466
-1.2242 -13.5720 -1.6187 0.9466
-10.1898 -5.1667 -1.6188 0.9549
-9.5711 -6.2386 -1.6188 0.9549
-9.3395 -6.5802 -1.6188 0.9549
-9.0958 -6.9132 -1.6188 0.9549
-8.2945 -7.8565 -1.6188 0.9549
-8.0053 -8.1510 -1.6188 0.9549
-7.3960 -8.7076 -1.6188 0.9549
-6.4106 -9.4565 -1.6187 0.9549
-5.7112 -9.8946 -1.6187 0.9549
-5.3500 -10.0944 -1.6187 0.9549
-4.9820 -10.2811 -1.6187 0.9549
-4.2267 -10.6139 -1.6187 0.9549
-3.4495 -10.8913 -1.6187 0.9549
-3.0538 -11.0087 -1.6187 0.9549
-2.6542 -11.1118 -1.6187 0.9549
-2.2511 -11.2004 -1.6187 0.9549
-1.8451 -11.2744 -1.6187 0.9549
-1.4366 -11.3337 -1.6187 0.9549
-0.6146 -11.4078 -1.6187 0.9549
-8.7641 -4.4438 -1.6188 0.9609
-8.4204 -5.0648 -1.6188 0.9609
-8.2319 -5.3656 -1.6188 0.9609
-8.0327 -5.6595 -1.6188 0.9609
-7.3734 -6.4952 -1.6188 0.9609
-7.1339 -6.7573 -1.6188 0.9609
-6.8852 -7.0105 -1.6188 0.9609
-6.3611 -7.4893 -1.6188 0.9609
-5.5137 -8.1334 -1.6187 0.9609
-4.6015 -8.6820 -1.6187 0.9609
-3.9627 -8.9915 -1.6187 0.9609
-3.3032 -9.2541 -1.6187 0.9609
-2.6265 -9.4684 -1.6187 0.9609
-0.8827 -9.7861 -1.6187 0.9609
-7.2149 -4.7027 -1.6188 0.9656
-7.0403 -4.9603 -1.6188 0.9656
-6.8565 -5.2113 -1.6188 0.9656
-6.6638 -5.4556 -1.6188 0.9656
-6.4624 -5.6927 -1.6188 0.9656
-6.2525 -5.9224 -1.6188 0.9656
-5.8087 -6.3583 -1.6187 0.9656
-5.5752 -6.5640 -1.6187 0.9656
-5.3345 -6.7610 -1.6187 0.9656
-4.8325 -7.1285 -1.6187 0.9656
-3.7555 -7.7501 -1.6187 0.9656
-3.4731 -7.8806 -1.6187 0.9656
-2.6003 -8.2101 -1.6187 0.9656
-2.3020 -8.2986 -1.6187 0.9656
-1.3908 -8.4989 -1.6187 0.9656
-1.0829 -8.5436 -1.6187 0.9656
-0.4633 -8.5995 -1.6187 0.9656
-0.1524 -8.6106 -1.6187 0.9656
-6.7007 -3.7076 -1.6188 0.9692
-6.5624 -3.9473 -1.6188 0.9692
-6.2603 -4.4107 -1.6188 0.9692
-5.9255 -4.8511 -1.6187 0.9692
-5.7464 -5.0620 -1.6187 0.9692
-4.9575 -5.8367 -1.6187 0.9692
-4.7435 -6.0120 -1.6187 0.9692
-4.5232 -6.1794 -1.6187 0.9692
-4.0653 -6.4898 -1.6187 0.9692
-3.8282 -6.6324 -1.6187 0.9692
-3.5862 -6.7663 -1.6187 0.9692
-3.3394 -6.8914 -1.6187 0.9692
-3.0883 -7.0075 -1.6187 0.9692
-1.7791 -7.4483 -1.6187 0.9692
-1.5089 -7.5077 -1.6187 0.9692
-1.2367 -7.5573 -1.6187 0.9692
-0.1356 -7.6566 -1.6187 0.9692
-6.0266 -3.3346 -1.6188 0.9721
-5.9022 -3.5502 -1.6188 0.9721
-5.6305 -3.9670 -1.6187 0.9721
-5.3294 -4.3631 -1.6187 0.9721
-4.8262 -4.9140 -1.6187 0.9721
-3.8648 -5.7010 -1.6187 0.9721
-3.6563 -5.8369 -1.6187 0.9721
-3.4431 -5.9651 -1.6187 0.9721
-3.2254 -6.0856 -1.6187 0.9721
-2.5482 -6.3988 -1.6187 0.9721
-2.3154 -6.4866 -1.6187 0.9721
-2.0796 -6.5660 -1.6187 0.9721
-1.6001 -6.6990 -1.6187 0.9721
-1.1123 -6.7970 -1.6187 0.9721
-1.5690 -0.6579 -0.4405 0.9930
-1.5724 -0.7271 -0.4485 0.9929
-5.4704 -3.0269 -1.6187 0.9745
-5.3575 -3.2225 -1.6187 0.9745
-5.2376 -3.4139 -1.6187 0.9745
-5.1108 -3.6009 -1.6187 0.9745
-4.8375 -3.9604 -1.6187 0.9745
-4.6913 -4.1326 -1.6187 0.9745
-4.5390 -4.2993 -1.6187 0.9745
-3.8725 -4.9081 -1.6187 0.9745
-3.5081 -5.1749 -1.6187 0.9745
-2.9277 -5.5240 -1.6187 0.9745
-2.7263 -5.6261 -1.6187 0.9745
-2.1017 -5.8880 -1.6187 0.9745
-1.6711 -6.0244 -1.6187 0.9745
-1.2319 -6.1293 -1.6187 0.9745
-0.7862 -6.2022 -1.6187 0.9745
-0.5616 -6.2265 -1.6187 0.9745
-0.3363 -6.2428 -1.6187 0.9745
-0.1106 -6.2508 -1.6187 0.9745
-1.5100 -0.6331 -0.4635 0.9932
-1.5122 -0.6993 -0.4717 0.9931
-5.0999 -2.5859 -1.6187 0.9765
-1.6252 -0.8993 -0.5258 0.9923
-1.6578 -0.9972 -0.5477 0.9920
-4.7903 -3.1224 -1.6187 0.9765
-4.6744 -3.2933 -1.6187 0.9765
-4.5524 -3.4600 -1.6187 0.9765
-4.4244 -3.6222 -1.6187 0.9765
-4.1514 -3.9322 -1.6187 0.9765
-3.5418 -4.4890 -1.6187 0.9765
-3.3774 -4.6140 -1.6187 0.9765
-3.0355 -4.8458 -1.6187 0.9765
-2.8584 -4.9523 -1.6187 0.9765
-2.3060 -5.2324 -1.6187 0.9765
-2.1155 -5.3122 -1.6187 0.9765
-1.9222 -5.3852 -1.6187 0.9765
-1.7265 -5.4511 -1.6187 0.9765
-1.5284 -5.5099 -1.6187 0.9765
-1.3284 -5.5615 -1.6187 0.9765
-0.9234 -5.6429 -1.6187 0.9765
-0.3076 -5.7096 -1.6187 0.9765
-0.1012 -5.7170 -1.6187 0.9765
-1.4546 -0.6099 -0.4851 0.9934
-1.4561 -0.7383 -0.5022 0.9932
-4.3023 -3.0312 -1.6187 0.9782
-4.1900 -3.1846 -1.6187 0.9782
-4.0722 -3.3339 -1.6187 0.9782
-3.8209 -3.6191 -1.6187 0.9782
-3.6877 -3.7548 -1.6187 0.9782
-3.5496 -3.8855 -1.6187 0.9782
-3.4070 -4.0112 -1.6187 0.9782
-2.7938 -4.4600 -1.6187 0.9782
-2.6309 -4.5580 -1.6187 0.9782
-2.1224 -4.8158 -1.6187 0.9782
-1.7692 -4.9565 -1.6187 0.9782
-1.5890 -5.0172 -1.6187 0.9782
-1.4068 -5.0712 -1.6187 0.9782
-1.2227 -5.1188 -1.6187 0.9782
-1.0370 -5.1596 -1.6187 0.9782
-0.6618 -5.2210 -1.6187 0.9782
-0.4728 -5.2415 -1.6187 0.9782
-0.2831 -5.2551 -1.6187 0.9782
-0.0931 -5.2619 -1.6187 0.9782
-1.4025 -0.5880 -0.5055 0.9936
-1.4028 -0.6487 -0.5137 0.9935
-1.5058 -0.9058 -0.5841 0.9926
-3.9809 -2.8048 -1.6187 0.9797
-3.5355 -3.3488 -1.6187 0.9797
-3.4122 -3.4743 -1.6187 0.9797
-3.0164 -3.8230 -1.6187 0.9797
-2.5851 -4.1269 -1.6187 0.9797
-2.4344 -4.2176 -1.6187 0.9797
-2.1236 -4.3823 -1.6187 0.9797
-1.9639 -4.4561 -1.6187 0.9797
-1.8017 -4.5242 -1.6187 0.9797
-1.4703 -4.6424 -1.6187 0.9797
-1.3017 -4.6925 -1.6187 0.9797
-0.7865 -4.8058 -1.6187 0.9797
-0.0862 -4.8689 -1.6187 0.9797
-1.3527 -0.6255 -0.5330 0.9937
-1.3513 -0.6851 -0.5418 0.9936
-1.3489 -0.7464 -0.5513 0.9935
-1.5022 -0.9036 -0.6269 0.9926
-3.7921 -2.4718 -1.6187 0.9810
-3.6038 -2.7391 -1.6187 0.9810
-3.5025 -2.8674 -1.6187 0.9810
-3.3967 -2.9921 -1.6187 0.9810
-3.2864 -3.1128 -1.6187 0.9810
-3.0531 -3.3419 -1.6187 0.9810
-2.9304 -3.4500 -1.6187 0.9810
-2.5400 -3.7468 -1.6187 0.9810
-2.4030 -3.8360 -1.6187 0.9810
-1.6747 -4.2053 -1.6187 0.9810
-1.5217 -4.2631 -1.6187 0.9810
-1.3667 -4.3153 -1.6187 0.9810
-1.2100 -4.3618 -1.6187 0.9810
-1.0516 -4.4027 -1.6187 0.9810
-0.7310 -4.4671 -1.6187 0.9810
-0.5692 -4.4906 -1.6187 0.9810
-0.0801 -4.5258 -1.6187 0.9810
-1.3068 -0.5479 -0.5430 0.9939
-1.3054 -0.6036 -0.5511 0.9939
-1.3033 -0.6608 -0.5600 0.9938
-1.4223 -0.8555 -0.6360 0.9929
-3.5387 -2.3066 -1.6187 0.9821
-3.3630 -2.5560 -1.6187 0.9821
-3.1696 -2.7921 -1.6187 0.9821
-2.9598 -3.0136 -1.6187 0.9821
-2.8490 -3.1186 -1.6187 0.9821
-2.4950 -3.4085 -1.6187 0.9821
-2.3702 -3.4964 -1.6187 0.9821
-2.2424 -3.5797 -1.6187 0.9821
-1.7035 -3.8653 -1.6187 0.9821
-1.5628 -3.9243 -1.6187 0.9821
-1.4200 -3.9782 -1.6187 0.9821
-0.6822 -4.1685 -1.6187 0.9821
-0.3795 -4.2069 -1.6187 0.9821
-0.2273 -4.2179 -1.6187 0.9821
-1.2630 -0.5296 -0.5605 0.9941
-1.2608 -0.5830 -0.5685 0.9940
-1.2492 -0.7514 -0.5966 0.9937
-3.2332 -2.2780 -1.6187 0.9831
-3.1488 -2.3933 -1.6187 0.9831
-3.0604 -2.5054 -1.6187 0.9831
-2.8715 -2.7198 -1.6187 0.9831
-2.5604 -3.0145 -1.6187 0.9831
-2.4499 -3.1050 -1.6187 0.9831
-2.3361 -3.1915 -1.6187 0.9831
-1.9772 -3.4254 -1.6187 0.9831
-1.8521 -3.4946 -1.6187 0.9831
-1.5950 -3.6192 -1.6187 0.9831
-1.4633 -3.6745 -1.6187 0.9831
-0.7793 -3.8775 -1.6187 0.9831
-0.4973 -3.9237 -1.6187 0.9831
-0.3553 -3.9391 -1.6187 0.9831
-0.0700 -3.9544 -1.6187 0.9831
-1.2213 -0.5121 -0.5771 0.9942
-1.2186 -0.5635 -0.5851 0.9942
-1.2788 -0.8335 -0.6652 0.9934
-3.0363 -2.1392 -1.6187 0.9839
-2.9571 -2.2475 -1.6187 0.9839
-2.6026 -2.6499 -1.6187 0.9839
-2.5052 -2.7422 -1.6187 0.9839
-2.4045 -2.8309 -1.6187 0.9839
-2.1938 -2.9971 -1.6187 0.9839
-2.0842 -3.0744 -1.6187 0.9839
-1.9717 -3.1476 -1.6187 0.9839
-1.6197 -3.3424 -1.6187 0.9839
-1.2486 -3.4980 -1.6187 0.9839
-1.1215 -3.5409 -1.6187 0.9839
-0.9928 -3.5791 -1.6187 0.9839
-0.8629 -3.6126 -1.6187 0.9839
-0.7318 -3.6414 -1.6187 0.9839
-0.5999 -3.6654 -1.6187 0.9839
-0.4671 -3.6847 -1.6187 0.9839
-0.1998 -3.7088 -1.6187 0.9839
-1.1784 -0.5449 -0.6009 0.9943
-1.1743 -0.5954 -0.6094 0.9942
-1.1559 -0.7535 -0.6387 0.9939
-2.7059 -2.2153 -1.6187 0.9847
-2.6241 -2.3116 -1.6187 0.9847
-2.5389 -2.4048 -1.6187 0.9847
-2.2639 -2.6654 -1.6187 0.9847
-2.1661 -2.7454 -1.6187 0.9847
-1.7482 -3.0287 -1.6187 0.9847
-1.1756 -3.2935 -1.6187 0.9847
-0.8125 -3.4013 -1.6187 0.9847
-0.6891 -3.4284 -1.6187 0.9847
-0.4398 -3.4692 -1.6187 0.9847
-0.1881 -3.4919 -1.6187 0.9847
-1.1300 -0.6252 -0.6335 0.9943
-1.1234 -0.6758 -0.6431 0.9942
-1.1158 -0.7273 -0.6533 0.9941
-1.1070 -0.7800 -0.6643 0.9940
-2.6273 -1.9968 -1.6187 0.9854
-2.4763 -2.1813 -1.6187 0.9854
-2.3123 -2.3544 -1.6187 0.9854
-2.2258 -2.4364 -1.6187 0.9854
-2.1363 -2.5152 -1.6187 0.9854
-2.0441 -2.5907 -1.6187 0.9854
-1.9492 -2.6629 -1.6187 0.9854
-1.4390 -2.9697 -1.6187 0.9854
-1.3308 -3.0197 -1.6187 0.9854
-1.1094 -3.1079 -1.6187 0.9854
-0.9964 -3.1460 -1.6187 0.9854
-0.8821 -3.1799 -1.6187 0.9854
-0.7667 -3.2097 -1.6187 0.9854
-0.6502 -3.2353 -1.6187 0.9854
-0.4150 -3.2738 -1.6187 0.9854
-0.1775 -3.2952 -1.6187 0.9854
-0.0584 -3.2994 -1.6187 0.9854
-1.1031 -0.5101 -0.6305 0.9945
-1.0856 -0.6530 -0.6572 0.9943
-1.0758 -0.7013 -0.6662 0.9942
-1.0560 -0.7440 -0.6701 0.9942
-2.4144 -1.9766 -1.6187 0.9860
-2.3414 -2.0625 -1.6187 0.9860
-2.2654 -2.1457 -1.6187 0.9860
-2.1864 -2.2261 -1.6187 0.9860
-2.1045 -2.3037 -1.6187 0.9860
-1.9327 -2.4496 -1.6187 0.9860
-1.7508 -2.5827 -1.6187 0.9860
-1.2584 -2.8552 -1.6187 0.9860
-1.1544 -2.8988 -1.6187 0.9860
-0.9421 -2.9746 -1.6187 0.9860
-0.8341 -3.0067 -1.6187 0.9860
-0.5039 -3.0793 -1.6187 0.9860
-0.1679 -3.1157 -1.6187 0.9860
-0.0552 -3.1197 -1.6187 0.9860
-1.0627 -0.5389 -0.6526 0.9946
-1.0566 -0.5847 -0.6614 0.9945
-1.0437 -0.6278 -0.6671 0.9945
-0.9860 -0.7494 -0.6783 0.9944
-2.1458 -2.0324 -1.6187 0.9866
-2.0709 -2.1086 -1.6187 0.9866
-1.8307 -2.3202 -1.6187 0.9866
-1.7457 -2.3848 -1.6187 0.9866
-1.4775 -2.5597 -1.6187 0.9866
-1.2888 -2.6596 -1.6187 0.9866
-1.1919 -2.7045 -1.6187 0.9866
-0.8924 -2.8175 -1.6187 0.9866
-0.6866 -2.8746 -1.6187 0.9866
-1.0339 -0.4781 -0.6577 0.9948
-0.9792 -0.6383 -0.6748 0.9946
-0.9606 -0.6768 -0.6785 0.9946
-0.9407 -0.7150 -0.6822 0.9946
-0.9195 -0.7528 -0.6861 0.9945
-0.9201 -0.8715 -0.7317 0.9942
-1.9646 -2.0003 -1.6187 0.9871
-1.8910 -2.0700 -1.6187 0.9871
-1.7367 -2.2011 -1.6187 0.9871
-1.6560 -2.2624 -1.6187 0.9871
-1.4016 -2.4282 -1.6187 0.9871
-1.3130 -2.4773 -1.6187 0.9871
-1.1307 -2.5656 -1.6187 0.9871
-1.0373 -2.6048 -1.6187 0.9871
-0.9425 -2.6405 -1.6187 0.9871
-0.8465 -2.6728 -1.6187 0.9871
-0.7494 -2.7017 -1.6187 0.9871
-0.5524 -2.7487 -1.6187 0.9871
-0.3526 -2.7814 -1.6187 0.9871
-0.2519 -2.7923 -1.6187 0.9871
