ply
format ascii 1.0
element vertex 357
property float32 x
property float32 y
property float32 z
property float32 I
end_header
17.4732 29.0808 0.5731 0.8731
17.4732 29.0808 -0.1910 0.8731
27.5954 16.0324 -1.6185 0.8800
27.0013 17.0142 -1.6185 0.8800
26.3722 17.9740 -1.6185 0.8800
25.7090 18.9106 -1.6185 0.8800
23.5238 21.5689 -1.6186 0.8800
22.7332 22.4008 -1.6186 0.8800
21.9132 23.2037 -1.6186 0.8800
21.0649 23.9767 -1.6186 0.8800
20.1894 24.7187 -1.6186 0.8800
17.4719 23.0346 -1.4662 0.8907
13.9899 25.3016 -1.4662 0.8907
13.0712 25.7884 -1.4662 0.8907
12.1357 26.2417 -1.4662 0.8907
11.1845 26.6612 -1.4663 0.8907
8.2490 27.7109 -1.4663 0.8907
7.2475 27.9898 -1.4663 0.8907
6.2365 28.2323 -1.4663 0.8907
5.2175 28.4384 -1.4663 0.8907
20.4797 8.2388 -1.6186 0.9153
20.1703 8.9697 -1.6186 0.9153
19.0874 11.0894 -1.6186 0.9153
18.2412 12.4323 -1.6186 0.9153
17.7825 13.0802 -1.6186 0.9153
15.1569 16.0496 -1.6186 0.9153
13.1985 15.0228 -1.4662 0.9229
12.6498 15.4876 -1.4662 0.9229
10.9089 16.7598 -1.4662 0.9229
10.2993 17.1412 -1.4663 0.9229
9.6764 17.5004 -1.4663 0.9229
9.0410 17.8371 -1.4663 0.9229
7.0680 18.7070 -1.4663 0.9229
5.7055 19.1667 -1.4663 0.9229
5.0128 19.3595 -1.4663 0.9229
3.6087 19.6698 -1.4663 0.9229
15.6413 6.2923 -1.6186 0.9345
15.1488 7.4000 -1.6186 0.9345
14.2641 8.9881 -1.6186 0.9345
13.5813 9.9899 -1.6186 0.9345
13.2135 10.4718 -1.6186 0.9345
11.5332 12.2124 -1.6126 0.9347
9.6612 11.8286 -1.4663 0.9405
9.2298 12.1683 -1.4663 0.9405
8.3316 12.8001 -1.4663 0.9405
4.3575 14.6383 -1.4663 0.9405
3.2944 14.9137 -1.4663 0.9405
2.7561 15.0225 -1.4663 0.9405
12.6418 5.0856 -1.6186 0.9466
12.4508 5.5369 -1.6186 0.9466
12.2437 5.9809 -1.6186 0.9466
11.7823 6.8453 -1.6186 0.9466
11.5286 7.2645 -1.6186 0.9466
11.2600 7.6742 -1.6186 0.9466
10.6795 8.4636 -1.6186 0.9466
10.0437 9.2091 -1.6186 0.9466
9.3387 9.8886 -1.6156 0.9467
7.8085 9.5601 -1.4663 0.9515
7.4597 9.8347 -1.4663 0.9515
6.7338 10.3454 -1.4663 0.9515
5.5808 11.0103 -1.4663 0.9515
3.0406 6.5747 -0.8605 0.9712
4.3629 11.5472 -1.4663 0.9515
3.9449 11.6967 -1.4663 0.9515
3.5219 11.8310 -1.4663 0.9515
2.6626 12.0535 -1.4663 0.9515
10.5984 4.2636 -1.6186 0.9549
10.2646 5.0142 -1.6186 0.9549
10.0778 5.3800 -1.6186 0.9549
9.4399 6.4338 -1.6186 0.9549
9.2025 6.7690 -1.6186 0.9549
8.9532 7.0955 -1.6187 0.9549
8.6924 7.4128 -1.6187 0.9549
8.4203 7.7205 -1.6187 0.9549
8.1373 8.0183 -1.6187 0.9549
7.8438 8.3057 -1.6187 0.9549
6.8265 8.3579 -1.5290 0.9573
6.2539 8.2450 -1.4663 0.9591
5.6453 8.6731 -1.4663 0.9591
5.0075 9.0564 -1.4663 0.9591
3.3072 9.8060 -1.4663 0.9591
1.8675 10.1789 -1.4663 0.9591
9.1156 3.6671 -1.6186 0.9610
8.9778 3.9924 -1.6186 0.9610
8.8285 4.3126 -1.6186 0.9610
8.6677 4.6273 -1.6187 0.9610
8.4958 4.9359 -1.6187 0.9610
8.1192 5.5336 -1.6187 0.9610
7.9150 5.8220 -1.6187 0.9610
7.4762 6.3757 -1.6187 0.9610
7.2422 6.6403 -1.6187 0.9610
6.9988 6.8964 -1.6187 0.9610
6.4851 7.3815 -1.6187 0.9610
4.0241 7.9391 -1.4663 0.9646
3.0200 6.5302 -1.1852 0.9713
2.7492 6.5534 -1.1708 0.9716
2.2311 8.6166 -1.4663 0.9646
1.6062 8.7547 -1.4663 0.9646
7.9894 3.2141 -1.6187 0.9656
7.8687 3.4992 -1.6187 0.9656
7.5969 4.0556 -1.6187 0.9656
7.4462 4.3261 -1.6187 0.9656
7.2859 4.5910 -1.6187 0.9656
7.1161 4.8500 -1.6187 0.9656
6.9372 5.1027 -1.6187 0.9656
6.5526 5.5880 -1.6187 0.9656
5.6839 6.4696 -1.6187 0.9656
5.2023 6.8586 -1.6180 0.9656
4.0476 6.7364 -1.4772 0.9685
3.5269 6.9583 -1.4663 0.9687
2.7572 7.2976 -1.4663 0.9687
2.4931 7.3920 -1.4663 0.9687
2.2257 7.4769 -1.4663 0.9687
1.9555 7.5521 -1.4663 0.9687
1.6827 7.6175 -1.4663 0.9687
1.4078 7.6731 -1.4663 0.9687
7.1043 2.8580 -1.6187 0.9692
6.9970 3.1115 -1.6187 0.9692
6.7553 3.6063 -1.6187 0.9692
6.6212 3.8468 -1.6187 0.9692
6.3277 4.3127 -1.6187 0.9692
6.0015 4.7562 -1.6187 0.9692
5.4545 5.3748 -1.6187 0.9692
5.2578 5.5674 -1.6187 0.9692
4.8441 5.9308 -1.6187 0.9692
4.1719 6.4094 -1.6165 0.9692
3.9294 6.5397 -1.6127 0.9693
2.6835 6.3967 -1.4663 0.9720
2.2169 6.5730 -1.4663 0.9720
1.7388 6.7154 -1.4663 0.9720
6.3896 2.5705 -1.6187 0.9721
6.2931 2.7985 -1.6187 0.9721
6.1884 3.0230 -1.6187 0.9721
5.8270 3.6717 -1.6187 0.9721
5.6912 3.8788 -1.6187 0.9721
5.2405 4.4691 -1.6187 0.9721
5.0764 4.6546 -1.6187 0.9721
4.9058 4.8341 -1.6187 0.9721
4.7288 5.0073 -1.6187 0.9721
4.5458 5.1741 -1.6187 0.9721
4.3568 5.3342 -1.6187 0.9721
3.9623 5.6335 -1.6187 0.9721
3.7572 5.7723 -1.6187 0.9721
3.1030 6.1219 -1.6131 0.9722
2.2262 5.8921 -1.4803 0.9745
1.9939 5.9118 -1.4663 0.9747
1.5639 6.0398 -1.4663 0.9747
1.3458 6.0921 -1.4663 0.9747
1.1259 6.1366 -1.4663 0.9747
5.7999 2.3333 -1.6187 0.9745
5.7123 2.5403 -1.6187 0.9745
5.5150 2.9442 -1.6187 0.9745
5.2892 3.3329 -1.6187 0.9745
5.0361 3.7043 -1.6187 0.9745
4.7569 4.0566 -1.6187 0.9745
4.6079 4.2250 -1.6187 0.9745
4.2924 4.5452 -1.6187 0.9745
4.1263 4.6966 -1.6187 0.9745
3.9548 4.8419 -1.6187 0.9745
3.7781 4.9810 -1.6187 0.9745
3.5966 5.1136 -1.6187 0.9745
3.2199 5.3588 -1.6187 0.9745
2.8265 5.5764 -1.6187 0.9745
1.9402 5.7525 -1.5719 0.9752
1.4395 5.5592 -1.4868 0.9766
1.2216 5.5299 -1.4663 0.9769
1.0220 5.5703 -1.4663 0.9769
5.3047 2.1340 -1.6187 0.9765
5.2245 2.3233 -1.6187 0.9765
5.1376 2.5097 -1.6187 0.9765
4.9440 2.8724 -1.6187 0.9765
4.8376 3.0483 -1.6187 0.9765
4.7248 3.2202 -1.6187 0.9765
4.6060 3.3880 -1.6187 0.9765
4.3506 3.7102 -1.6187 0.9765
4.0728 4.0133 -1.6187 0.9765
3.9259 4.1571 -1.6187 0.9765
3.4555 4.5556 -1.6187 0.9765
3.2895 4.6769 -1.6187 0.9765
3.1192 4.7922 -1.6187 0.9765
2.4001 5.1898 -1.6187 0.9765
2.2119 5.2727 -1.6187 0.9765
1.8238 5.4076 -1.6156 0.9766
1.6260 5.4624 -1.6134 0.9766
1.4268 5.5104 -1.6114 0.9766
4.8824 1.9641 -1.6187 0.9782
4.8086 2.1384 -1.6187 0.9782
4.7286 2.3099 -1.6187 0.9782
4.6425 2.4784 -1.6187 0.9782
4.5504 2.6437 -1.6187 0.9782
4.3487 2.9639 -1.6187 0.9782
4.1245 3.2687 -1.6187 0.9782
3.8790 3.5566 -1.6187 0.9782
3.7486 3.6938 -1.6187 0.9782
3.6134 3.8262 -1.6187 0.9782
3.4735 3.9536 -1.6187 0.9782
2.8709 4.4107 -1.6187 0.9782
2.7105 4.5111 -1.6187 0.9782
2.0359 4.8530 -1.6187 0.9782
1.3181 5.0906 -1.6174 0.9782
1.1330 5.1292 -1.6157 0.9783
4.5177 1.8174 -1.6187 0.9797
4.4495 1.9787 -1.6187 0.9797
4.2106 2.4463 -1.6187 0.9797
4.0239 2.7425 -1.6187 0.9797
3.9227 2.8854 -1.6187 0.9797
3.4686 3.4179 -1.6187 0.9797
3.3435 3.5404 -1.6187 0.9797
3.0805 3.7715 -1.6187 0.9797
2.9429 3.8798 -1.6187 0.9797
2.6565 4.0812 -1.6187 0.9797
2.5080 4.1741 -1.6187 0.9797
1.5562 4.6143 -1.6187 0.9797
1.3894 4.6673 -1.6187 0.9797
1.2207 4.7142 -1.6187 0.9797
1.0504 4.7550 -1.6187 0.9797
0.8788 4.7897 -1.6187 0.9797
4.1993 1.6894 -1.6187 0.9810
4.1359 1.8392 -1.6187 0.9810
3.9931 2.1317 -1.6187 0.9810
3.8296 2.4131 -1.6187 0.9810
3.7403 2.5492 -1.6187 0.9810
3.6463 2.6821 -1.6187 0.9810
3.5475 2.8114 -1.6187 0.9810
3.3363 3.0591 -1.6187 0.9810
3.2242 3.1770 -1.6187 0.9810
2.9875 3.4005 -1.6187 0.9810
2.8634 3.5057 -1.6187 0.9810
2.6041 3.7024 -1.6187 0.9810
2.4693 3.7936 -1.6187 0.9810
2.0465 4.0375 -1.6187 0.9810
1.9000 4.1084 -1.6187 0.9810
1.7510 4.1741 -1.6187 0.9810
1.5999 4.2343 -1.6187 0.9810
1.2914 4.3383 -1.6187 0.9810
0.9764 4.4200 -1.6187 0.9810
3.9187 1.5765 -1.6187 0.9821
3.7262 1.9892 -1.6187 0.9821
3.6523 2.1219 -1.6187 0.9821
3.4026 2.5028 -1.6187 0.9821
3.1133 2.8546 -1.6187 0.9821
2.9002 3.0710 -1.6187 0.9821
2.7879 3.1733 -1.6187 0.9821
2.6720 3.2714 -1.6187 0.9821
2.5527 3.3654 -1.6187 0.9821
2.1755 3.6207 -1.6187 0.9821
2.0439 3.6965 -1.6187 0.9821
1.7730 3.8339 -1.6187 0.9821
1.6340 3.8951 -1.6187 0.9821
1.2051 4.0484 -1.6187 0.9821
1.0588 4.0891 -1.6187 0.9821
0.7622 4.1546 -1.6187 0.9821
3.6138 1.6071 -1.6187 0.9831
3.5537 1.7359 -1.6187 0.9831
3.4198 1.9868 -1.6187 0.9831
3.3461 2.1085 -1.6187 0.9831
3.0996 2.4565 -1.6187 0.9831
3.0093 2.5663 -1.6187 0.9831
2.9152 2.6729 -1.6187 0.9831
2.8171 2.7760 -1.6187 0.9831
2.6104 2.9712 -1.6187 0.9831
2.5019 3.0632 -1.6187 0.9831
2.3901 3.1511 -1.6187 0.9831
0.8531 3.8620 -1.6187 0.9831
0.7137 3.8901 -1.6187 0.9831
3.4458 1.3862 -1.6187 0.9839
3.3937 1.5092 -1.6187 0.9839
3.2765 1.7492 -1.6187 0.9839
3.2115 1.8658 -1.6187 0.9839
3.1423 1.9801 -1.6187 0.9839
2.9109 2.3069 -1.6187 0.9839
2.8261 2.4101 -1.6187 0.9839
2.5502 2.7003 -1.6187 0.9839
2.3495 2.8766 -1.6187 0.9839
2.2446 2.9592 -1.6187 0.9839
2.1368 3.0380 -1.6187 0.9839
1.7972 3.2504 -1.6187 0.9839
1.6792 3.3129 -1.6187 0.9839
1.0597 3.5598 -1.6187 0.9839
0.9310 3.5956 -1.6187 0.9839
3.2443 1.3051 -1.6187 0.9847
3.1421 1.5349 -1.6187 0.9847
2.8897 1.9694 -1.6187 0.9847
2.8170 2.0721 -1.6187 0.9847
2.7407 2.1720 -1.6187 0.9847
2.6608 2.2691 -1.6187 0.9847
2.4909 2.4545 -1.6187 0.9847
2.4010 2.5424 -1.6187 0.9847
2.3081 2.6271 -1.6187 0.9847
2.2121 2.7084 -1.6187 0.9847
2.0118 2.8603 -1.6187 0.9847
1.5810 3.1192 -1.6187 0.9847
1.4679 3.1740 -1.6187 0.9847
1.2360 3.2713 -1.6187 0.9847
1.1176 3.3136 -1.6187 0.9847
0.6311 3.4396 -1.6187 0.9847
3.0615 1.2316 -1.6187 0.9854
3.0152 1.3409 -1.6187 0.9854
2.9111 1.5541 -1.6187 0.9854
2.8533 1.6577 -1.6187 0.9854
2.7268 1.8585 -1.6187 0.9854
2.3505 2.3162 -1.6187 0.9854
2.2657 2.3992 -1.6187 0.9854
1.9942 2.6292 -1.6187 0.9854
1.8984 2.6992 -1.6187 0.9854
1.8002 2.7657 -1.6187 0.9854
1.6996 2.8286 -1.6187 0.9854
1.5968 2.8879 -1.6187 0.9854
1.4919 2.9434 -1.6187 0.9854
1.2766 3.0430 -1.6187 0.9854
1.1663 3.0870 -1.6187 0.9854
0.5955 3.2458 -1.6187 0.9854
2.8947 1.1645 -1.6187 0.9860
2.8036 1.3695 -1.6187 0.9860
2.7525 1.4694 -1.6187 0.9860
2.6979 1.5675 -1.6187 0.9860
2.2225 2.1900 -1.6187 0.9860
2.0594 2.3441 -1.6187 0.9860
1.9738 2.4166 -1.6187 0.9860
1.8856 2.4860 -1.6187 0.9860
1.7021 2.6150 -1.6187 0.9860
1.1028 2.9188 -1.6187 0.9860
0.7821 3.0206 -1.6187 0.9860
2.7004 1.2009 -1.6187 0.9866
2.6555 1.2972 -1.6187 0.9866
2.4421 1.6645 -1.6187 0.9866
2.3807 1.7512 -1.6187 0.9866
2.3162 1.8356 -1.6187 0.9866
2.1051 2.0744 -1.6187 0.9866
1.9506 2.2203 -1.6187 0.9866
1.8696 2.2890 -1.6187 0.9866
1.6123 2.4770 -1.6187 0.9866
1.5221 2.5333 -1.6187 0.9866
1.4301 2.5864 -1.6187 0.9866
1.2405 2.6825 -1.6187 0.9866
1.0446 2.7647 -1.6187 0.9866
0.9445 2.8005 -1.6187 0.9866
0.8432 2.8326 -1.6187 0.9866
0.6375 2.8859 -1.6187 0.9866
0.5333 2.9069 -1.6187 0.9866
2.5618 1.1392 -1.6187 0.9871
2.4242 1.4084 -1.6187 0.9871
2.3167 1.5790 -1.6187 0.9871
2.2585 1.6613 -1.6187 0.9871
2.1333 1.8192 -1.6187 0.9871
2.0665 1.8948 -1.6187 0.9871
1.9970 1.9678 -1.6187 0.9871
1.9250 2.0384 -1.6187 0.9871
1.8505 2.1063 -1.6187 0.9871
1.6944 2.2338 -1.6187 0.9871
1.4440 2.4032 -1.6187 0.9871
1.2676 2.5008 -1.6187 0.9871
1.1768 2.5447 -1.6187 0.9871
1.0846 2.5854 -1.6187 0.9871
0.8960 2.6567 -1.6187 0.9871
0.7028 2.7142 -1.6187 0.9871
0.6048 2.7377 -1.6187 0.9871
