ply
format ascii 1.0
element vertex 446
property float32 x
property float32 y
property float32 z
property float32 I
end_header
23.6820 -41.2956 1.8771 0.8265
26.1211 -41.9690 1.9492 0.8205
21.1939 -36.9571 -0.2399 0.8433
23.3767 -37.5597 -0.2491 0.8378
28.3051 -38.9203 -0.2709 0.8249
12.5519 -11.9742 -0.4885 0.9329
12.6599 -11.2345 -0.4766 0.9345
32.5904 -21.4307 -1.0983 0.8555
14.6970 -25.6279 -1.4983 0.8884
15.5962 -25.0586 -1.4969 0.8885
16.4811 -24.4696 -1.4962 0.8886
17.3486 -23.8548 -1.4959 0.8886
20.5318 -21.0508 -1.4913 0.8889
12.7664 -11.3290 -0.8656 0.9339
13.8794 -11.4501 -0.9125 0.9305
13.9449 -10.6837 -0.8909 0.9321
15.0543 -10.6955 -0.9365 0.9287
15.2391 -9.2522 -0.9041 0.9311
25.4843 -14.2420 -1.4805 0.8897
26.3866 -12.3434 -1.4773 0.8899
26.7797 -11.3702 -1.4755 0.8900
27.1366 -10.3845 -1.4735 0.8901
27.4614 -9.3894 -1.4718 0.8903
27.9907 -7.3678 -1.4679 0.8905
28.7238 -3.2670 -1.4661 0.8907
28.8845 -1.1904 -1.4661 0.8907
28.9086 -0.1490 -1.4661 0.8907
28.8443 1.9329 -1.4661 0.8907
29.1427 4.0764 -1.4923 0.8888
29.9714 5.2995 -1.5436 0.8852
10.5664 -16.9772 -1.4662 0.9229
11.1711 -16.5855 -1.4662 0.9229
12.6141 -12.9330 -1.3246 0.9301
12.6367 -12.0550 -1.2805 0.9324
12.7922 -11.3518 -1.2540 0.9337
13.8887 -11.4577 -1.3202 0.9303
13.8702 -10.6264 -1.2812 0.9323
14.0816 -10.0044 -1.2665 0.9331
15.2601 -9.2650 -1.3090 0.9309
17.4554 -9.7550 -1.4662 0.9229
18.4059 -7.8148 -1.4662 0.9229
18.6754 -7.1467 -1.4662 0.9229
18.9208 -6.4692 -1.4662 0.9229
20.9287 -4.7098 -1.5729 0.9176
21.6069 -4.0507 -1.6119 0.9156
21.8289 -3.2832 -1.6185 0.9153
21.9330 -2.4947 -1.6185 0.9153
22.0087 -1.7029 -1.6185 0.9153
22.0557 -0.9089 -1.6185 0.9153
22.0742 -0.1138 -1.6185 0.9153
22.0640 0.6815 -1.6185 0.9153
22.0251 1.4759 -1.6185 0.9153
21.9576 2.2684 -1.6185 0.9153
21.8617 3.0579 -1.6186 0.9153
7.5977 -13.2486 -1.4662 0.9405
8.0701 -12.9663 -1.4662 0.9405
11.3125 -10.7918 -1.5010 0.9391
11.8644 -10.5285 -1.5229 0.9382
12.9869 -9.9497 -1.5707 0.9364
13.5712 -9.6418 -1.5982 0.9353
14.0393 -9.2319 -1.6131 0.9347
14.4001 -8.7428 -1.6173 0.9345
14.7172 -8.2248 -1.6186 0.9345
15.0039 -7.6892 -1.6186 0.9345
15.9527 -5.4544 -1.6186 0.9345
16.3040 -4.2916 -1.6186 0.9345
16.4480 -3.7015 -1.6186 0.9345
16.5707 -3.1065 -1.6186 0.9345
16.6719 -2.5075 -1.6186 0.9345
16.7514 -1.9053 -1.6186 0.9345
16.8451 -0.6942 -1.6186 0.9345
16.8217 1.1272 -1.6186 0.9345
16.7702 1.7325 -1.6186 0.9345
16.6969 2.3355 -1.6186 0.9345
16.6020 2.9355 -1.6186 0.9345
6.7789 -11.8208 -1.6186 0.9466
7.6124 -11.3020 -1.6186 0.9466
8.0146 -11.0203 -1.6186 0.9466
8.4064 -10.7244 -1.6186 0.9466
8.7873 -10.4146 -1.6186 0.9466
9.1568 -10.0913 -1.6186 0.9466
9.8596 -9.4057 -1.6186 0.9466
10.5112 -8.6714 -1.6186 0.9466
11.6477 -7.0717 -1.6186 0.9466
12.3426 -5.7738 -1.6186 0.9466
12.7263 -4.8701 -1.6186 0.9466
13.0439 -3.9411 -1.6186 0.9466
13.1774 -3.4686 -1.6186 0.9466
13.4747 -2.0267 -1.6186 0.9466
13.5390 -1.5399 -1.6186 0.9466
13.5857 -1.0512 -1.6186 0.9466
13.5958 0.9111 -1.6186 0.9466
13.5541 1.4003 -1.6186 0.9466
13.4949 1.8876 -1.6186 0.9466
6.7191 -9.2390 -1.6187 0.9549
7.0476 -8.9910 -1.6186 0.9549
7.3669 -8.7312 -1.6186 0.9549
7.9765 -8.1781 -1.6186 0.9549
8.8122 -7.2698 -1.6186 0.9549
9.0684 -6.9476 -1.6186 0.9549
9.9722 -5.5730 -1.6186 0.9549
10.1665 -5.2101 -1.6186 0.9549
10.3476 -4.8405 -1.6186 0.9549
10.5152 -4.4646 -1.6186 0.9549
10.6693 -4.0829 -1.6186 0.9549
10.9355 -3.3041 -1.6186 0.9549
11.0475 -2.9080 -1.6186 0.9549
11.3897 -0.8813 -1.6186 0.9549
11.4141 -0.4704 -1.6186 0.9549
11.4236 -0.0589 -1.6186 0.9549
11.3137 1.5825 -1.6186 0.9549
11.2493 1.9891 -1.6186 0.9549
5.4890 -8.1494 -1.6187 0.9610
5.7791 -7.9464 -1.6187 0.9610
6.0615 -7.7330 -1.6187 0.9610
6.6026 -7.2765 -1.6187 0.9610
6.8605 -7.0339 -1.6187 0.9610
7.3491 -6.5216 -1.6186 0.9610
7.5793 -6.2526 -1.6186 0.9610
8.2096 -5.3984 -1.6186 0.9610
8.5770 -4.7933 -1.6186 0.9610
8.7441 -4.4812 -1.6186 0.9610
8.8998 -4.1633 -1.6186 0.9610
9.0441 -3.8400 -1.6186 0.9610
9.1765 -3.5116 -1.6186 0.9610
9.4055 -2.8418 -1.6186 0.9610
9.5018 -2.5011 -1.6186 0.9610
9.6572 -1.8104 -1.6186 0.9610
9.7162 -1.4614 -1.6186 0.9610
9.7625 -1.1104 -1.6186 0.9610
9.7962 -0.7580 -1.6186 0.9610
9.8208 0.3033 -1.6186 0.9610
9.8035 0.6569 -1.6186 0.9610
9.6754 1.7108 -1.6186 0.9610
4.2841 -7.4705 -1.6187 0.9656
5.3127 -6.7777 -1.6187 0.9656
5.7869 -6.3775 -1.6187 0.9656
6.4412 -5.7159 -1.6187 0.9656
6.6429 -5.4802 -1.6187 0.9656
7.0203 -4.9876 -1.6187 0.9656
7.6638 -3.9276 -1.6186 0.9656
7.8004 -3.6489 -1.6186 0.9656
8.2436 -2.4907 -1.6186 0.9656
8.3280 -2.1921 -1.6186 0.9656
8.5564 -0.9732 -1.6186 0.9656
8.5860 -0.6643 -1.6186 0.9656
8.6075 0.2659 -1.6186 0.9656
8.5923 0.5758 -1.6186 0.9656
8.5286 1.1930 -1.6186 0.9656
8.4801 1.4994 -1.6186 0.9656
4.0463 -6.5013 -1.6187 0.9692
4.7241 -6.0268 -1.6187 0.9692
5.1458 -5.6710 -1.6187 0.9692
5.5408 -5.2857 -1.6187 0.9692
5.7276 -5.0827 -1.6187 0.9692
5.9070 -4.8730 -1.6187 0.9692
6.0787 -4.6571 -1.6187 0.9692
6.6845 -3.7357 -1.6187 0.9692
6.8148 -3.4925 -1.6187 0.9692
7.0486 -2.9927 -1.6187 0.9692
7.1518 -2.7368 -1.6187 0.9692
7.2457 -2.4774 -1.6187 0.9692
7.3303 -2.2148 -1.6187 0.9692
7.6575 -0.0395 -1.6187 0.9692
7.6539 0.2364 -1.6187 0.9692
7.6170 0.7869 -1.6187 0.9692
3.6393 -5.8473 -1.6187 0.9721
3.8476 -5.7124 -1.6187 0.9721
4.0509 -5.5700 -1.6187 0.9721
4.2489 -5.4205 -1.6187 0.9721
4.8089 -4.9304 -1.6187 0.9721
4.9834 -4.7540 -1.6187 0.9721
5.1514 -4.5714 -1.6187 0.9721
5.4672 -4.1886 -1.6187 0.9721
5.6145 -3.9889 -1.6187 0.9721
5.7546 -3.7841 -1.6187 0.9721
5.8872 -3.5743 -1.6187 0.9721
6.0121 -3.3599 -1.6187 0.9721
6.1292 -3.1411 -1.6187 0.9721
6.2384 -2.9183 -1.6187 0.9721
6.5168 -2.2282 -1.6187 0.9721
6.7192 -1.5121 -1.6187 0.9721
6.7693 -1.2690 -1.6187 0.9721
6.8106 -1.0244 -1.6187 0.9721
6.8814 -0.2836 -1.6187 0.9721
6.8840 0.2126 -1.6187 0.9721
6.8718 0.4605 -1.6187 0.9721
6.8508 0.7077 -1.6187 0.9721
6.8208 0.9541 -1.6187 0.9721
6.7821 1.1992 -1.6187 0.9721
3.4925 -5.1852 -1.6187 0.9745
4.0315 -4.7781 -1.6187 0.9745
4.2010 -4.6298 -1.6187 0.9745
4.3651 -4.4754 -1.6187 0.9745
4.8225 -3.9784 -1.6187 0.9745
4.9626 -3.8020 -1.6187 0.9745
5.0964 -3.6208 -1.6187 0.9745
5.3439 -3.2444 -1.6187 0.9745
5.4573 -3.0498 -1.6187 0.9745
5.5636 -2.8512 -1.6187 0.9745
5.7545 -2.4433 -1.6187 0.9745
5.9845 -1.8081 -1.6187 0.9745
6.0457 -1.5914 -1.6187 0.9745
6.0991 -1.3726 -1.6187 0.9745
6.2116 -0.7065 -1.6187 0.9745
6.2330 -0.4823 -1.6187 0.9745
6.2464 -0.2574 -1.6187 0.9745
6.2516 -0.0322 -1.6187 0.9745
6.2377 0.4180 -1.6187 0.9745
6.1914 0.8660 -1.6187 0.9745
6.1562 1.0885 -1.6187 0.9745
2.8445 -4.9601 -1.6187 0.9765
3.3630 -4.6242 -1.6187 0.9765
3.5274 -4.5001 -1.6187 0.9765
3.6872 -4.3701 -1.6187 0.9765
3.8423 -4.2344 -1.6187 0.9765
3.9923 -4.0933 -1.6187 0.9765
4.1372 -3.9468 -1.6187 0.9765
4.2767 -3.7952 -1.6187 0.9765
4.4107 -3.6386 -1.6187 0.9765
4.5389 -3.4774 -1.6187 0.9765
4.6612 -3.3116 -1.6187 0.9765
4.7775 -3.1415 -1.6187 0.9765
5.2631 -2.2346 -1.6187 0.9765
5.3401 -2.0435 -1.6187 0.9765
5.5295 -1.4555 -1.6187 0.9765
5.6542 -0.8504 -1.6187 0.9765
5.7008 -0.4411 -1.6187 0.9765
5.7177 -0.0295 -1.6187 0.9765
5.7151 0.1765 -1.6187 0.9765
5.7050 0.3823 -1.6187 0.9765
5.6305 0.9956 -1.6187 0.9765
2.6181 -4.5653 -1.6187 0.9782
2.7808 -4.4680 -1.6187 0.9782
2.9400 -4.3649 -1.6187 0.9782
3.5364 -3.8973 -1.6187 0.9782
3.9362 -3.4930 -1.6187 0.9782
4.0595 -3.3490 -1.6187 0.9782
4.4985 -2.7312 -1.6187 0.9782
4.5939 -2.5673 -1.6187 0.9782
4.7669 -2.2299 -1.6187 0.9782
4.9150 -1.8809 -1.6187 0.9782
4.9796 -1.7026 -1.6187 0.9782
5.0377 -1.5221 -1.6187 0.9782
5.0893 -1.3396 -1.6187 0.9782
5.1725 -0.9697 -1.6187 0.9782
5.2469 -0.4060 -1.6187 0.9782
5.2582 -0.2167 -1.6187 0.9782
5.2626 -0.0271 -1.6187 0.9782
5.2601 0.1625 -1.6187 0.9782
5.2508 0.3519 -1.6187 0.9782
5.2348 0.5408 -1.6187 0.9782
5.2119 0.7290 -1.6187 0.9782
5.1823 0.9163 -1.6187 0.9782
2.4225 -4.2243 -1.6187 0.9797
2.7204 -4.0389 -1.6187 0.9797
3.0041 -3.8325 -1.6187 0.9797
3.1403 -3.7218 -1.6187 0.9797
3.2723 -3.6063 -1.6187 0.9797
3.5235 -3.3613 -1.6187 0.9797
3.6423 -3.2322 -1.6187 0.9797
3.8656 -2.9615 -1.6187 0.9797
3.9697 -2.8203 -1.6187 0.9797
4.1625 -2.5272 -1.6187 0.9797
4.5479 -1.7404 -1.6187 0.9797
4.6615 -1.4084 -1.6187 0.9797
4.7092 -1.2396 -1.6187 0.9797
4.8154 -0.7242 -1.6187 0.9797
4.8384 -0.5503 -1.6187 0.9797
4.8551 -0.3757 -1.6187 0.9797
4.8695 -0.0251 -1.6187 0.9797
4.8672 0.1504 -1.6187 0.9797
4.8438 0.5004 -1.6187 0.9797
4.8226 0.6746 -1.6187 0.9797
2.3918 -3.8429 -1.6187 0.9810
2.5287 -3.7542 -1.6187 0.9810
2.7924 -3.5624 -1.6187 0.9810
2.9190 -3.4595 -1.6187 0.9810
3.1605 -3.2404 -1.6187 0.9810
3.2752 -3.1244 -1.6187 0.9810
3.3856 -3.0044 -1.6187 0.9810
3.6900 -2.6216 -1.6187 0.9810
4.0282 -2.0644 -1.6187 0.9810
4.1664 -1.7690 -1.6187 0.9810
4.2275 -1.6177 -1.6187 0.9810
4.3330 -1.3092 -1.6187 0.9810
4.3773 -1.1522 -1.6187 0.9810
4.4489 -0.8341 -1.6187 0.9810
4.4761 -0.6732 -1.6187 0.9810
4.5226 -0.1864 -1.6187 0.9810
4.5243 0.1397 -1.6187 0.9810
4.5163 0.3026 -1.6187 0.9810
4.5025 0.4651 -1.6187 0.9810
2.1013 -3.6642 -1.6187 0.9821
2.2320 -3.5861 -1.6187 0.9821
2.7239 -3.2283 -1.6187 0.9821
2.8384 -3.1281 -1.6187 0.9821
3.1593 -2.8036 -1.6187 0.9821
3.2583 -2.6880 -1.6187 0.9821
3.5292 -2.3207 -1.6187 0.9821
3.6106 -2.1921 -1.6187 0.9821
3.6872 -2.0606 -1.6187 0.9821
4.1769 -0.6282 -1.6187 0.9821
4.1969 -0.4774 -1.6187 0.9821
4.2113 -0.3258 -1.6187 0.9821
4.2203 -0.1739 -1.6187 0.9821
4.2239 -0.0218 -1.6187 0.9821
4.2145 0.2824 -1.6187 0.9821
4.2015 0.4341 -1.6187 0.9821
4.1594 0.7355 -1.6187 0.9821
2.0899 -3.3578 -1.6187 0.9831
2.2095 -3.2803 -1.6187 0.9831
2.3262 -3.1986 -1.6187 0.9831
2.4399 -3.1127 -1.6187 0.9831
2.5505 -3.0228 -1.6187 0.9831
2.6577 -2.9289 -1.6187 0.9831
2.7615 -2.8313 -1.6187 0.9831
2.8617 -2.7300 -1.6187 0.9831
2.9582 -2.6251 -1.6187 0.9831
3.0508 -2.5168 -1.6187 0.9831
3.3807 -2.0525 -1.6187 0.9831
3.4525 -1.9294 -1.6187 0.9831
3.5197 -1.8038 -1.6187 0.9831
3.7423 -1.2795 -1.6187 0.9831
3.7860 -1.1439 -1.6187 0.9831
3.8585 -0.8683 -1.6187 0.9831
3.8873 -0.7287 -1.6187 0.9831
3.9297 -0.4470 -1.6187 0.9831
3.9432 -0.3051 -1.6187 0.9831
3.9549 -0.0204 -1.6187 0.9831
3.9531 0.1221 -1.6187 0.9831
3.9462 0.2645 -1.6187 0.9831
3.9341 0.4064 -1.6187 0.9831
3.8946 0.6886 -1.6187 0.9831
1.8477 -3.2219 -1.6187 0.9839
2.1845 -3.0038 -1.6187 0.9839
2.2913 -2.9231 -1.6187 0.9839
2.4958 -2.7506 -1.6187 0.9839
2.6874 -2.5637 -1.6187 0.9839
2.8650 -2.3636 -1.6187 0.9839
2.9483 -2.2588 -1.6187 0.9839
3.0278 -2.1511 -1.6187 0.9839
3.3054 -1.6939 -1.6187 0.9839
3.3642 -1.5738 -1.6187 0.9839
3.4688 -1.3274 -1.6187 0.9839
3.5554 -1.0742 -1.6187 0.9839
3.5918 -0.9454 -1.6187 0.9839
3.6728 -0.5524 -1.6187 0.9839
3.7031 -0.2865 -1.6187 0.9839
3.7141 -0.0191 -1.6187 0.9839
3.7124 0.1147 -1.6187 0.9839
3.6783 0.5145 -1.6187 0.9839
3.6574 0.6467 -1.6187 0.9839
1.8478 -2.9689 -1.6187 0.9847
2.1573 -2.7522 -1.6187 0.9847
2.5303 -2.4138 -1.6187 0.9847
2.6156 -2.3211 -1.6187 0.9847
2.9219 -1.9213 -1.6187 0.9847
3.0526 -1.7059 -1.6187 0.9847
3.1121 -1.5949 -1.6187 0.9847
3.1675 -1.4817 -1.6187 0.9847
3.3475 -1.0114 -1.6187 0.9847
3.3818 -0.8901 -1.6187 0.9847
3.4371 -0.6444 -1.6187 0.9847
3.4581 -0.5201 -1.6187 0.9847
3.4969 -0.0180 -1.6187 0.9847
3.4953 0.1080 -1.6187 0.9847
3.4891 0.2338 -1.6187 0.9847
3.4436 0.6089 -1.6187 0.9847
1.6416 -2.8626 -1.6187 0.9854
1.7437 -2.8016 -1.6187 0.9854
1.8435 -2.7370 -1.6187 0.9854
1.9409 -2.6688 -1.6187 0.9854
2.0358 -2.5971 -1.6187 0.9854
2.2175 -2.4438 -1.6187 0.9854
2.3041 -2.3623 -1.6187 0.9854
2.5455 -2.1000 -1.6187 0.9854
2.6901 -1.9112 -1.6187 0.9854
2.9890 -1.3982 -1.6187 0.9854
3.0820 -1.1794 -1.6187 0.9854
3.1225 -1.0676 -1.6187 0.9854
3.2901 -0.2546 -1.6187 0.9854
3.2971 -0.1359 -1.6187 0.9854
3.2999 -0.0170 -1.6187 0.9854
3.2983 0.1019 -1.6187 0.9854
3.2925 0.2206 -1.6187 0.9854
1.5522 -2.7067 -1.6187 0.9860
1.6487 -2.6490 -1.6187 0.9860
1.7431 -2.5879 -1.6187 0.9860
2.0121 -2.3847 -1.6187 0.9860
2.4069 -1.9856 -1.6187 0.9860
2.5436 -1.8071 -1.6187 0.9860
2.6071 -1.7143 -1.6187 0.9860
2.7237 -1.5222 -1.6187 0.9860
2.7768 -1.4230 -1.6187 0.9860
2.8262 -1.3221 -1.6187 0.9860
2.8720 -1.2194 -1.6187 0.9860
3.0441 -0.6850 -1.6187 0.9860
3.1109 -0.2407 -1.6187 0.9860
3.1175 -0.1285 -1.6187 0.9860
3.1132 0.2086 -1.6187 0.9860
3.0725 0.5433 -1.6187 0.9860
1.4703 -2.5638 -1.6187 0.9866
1.8232 -2.3260 -1.6187 0.9866
1.9058 -2.2588 -1.6187 0.9866
1.9860 -2.1887 -1.6187 0.9866
2.1384 -2.0400 -1.6187 0.9866
2.2106 -1.9616 -1.6187 0.9866
2.2798 -1.8807 -1.6187 0.9866
2.3460 -1.7974 -1.6187 0.9866
2.4093 -1.7117 -1.6187 0.9866
2.4694 -1.6238 -1.6187 0.9866
2.5263 -1.5338 -1.6187 0.9866
2.5799 -1.4418 -1.6187 0.9866
2.6301 -1.3479 -1.6187 0.9866
2.7204 -1.1550 -1.6187 0.9866
2.7602 -1.0562 -1.6187 0.9866
2.7965 -0.9561 -1.6187 0.9866
2.8291 -0.8548 -1.6187 0.9866
2.8580 -0.7523 -1.6187 0.9866
2.9225 -0.4396 -1.6187 0.9866
2.9365 -0.3340 -1.6187 0.9866
2.9466 -0.2280 -1.6187 0.9866
2.9529 -0.1217 -1.6187 0.9866
2.9488 0.1976 -1.6187 0.9866
2.9398 0.3037 -1.6187 0.9866
2.9269 0.4094 -1.6187 0.9866
2.9103 0.5146 -1.6187 0.9866
1.4815 -2.3803 -1.6187 0.9871
1.5663 -2.3254 -1.6187 0.9871
1.7296 -2.2066 -1.6187 0.9871
1.8840 -2.0763 -1.6187 0.9871
1.9576 -2.0071 -1.6187 0.9871
2.1627 -1.7842 -1.6187 0.9871
2.2856 -1.6238 -1.6187 0.9871
2.3426 -1.5404 -1.6187 0.9871
2.3965 -1.4550 -1.6187 0.9871
2.5395 -1.1880 -1.6187 0.9871
2.6185 -1.0020 -1.6187 0.9871
2.6529 -0.9070 -1.6187 0.9871
2.6838 -0.8109 -1.6187 0.9871
2.7113 -0.7137 -1.6187 0.9871
2.7353 -0.6155 -1.6187 0.9871
2.7725 -0.4170 -1.6187 0.9871
2.7766 0.3884 -1.6187 0.9871
2.7608 0.4882 -1.6187 0.9871
