ply
format ascii 1.0
element vertex 476
property float32 x
property float32 y
property float32 z
property float32 I
end_header
-7.6053 38.1934 6.8667 0.8537
-9.8603 25.1254 4.7592 0.8962
-10.8840 25.0792 4.8206 0.8949
-12.5169 20.3518 4.2130 0.9075
-12.8156 19.2704 4.0807 0.9103
-12.7955 15.3986 3.5302 0.9219
-13.5359 15.1614 3.5838 0.9208
-14.3168 13.9108 3.5198 0.9221
-14.2206 11.9790 3.2786 0.9273
-14.6366 11.4669 3.2786 0.9273
-15.0342 10.9404 3.2785 0.9273
-15.3062 10.3282 3.2558 0.9277
-15.4880 9.6695 3.2195 0.9285
-5.7014 45.1589 6.9730 0.8318
-6.4187 39.5050 6.1313 0.8505
-9.3690 29.9681 4.8101 0.8807
-9.8679 25.1449 4.1381 0.8965
-11.8553 22.7481 3.9297 0.9014
-12.1978 21.5074 3.7878 0.9048
-12.7789 19.2151 3.5352 0.9108
-13.6679 16.4485 3.2762 0.9171
-13.9084 15.5787 3.1993 0.9190
-14.5276 13.1464 3.0015 0.9238
-14.8852 11.6617 2.8968 0.9263
-15.1197 11.0027 2.8646 0.9271
-15.3061 10.3281 2.8287 0.9280
-4.4129 48.8431 6.3863 0.8205
-7.7023 38.6806 5.1359 0.8529
-8.3585 35.3730 4.7332 0.8636
-8.4263 30.7424 4.1510 0.8793
-9.3173 29.8027 4.0662 0.8817
-10.2057 28.9901 4.0022 0.8834
-10.7763 24.8310 3.5249 0.8966
-11.4870 24.0903 3.4754 0.8979
-11.8555 22.7485 3.3405 0.9017
-12.1980 21.5078 3.2198 0.9051
-12.8157 19.2704 3.0137 0.9109
-13.0965 18.2534 2.9255 0.9134
-13.3769 17.3128 2.8490 0.9155
-13.9084 15.5787 2.7195 0.9192
-14.2478 14.8622 2.6810 0.9203
-12.2510 10.3199 2.0859 0.9374
-15.3060 10.3281 2.4045 0.9282
-16.0541 10.0229 2.4646 0.9265
-16.2387 9.3544 2.4404 0.9272
-4.4378 49.1197 5.2960 0.8200
-6.3961 39.3656 4.2826 0.8518
-7.6052 38.1931 4.1818 0.8550
-8.3585 35.3730 3.9030 0.8640
-8.4324 30.7648 3.4254 0.8796
-9.3474 29.8990 3.3638 0.8816
-10.2058 28.9903 3.3003 0.8837
-11.0976 25.5714 2.9933 0.8939
-10.9213 15.2217 2.0117 0.9274
-13.4121 17.3583 2.3555 0.9155
-14.2729 14.8883 2.2147 0.9204
-14.5276 13.1464 2.1039 0.9242
-15.0933 11.8247 2.0589 0.9258
-15.1196 11.0026 2.0080 0.9275
-4.4221 48.9449 4.1602 0.8210
-6.4192 39.5081 3.3883 0.8516
-7.6053 38.1936 3.2967 0.8553
-8.3586 35.3734 3.0769 0.8642
-9.6420 30.8411 2.7354 0.8783
-10.3307 29.3452 2.6336 0.8826
-8.8392 22.5236 2.0483 0.9074
-11.0976 25.5712 2.3597 0.8941
-11.8554 22.7485 2.1715 0.9021
-12.3445 21.7661 2.1183 0.9044
-12.5171 20.3521 2.0226 0.9085
-12.9696 19.5019 1.9826 0.9103
-13.0964 18.2534 1.9018 0.9138
-14.2729 14.8883 1.7459 0.9205
-15.1189 11.8447 1.6259 0.9258
-15.9916 9.9839 1.5959 0.9271
-16.2007 9.3325 1.5827 0.9277
-5.7015 45.1597 2.8226 0.8332
-9.0295 32.9431 2.1182 0.8721
-10.3307 29.3452 1.9292 0.8828
-11.0975 25.5711 1.7286 0.8943
-11.7025 24.5421 1.6860 0.8968
-12.3445 21.7661 1.5517 0.9046
-13.0965 18.2534 1.3931 0.9139
-13.4155 17.3627 1.3606 0.9158
-13.9084 15.5787 1.2950 0.9197
-15.3060 10.3280 1.1450 0.9287
-5.7698 45.7011 1.8164 0.8316
-5.5808 34.3484 1.3722 0.8700
-7.7601 38.9707 1.5668 0.8529
-8.3566 35.3652 1.4329 0.8646
-9.0295 32.9431 1.3469 0.8722
-9.6698 30.9301 1.2778 0.8783
-9.4448 19.8074 0.8653 0.9159
-9.6934 18.6000 0.8270 0.9195
-10.5479 15.8605 0.7511 0.9266
-11.0013 14.2383 0.7095 0.9305
-11.5992 12.0993 0.6609 0.9351
-11.7814 11.4473 0.6477 0.9364
-12.1259 10.2145 0.6252 0.9385
-5.6734 44.9370 0.7651 0.8343
-5.5072 33.8953 0.5801 0.8716
-7.4173 27.0613 0.4740 0.8938
-9.1123 20.9968 0.3866 0.9125
-9.6934 18.6000 0.3543 0.9195
-10.0353 17.6945 0.3436 0.9218
-10.5479 15.8605 0.3218 0.9266
-10.7811 15.0263 0.3124 0.9287
-11.1438 13.4109 0.2945 0.9326
-11.5992 12.0993 0.2831 0.9351
-11.7814 11.4473 0.2775 0.9364
-11.9567 10.8199 0.2724 0.9375
-12.1259 10.2145 0.2678 0.9385
-12.6038 8.5047 0.2568 0.9410
-12.7551 7.9633 0.2540 0.9416
-12.8307 7.3912 0.2501 0.9425
-5.5072 33.8953 -0.1933 0.8717
-7.4173 27.0613 -0.1580 0.8938
-7.9096 25.2999 -0.1492 0.8994
-9.1123 20.9968 -0.1289 0.9125
-9.4448 19.8073 -0.1235 0.9160
-9.6934 18.6000 -0.1181 0.9195
-10.0353 17.6945 -0.1145 0.9219
-10.7811 15.0263 -0.1041 0.9287
-11.0013 14.2383 -0.1013 0.9306
-11.7814 11.4473 -0.0925 0.9364
-11.9567 10.8200 -0.0908 0.9375
-12.1259 10.2145 -0.0893 0.9385
-12.2898 9.6283 -0.0879 0.9395
-12.4489 9.0591 -0.0867 0.9403
-12.6038 8.5047 -0.0856 0.9410
-12.7551 7.9633 -0.0847 0.9416
-12.8307 7.3912 -0.0834 0.9425
-4.1733 46.1922 -1.3060 0.8306
-4.8108 38.1046 -1.0815 0.8575
-5.5072 33.8953 -0.9669 0.8716
-6.2326 31.2999 -0.8986 0.8801
-6.8630 29.0444 -0.8403 0.8874
-7.9096 25.2999 -0.7464 0.8994
-8.3508 23.7213 -0.7081 0.9043
-9.4448 19.8073 -0.6179 0.9159
-9.6934 18.5999 -0.5906 0.9195
-10.0353 17.6945 -0.5728 0.9218
-10.3000 16.7473 -0.5536 0.9243
-10.7810 15.0263 -0.5207 0.9287
-11.5991 12.0993 -0.4720 0.9351
-11.9567 10.8199 -0.4541 0.9375
-12.2898 9.6283 -0.4396 0.9394
-12.4488 9.0591 -0.4335 0.9403
-12.6038 8.5047 -0.4281 0.9410
-12.7551 7.9633 -0.4234 0.9416
-12.8307 7.3912 -0.4169 0.9425
-2.6017 28.7968 -1.4664 0.8906
-3.6217 28.6868 -1.4664 0.8906
-6.6495 28.1406 -1.4664 0.8906
-9.6934 18.5999 -1.0637 0.9194
-10.3000 16.7473 -0.9971 0.9243
-10.5479 15.8605 -0.9660 0.9265
-10.7811 15.0263 -0.9379 0.9286
-11.1437 13.4109 -0.8843 0.9325
-11.5991 12.0993 -0.8500 0.9351
-11.9567 10.8199 -0.8178 0.9375
-12.1259 10.2145 -0.8041 0.9385
-12.6038 8.5047 -0.7711 0.9409
-1.0914 19.9684 -1.4663 0.9229
-2.5050 19.8412 -1.4663 0.9229
-4.5991 19.4632 -1.4664 0.9229
-5.2867 19.2880 -1.4664 0.9229
-6.6412 18.8649 -1.4664 0.9229
-9.2433 17.7362 -1.4665 0.9229
-11.0013 14.2382 -1.3193 0.9304
-11.3414 12.7035 -1.2486 0.9340
-11.5991 12.0993 -1.2290 0.9350
-11.9567 10.8199 -1.1824 0.9374
-12.2898 9.6283 -1.1447 0.9393
-12.4489 9.0591 -1.1289 0.9401
-12.6038 8.5047 -1.1149 0.9408
-12.7551 7.9633 -1.1025 0.9415
-12.8307 7.3912 -1.0857 0.9423
-1.3743 15.2114 -1.4663 0.9405
-2.9828 14.9796 -1.4664 0.9405
-4.0375 14.7306 -1.4664 0.9405
-4.5576 14.5782 -1.4664 0.9405
-5.0720 14.4074 -1.4664 0.9405
-5.5799 14.2185 -1.4664 0.9405
-6.0809 14.0116 -1.4664 0.9405
-6.5742 13.7872 -1.4664 0.9405
-7.0593 13.5454 -1.4664 0.9405
-7.5353 13.2865 -1.4664 0.9405
-9.7622 11.7483 -1.4665 0.9405
-10.1729 11.3946 -1.4665 0.9405
-10.9554 10.6447 -1.4665 0.9405
-11.6827 9.8411 -1.4665 0.9405
-12.0245 9.4205 -1.4665 0.9405
-12.3512 8.9880 -1.4665 0.9405
-12.6038 8.5047 -1.4597 0.9407
-1.1107 12.2941 -1.4663 0.9515
-1.5462 12.2470 -1.4663 0.9515
-2.4107 12.1067 -1.4663 0.9515
-2.8387 12.0136 -1.4663 0.9515
-3.6834 11.7821 -1.4664 0.9515
-4.0992 11.6441 -1.4664 0.9515
-5.3133 11.1429 -1.4664 0.9515
-7.1966 10.0304 -1.4664 0.9515
-7.5480 9.7688 -1.4664 0.9515
-7.8898 9.4950 -1.4664 0.9515
-8.2217 9.2091 -1.4664 0.9515
-8.5433 8.9117 -1.4664 0.9515
-9.1538 8.2835 -1.4665 0.9515
-9.4419 7.9536 -1.4665 0.9515
-9.7182 7.6136 -1.4665 0.9515
-9.9822 7.2641 -1.4665 0.9515
-10.6976 6.1624 -1.4665 0.9515
-1.6597 10.2149 -1.4663 0.9591
-2.7357 9.9809 -1.4663 0.9591
-3.0880 9.8776 -1.4663 0.9591
-3.7807 9.6338 -1.4664 0.9591
-4.4544 9.3416 -1.4664 0.9591
-4.7830 9.1777 -1.4664 0.9591
-5.7311 8.6176 -1.4664 0.9591
-6.3278 8.1896 -1.4664 0.9591
-6.6144 7.9600 -1.4664 0.9591
-6.8926 7.7204 -1.4664 0.9591
-7.4227 7.2122 -1.4664 0.9591
-7.6740 6.9444 -1.4664 0.9591
-7.9155 6.6678 -1.4664 0.9591
-0.8009 8.8647 -1.4663 0.9646
-1.1149 8.8307 -1.4663 0.9646
-1.4275 8.7856 -1.4663 0.9646
-2.0469 8.6624 -1.4663 0.9646
-2.6560 8.4955 -1.4663 0.9646
-2.9557 8.3959 -1.4663 0.9646
-3.2517 8.2858 -1.4663 0.9646
-3.8311 8.0344 -1.4664 0.9646
-4.1137 7.8935 -1.4664 0.9646
-4.3912 7.7426 -1.4664 0.9646
-4.6631 7.5820 -1.4664 0.9646
-5.1890 7.2323 -1.4664 0.9646
-5.4423 7.0437 -1.4664 0.9646
-5.6888 6.8462 -1.4664 0.9646
-7.0071 5.4896 -1.4664 0.9646
-7.3787 4.9790 -1.4664 0.9646
-0.4259 7.7895 -1.4663 0.9687
-0.7019 7.7695 -1.4663 0.9687
-0.9771 7.7397 -1.4663 0.9687
-1.2511 7.7002 -1.4663 0.9687
-1.7940 7.5921 -1.4663 0.9687
-2.0622 7.5237 -1.4663 0.9687
-2.8499 7.2621 -1.4663 0.9687
-3.6055 6.9183 -1.4664 0.9687
-3.8486 6.7860 -1.4664 0.9687
-4.3201 6.4961 -1.4664 0.9687
-4.9860 6.0003 -1.4664 0.9687
-5.3989 5.6317 -1.4664 0.9687
-5.5953 5.4366 -1.4664 0.9687
-5.7847 5.2347 -1.4664 0.9687
-5.9668 5.0262 -1.4664 0.9687
-0.3787 6.9264 -1.4663 0.9720
-0.6242 6.9087 -1.4663 0.9720
-0.8689 6.8822 -1.4663 0.9720
-1.1125 6.8471 -1.4663 0.9720
-1.3547 6.8033 -1.4663 0.9720
-1.5952 6.7510 -1.4663 0.9720
-2.3035 6.5433 -1.4663 0.9720
-2.5342 6.4575 -1.4663 0.9720
-2.7617 6.3636 -1.4663 0.9720
-3.6341 5.9090 -1.4664 0.9720
-4.0440 5.6364 -1.4664 0.9720
-4.4335 5.3355 -1.4664 0.9720
-4.8007 5.0077 -1.4664 0.9720
-4.9754 4.8342 -1.4664 0.9720
-5.3056 4.4693 -1.4664 0.9720
-5.6092 4.0818 -1.4664 0.9720
-0.5614 6.2136 -1.4663 0.9747
-1.6492 6.0171 -1.4663 0.9747
-1.8617 5.9548 -1.4663 0.9747
-3.0779 5.4271 -1.4663 0.9747
-3.2685 5.3145 -1.4663 0.9747
-3.4550 5.1952 -1.4663 0.9747
-3.8147 4.9371 -1.4664 0.9747
-3.9875 4.7987 -1.4664 0.9747
-4.1552 4.6542 -1.4664 0.9747
-4.3177 4.5039 -1.4664 0.9747
-4.4748 4.3479 -1.4664 0.9747
-4.6262 4.1864 -1.4664 0.9747
-4.7719 4.0197 -1.4664 0.9747
-0.7093 5.6186 -1.4663 0.9769
-1.1060 5.5542 -1.4663 0.9769
-1.8806 5.3419 -1.4663 0.9769
-2.2546 5.1951 -1.4663 0.9769
-3.1362 4.7157 -1.4663 0.9769
-3.9192 4.0882 -1.4664 0.9769
-4.0618 3.9466 -1.4664 0.9769
-5.1613 3.4828 -1.6121 0.9746
-5.2899 3.3026 -1.6147 0.9746
-5.4128 3.1181 -1.6174 0.9745
-0.2828 5.1718 -1.4663 0.9787
-0.4661 5.1585 -1.4663 0.9787
-1.1911 5.0408 -1.4663 0.9787
-1.3692 4.9954 -1.4663 0.9787
-1.5455 4.9437 -1.4663 0.9787
-1.7200 4.8857 -1.4663 0.9787
-2.2294 4.6754 -1.4663 0.9787
-2.3938 4.5933 -1.4663 0.9787
-2.5553 4.5055 -1.4663 0.9787
-2.8683 4.3130 -1.4663 0.9787
-3.1669 4.0988 -1.4663 0.9787
-4.3551 3.6686 -1.6120 0.9766
-4.6162 3.3592 -1.6162 0.9765
-4.8505 3.0283 -1.6188 0.9765
-1.6363 0.9426 -0.5346 0.9922
-0.2689 4.9190 -1.5152 0.9796
-0.4394 4.8636 -1.5020 0.9798
-0.9358 4.7000 -1.4740 0.9801
-1.2607 4.5994 -1.4669 0.9802
-1.5846 4.5011 -1.4677 0.9802
-1.7463 4.4498 -1.4703 0.9802
-1.9083 4.3972 -1.4744 0.9801
-2.2384 4.2951 -1.4897 0.9799
-2.5768 4.1897 -1.5129 0.9796
-2.7535 4.1404 -1.5294 0.9794
-2.9342 4.0896 -1.5481 0.9792
-3.1193 4.0371 -1.5692 0.9789
-3.3096 3.9829 -1.5928 0.9786
-3.6290 3.7855 -1.6129 0.9783
-4.2554 3.0967 -1.6188 0.9782
-1.5752 0.9835 -0.5712 0.9923
-0.4362 4.8278 -1.6113 0.9798
-0.6044 4.7874 -1.6040 0.9799
-1.0930 4.6257 -1.5799 0.9802
-1.4149 4.5258 -1.5762 0.9802
-2.2285 4.2762 -1.6029 0.9799
-2.3913 4.2164 -1.6113 0.9798
-2.5404 4.1306 -1.6119 0.9798
-2.8301 3.9445 -1.6137 0.9797
-3.1069 3.7390 -1.6159 0.9797
-3.2400 3.6291 -1.6172 0.9797
-3.3695 3.5148 -1.6185 0.9797
-3.4926 3.3936 -1.6187 0.9797
-3.7245 3.1374 -1.6188 0.9797
-3.9376 2.8654 -1.6188 0.9797
-4.0368 2.7239 -1.6188 0.9797
-1.5618 0.9751 -0.6120 0.9923
-0.4068 4.5026 -1.6167 0.9810
-0.5661 4.4837 -1.6161 0.9810
-0.8821 4.4299 -1.6153 0.9810
-1.1937 4.3550 -1.6148 0.9810
-1.3474 4.3099 -1.6148 0.9810
-1.6499 4.2042 -1.6151 0.9810
-1.7983 4.1436 -1.6153 0.9810
-1.9446 4.0781 -1.6157 0.9810
-2.0886 4.0077 -1.6161 0.9810
-2.2302 3.9324 -1.6167 0.9810
-2.3692 3.8522 -1.6173 0.9810
-2.5055 3.7675 -1.6180 0.9810
-2.7676 3.5819 -1.6187 0.9810
-3.0146 3.3767 -1.6187 0.9810
-3.3563 3.0372 -1.6187 0.9810
-3.5633 2.7916 -1.6187 0.9810
-1.5496 0.9675 -0.6533 0.9923
-1.5190 0.8750 -0.6269 0.9926
-0.2306 4.2176 -1.6187 0.9821
-0.5291 4.1907 -1.6187 0.9821
-0.9714 4.1108 -1.6187 0.9821
-1.1166 4.0737 -1.6187 0.9821
-1.2604 4.0316 -1.6187 0.9821
-1.8180 3.8127 -1.6187 0.9821
-1.9521 3.7458 -1.6187 0.9821
-3.1320 2.8343 -1.6187 0.9821
-3.5831 2.2370 -1.6187 0.9821
-0.3559 3.9390 -1.6187 0.9831
-0.6343 3.9038 -1.6187 0.9831
-0.7724 3.8789 -1.6187 0.9831
-0.9095 3.8491 -1.6187 0.9831
-1.0455 3.8144 -1.6187 0.9831
-1.1801 3.7749 -1.6187 0.9831
-1.8279 3.5074 -1.6187 0.9831
-1.9512 3.4403 -1.6187 0.9831
-2.0720 3.3689 -1.6187 0.9831
-2.4182 3.1297 -1.6187 0.9831
-2.6340 2.9504 -1.6187 0.9831
-2.9326 2.6538 -1.6187 0.9831
-3.0249 2.5481 -1.6187 0.9831
-3.1980 2.3272 -1.6187 0.9831
-3.2785 2.2123 -1.6187 0.9831
-1.3469 0.8409 -0.6498 0.9932
-1.2518 0.7212 -0.5913 0.9938
-0.2028 3.7086 -1.6187 0.9839
-1.3569 3.4575 -1.6187 0.9839
-1.5986 3.3526 -1.6187 0.9839
-1.9458 3.1638 -1.6187 0.9839
-2.0568 3.0927 -1.6187 0.9839
-2.1652 3.0178 -1.6187 0.9839
-2.2709 2.9391 -1.6187 0.9839
-2.3738 2.8567 -1.6187 0.9839
-2.7540 2.4922 -1.6187 0.9839
-3.0032 2.1855 -1.6187 0.9839
-0.1909 3.4917 -1.6187 0.9847
-0.3146 3.4828 -1.6187 0.9847
-0.4380 3.4694 -1.6187 0.9847
-0.5608 3.4517 -1.6187 0.9847
-0.6829 3.4296 -1.6187 0.9847
-0.9244 3.3726 -1.6187 0.9847
-1.1612 3.2986 -1.6187 0.9847
-1.5051 3.1565 -1.6187 0.9847
-1.8320 2.9787 -1.6187 0.9847
-2.0386 2.8414 -1.6187 0.9847
-2.1381 2.7673 -1.6187 0.9847
-2.3290 2.6087 -1.6187 0.9847
-2.5081 2.4370 -1.6187 0.9847
-2.5930 2.3464 -1.6187 0.9847
-2.7528 2.1567 -1.6187 0.9847
-2.8276 2.0577 -1.6187 0.9847
-1.1597 0.7826 -0.6476 0.9939
-1.1664 0.6719 -0.6231 0.9941
-0.1802 3.2950 -1.6187 0.9854
-0.4133 3.2739 -1.6187 0.9854
-0.5292 3.2572 -1.6187 0.9854
-0.6444 3.2364 -1.6187 0.9854
-0.7589 3.2115 -1.6187 0.9854
-1.0958 3.1127 -1.6187 0.9854
-1.3138 3.0272 -1.6187 0.9854
-1.5251 2.9264 -1.6187 0.9854
-1.6280 2.8705 -1.6187 0.9854
-1.7288 2.8109 -1.6187 0.9854
-1.8274 2.7478 -1.6187 0.9854
-1.9237 2.6812 -1.6187 0.9854
-2.1090 2.5381 -1.6187 0.9854
-2.2837 2.3822 -1.6187 0.9854
-2.5239 2.1261 -1.6187 0.9854
-1.1441 0.8325 -0.6940 0.9937
-0.1703 3.1155 -1.6187 0.9860
-0.3908 3.0956 -1.6187 0.9860
-0.6093 3.0601 -1.6187 0.9860
-0.9310 2.9781 -1.6187 0.9860
-1.2422 2.8623 -1.6187 0.9860
-1.4420 2.7670 -1.6187 0.9860
-1.9078 2.4691 -1.6187 0.9860
-2.0780 2.3276 -1.6187 0.9860
-2.2378 2.1744 -1.6187 0.9860
-1.0672 0.7202 -0.6679 0.9942
-0.2659 2.9434 -1.6187 0.9866
-0.3702 2.9321 -1.6187 0.9866
-0.4740 2.9172 -1.6187 0.9866
-0.6796 2.8762 -1.6187 0.9866
-0.7812 2.8503 -1.6187 0.9866
-0.8819 2.8208 -1.6187 0.9866
-1.1766 2.7111 -1.6187 0.9866
-1.2720 2.6677 -1.6187 0.9866
-1.4580 2.5708 -1.6187 0.9866
-1.6366 2.4609 -1.6187 0.9866
-1.7229 2.4013 -1.6187 0.9866
-1.8070 2.3387 -1.6187 0.9866
-1.8888 2.2731 -1.6187 0.9866
-1.9683 2.2047 -1.6187 0.9866
-2.0453 2.1335 -1.6187 0.9866
-2.1914 1.9831 -1.6187 0.9866
-0.9981 0.8408 -0.7148 0.9941
-0.9981 0.7263 -0.6761 0.9944
-1.0357 0.6466 -0.6687 0.9944
-1.0525 0.6063 -0.6652 0.9945
-0.2523 2.7923 -1.6187 0.9871
-0.3512 2.7816 -1.6187 0.9871
-0.4496 2.7674 -1.6187 0.9871
-1.0242 2.6099 -1.6187 0.9871
-1.1162 2.5719 -1.6187 0.9871
-1.2067 2.5307 -1.6187 0.9871
-1.3831 2.4388 -1.6187 0.9871
-1.4688 2.3882 -1.6187 0.9871
-1.6344 2.2780 -1.6187 0.9871
-2.0108 1.9538 -1.6187 0.9871
-0.9268 0.8387 -0.7217 0.9942
-0.9167 0.7722 -0.6920 0.9945
-0.9323 0.7304 -0.6838 0.9945
-0.9712 0.6554 -0.6764 0.9946
-0.9887 0.6173 -0.6730 0.9946
-1.0050 0.5789 -0.6696 0.9947
