ply
format ascii 1.0
element vertex 466
property float32 x
property float32 y
property float32 z
property float32 I
end_header
-4.9012 48.7414 8.6378 0.8196
-6.0203 44.0043 7.8314 0.8349
-6.9662 40.1681 7.1884 0.8474
-7.8406 37.2483 6.7118 0.8568
-9.7161 29.8469 5.5346 0.8803
-5.5581 40.6260 6.2816 0.8471
-6.8464 39.4773 6.1380 0.8503
-7.8406 37.2483 5.8313 0.8572
-8.5796 29.9531 4.7732 0.8815
-9.7254 29.8755 4.8132 0.8806
-4.8754 48.4844 6.3455 0.8216
-6.8515 39.5069 5.2214 0.8507
-7.8406 37.2483 4.9568 0.8577
-8.5789 34.5745 4.6388 0.8662
-8.5860 29.9756 4.0604 0.8818
-9.6718 29.7106 4.0688 0.8816
-4.8666 48.3972 5.2232 0.8223
-6.8132 39.2864 4.2816 0.8518
-7.8406 37.2482 4.0874 0.8580
-8.5788 34.5743 3.8252 0.8665
-9.7022 29.8041 3.3657 0.8815
-3.2055 49.6526 4.2120 0.8189
-5.5633 40.6639 3.4744 0.8481
-7.8407 37.2489 3.2223 0.8583
-7.8407 37.2488 2.3604 0.8585
-8.5844 34.5968 2.2104 0.8669
-6.0515 44.2323 1.7604 0.8363
-6.9952 40.3354 1.6142 0.8488
-8.5844 34.5968 1.4056 0.8670
-9.2721 32.3706 1.3277 0.8739
-8.1353 24.9906 1.0363 0.9001
17.5597 29.0783 0.5738 0.8729
-8.0126 24.6137 0.4373 0.9016
-3.1013 48.0379 -0.2710 0.8248
-4.7243 46.9818 -0.2658 0.8279
-6.0750 44.4040 -0.2524 0.8359
-6.3974 30.3924 -0.1749 0.8832
-7.5822 26.4712 -0.1550 0.8957
-8.0126 24.6137 -0.1457 0.9016
-2.9470 45.6483 -1.2880 0.8327
-6.3974 30.3924 -0.8745 0.8831
-7.0451 28.3930 -0.8237 0.8895
24.2906 20.7013 -1.6186 0.8800
23.5353 21.5564 -1.6186 0.8800
21.9354 23.1828 -1.6186 0.8800
17.5084 23.0067 -1.4662 0.8907
16.6750 23.6179 -1.4662 0.8907
15.8202 24.1989 -1.4662 0.8907
14.0513 25.2675 -1.4662 0.8907
13.1393 25.7538 -1.4662 0.8907
10.3073 27.0126 -1.4663 0.8907
9.3353 27.3640 -1.4663 0.8907
7.3566 27.9611 -1.4663 0.8907
6.3526 28.2063 -1.4663 0.8907
3.2969 28.7247 -1.4663 0.8907
1.2365 28.8872 -1.4663 0.8907
0.2032 28.9131 -1.4663 0.8906
-0.8303 28.9021 -1.4663 0.8906
-3.9193 28.6475 -1.4664 0.8906
-5.9559 28.2946 -1.4664 0.8906
-6.9634 28.0638 -1.4664 0.8906
-7.5822 26.4711 -1.3964 0.8956
-8.0125 24.6137 -1.3127 0.9015
16.8014 14.3187 -1.6186 0.9153
16.2790 14.9102 -1.6186 0.9153
15.7357 15.4825 -1.6186 0.9153
15.1723 16.0351 -1.6186 0.9153
13.2160 15.0074 -1.4662 0.9229
12.6712 15.4702 -1.4662 0.9229
12.1102 15.9133 -1.4662 0.9229
10.9425 16.7378 -1.4662 0.9229
7.7924 18.4170 -1.4663 0.9229
7.1292 18.6838 -1.4663 0.9229
6.4568 18.9267 -1.4663 0.9229
4.3939 19.5094 -1.4663 0.9229
2.2803 19.8678 -1.4663 0.9229
1.5688 19.9367 -1.4663 0.9229
0.8552 19.9801 -1.4663 0.9229
0.1405 19.9980 -1.4663 0.9229
-0.5743 19.9903 -1.4663 0.9229
-2.0009 19.8983 -1.4663 0.9229
-3.4173 19.7047 -1.4664 0.9229
-4.1194 19.5700 -1.4664 0.9229
-4.8163 19.4104 -1.4664 0.9229
-5.5070 19.2259 -1.4664 0.9229
12.0180 11.8247 -1.6186 0.9345
11.5468 12.2034 -1.6129 0.9347
10.0936 11.4618 -1.4662 0.9405
9.2491 12.1536 -1.4663 0.9405
8.8088 12.4765 -1.4663 0.9405
7.4228 13.3478 -1.4663 0.9405
6.9409 13.6046 -1.4663 0.9405
6.4503 13.8440 -1.4663 0.9405
5.9514 14.0657 -1.4663 0.9405
5.4448 14.2695 -1.4663 0.9405
4.9314 14.4551 -1.4663 0.9405
4.4116 14.6221 -1.4663 0.9405
1.1981 15.2263 -1.4663 0.9405
0.6532 15.2595 -1.4663 0.9405
-0.4386 15.2672 -1.4663 0.9405
-1.5282 15.1969 -1.4663 0.9405
-2.6099 15.0490 -1.4663 0.9405
-4.2058 14.6833 -1.4664 0.9405
-4.7279 14.5236 -1.4664 0.9405
10.6804 8.4623 -1.6186 0.9466
10.0486 9.2037 -1.6186 0.9466
9.3494 9.8810 -1.6159 0.9467
8.3053 9.4311 -1.4928 0.9506
6.7545 10.3318 -1.4663 0.9515
5.9992 10.7880 -1.4663 0.9515
5.6098 10.9955 -1.4663 0.9515
2.7789 6.5678 -0.8471 0.9717
4.4006 11.5329 -1.4663 0.9515
3.9856 11.6829 -1.4663 0.9515
3.1409 11.9378 -1.4663 0.9515
2.7122 12.0425 -1.4663 0.9515
2.2801 12.1317 -1.4663 0.9515
1.8450 12.2055 -1.4663 0.9515
1.4076 12.2637 -1.4663 0.9515
0.5279 12.3329 -1.4663 0.9515
-0.3545 12.3392 -1.4663 0.9515
-0.7953 12.3187 -1.4663 0.9515
-1.6733 12.2304 -1.4663 0.9515
-2.1093 12.1628 -1.4663 0.9515
-2.9728 11.9811 -1.4663 0.9515
8.9541 7.0945 -1.6187 0.9549
8.6948 7.4100 -1.6187 0.9549
8.1433 8.0122 -1.6187 0.9549
6.8668 8.3837 -1.5355 0.9572
6.2670 8.2351 -1.4663 0.9591
5.6627 8.6618 -1.4663 0.9591
2.7656 6.5363 -1.0056 0.9717
3.6893 9.6687 -1.4663 0.9591
2.6332 10.0081 -1.4663 0.9591
2.2738 10.0959 -1.4663 0.9591
1.5467 10.2325 -1.4663 0.9591
1.1800 10.2813 -1.4663 0.9591
0.0727 10.3486 -1.4663 0.9591
-0.2972 10.3446 -1.4663 0.9591
-1.0354 10.2970 -1.4663 0.9591
-1.7684 10.1968 -1.4663 0.9591
-2.4923 10.0444 -1.4663 0.9591
-2.8497 9.9489 -1.4663 0.9591
-3.2035 9.8407 -1.4663 0.9591
7.7013 6.1019 -1.6187 0.9610
7.2457 6.6365 -1.6187 0.9610
6.2162 7.5894 -1.6161 0.9610
5.8916 7.7418 -1.6027 0.9613
4.8704 7.4498 -1.4663 0.9646
4.0450 7.9284 -1.4663 0.9646
3.0424 6.5298 -1.1867 0.9712
2.2647 8.6078 -1.4663 0.9646
1.9557 8.6833 -1.4663 0.9646
1.6441 8.7476 -1.4663 0.9646
1.3304 8.8008 -1.4663 0.9646
0.0626 8.9006 -1.4663 0.9646
-1.5209 8.7700 -1.4663 0.9646
-2.1436 8.6390 -1.4663 0.9646
-2.4510 8.5569 -1.4663 0.9646
-2.7552 8.4638 -1.4663 0.9646
6.7498 5.3480 -1.6187 0.9656
5.6915 6.4630 -1.6187 0.9656
5.4568 6.6623 -1.6187 0.9656
5.2139 6.8512 -1.6182 0.9656
3.7914 6.8178 -1.4663 0.9687
3.5453 6.9489 -1.4663 0.9687
3.0357 6.5154 -1.3510 0.9712
2.5188 7.3833 -1.4663 0.9687
1.9849 7.5444 -1.4663 0.9687
1.1660 7.7135 -1.4663 0.9687
0.8895 7.7503 -1.4663 0.9687
0.6120 7.7771 -1.4663 0.9687
-0.2240 7.7980 -1.4663 0.9687
-0.5026 7.7850 -1.4663 0.9687
-0.7805 7.7621 -1.4663 0.9687
-1.0574 7.7292 -1.4663 0.9687
-1.3330 7.6865 -1.4663 0.9687
-1.6069 7.6340 -1.4663 0.9687
-1.8787 7.5717 -1.4663 0.9687
-2.1482 7.4997 -1.4663 0.9687
-2.4148 7.4181 -1.4663 0.9687
6.0020 4.7555 -1.6187 0.9692
5.8282 4.9670 -1.6187 0.9692
5.6470 5.1722 -1.6187 0.9692
5.4585 5.3707 -1.6187 0.9692
5.2631 5.5624 -1.6187 0.9692
4.1853 6.4019 -1.6168 0.9692
3.6139 6.4986 -1.5718 0.9701
1.7650 6.7085 -1.4663 0.9720
1.5241 6.7673 -1.4663 0.9720
1.2813 6.8175 -1.4663 0.9720
1.0368 6.8589 -1.4663 0.9720
0.5442 6.9155 -1.4663 0.9720
0.0487 6.9367 -1.4663 0.9720
-0.1992 6.9340 -1.4663 0.9720
-0.6940 6.9021 -1.4663 0.9720
-0.9403 6.8729 -1.4663 0.9720
-1.1854 6.8349 -1.4663 0.9720
-1.6706 6.7328 -1.4663 0.9720
-1.9102 6.6688 -1.4663 0.9720
5.3982 4.2771 -1.6187 0.9721
5.2419 4.4674 -1.6187 0.9721
4.9094 4.8304 -1.6187 0.9721
4.7336 5.0028 -1.6187 0.9721
4.3642 5.3282 -1.6187 0.9721
4.1709 5.4808 -1.6187 0.9721
3.9724 5.6264 -1.6187 0.9721
3.7687 5.7648 -1.6187 0.9721
3.5603 5.8958 -1.6187 0.9721
3.3427 6.0110 -1.6165 0.9721
2.5456 6.0164 -1.5354 0.9735
2.2521 5.9023 -1.4847 0.9744
2.0145 5.9048 -1.4663 0.9747
1.8021 5.9730 -1.4663 0.9747
1.5875 6.0337 -1.4663 0.9747
1.3708 6.0866 -1.4663 0.9747
1.1524 6.1317 -1.4663 0.9747
0.4894 6.2198 -1.4663 0.9747
0.0439 6.2389 -1.4663 0.9747
-0.1792 6.2365 -1.4663 0.9747
-1.0661 6.1473 -1.4663 0.9747
-1.5025 6.0555 -1.4663 0.9747
-1.7180 5.9979 -1.4663 0.9747
4.9001 3.8824 -1.6187 0.9745
4.6102 4.2226 -1.6187 0.9745
4.2968 4.5411 -1.6187 0.9745
4.1317 4.6918 -1.6187 0.9745
3.9614 4.8365 -1.6187 0.9745
3.4210 5.2327 -1.6187 0.9745
2.6376 5.6609 -1.6170 0.9745
2.4296 5.7422 -1.6144 0.9746
2.2193 5.8162 -1.6118 0.9746
1.9659 5.7625 -1.5764 0.9752
1.7084 5.6624 -1.5314 0.9759
1.0460 5.5658 -1.4663 0.9769
0.8464 5.5996 -1.4663 0.9769
0.6457 5.6263 -1.4663 0.9769
0.2422 5.6581 -1.4663 0.9769
-0.1626 5.6609 -1.4663 0.9769
-0.3648 5.6515 -1.4663 0.9769
-0.5666 5.6349 -1.4663 0.9769
-0.9677 5.5800 -1.4663 0.9769
-1.5594 5.4444 -1.4663 0.9769
-1.7530 5.3851 -1.4663 0.9769
4.4816 3.5509 -1.6187 0.9765
4.2165 3.8620 -1.6187 0.9765
4.0758 4.0102 -1.6187 0.9765
3.9299 4.1533 -1.6187 0.9765
3.6231 4.4235 -1.6187 0.9765
3.4627 4.5501 -1.6187 0.9765
3.1288 4.7859 -1.6187 0.9765
2.9558 4.8947 -1.6187 0.9765
2.4149 5.1829 -1.6187 0.9765
2.0376 5.3400 -1.6180 0.9765
1.6464 5.4570 -1.6136 0.9766
1.4485 5.5055 -1.6116 0.9766
1.0117 5.3834 -1.5507 0.9775
0.8026 5.3096 -1.5202 0.9779
0.2215 5.1749 -1.4663 0.9787
-0.1487 5.1775 -1.4663 0.9787
-0.3337 5.1689 -1.4663 0.9787
-0.5182 5.1537 -1.4663 0.9787
-0.7021 5.1318 -1.4663 0.9787
-0.8851 5.1035 -1.4663 0.9787
-1.0669 5.0686 -1.4663 0.9787
-1.2474 5.0272 -1.4663 0.9787
-1.4263 4.9794 -1.4663 0.9787
4.0054 3.4136 -1.6187 0.9782
3.8809 3.5546 -1.6187 0.9782
3.7513 3.6910 -1.6187 0.9782
3.6170 3.8227 -1.6187 0.9782
3.4781 3.9496 -1.6187 0.9782
3.3347 4.0713 -1.6187 0.9782
3.0354 4.2992 -1.6187 0.9782
2.8798 4.4049 -1.6187 0.9782
2.7205 4.5050 -1.6187 0.9782
2.2226 4.7704 -1.6187 0.9782
2.0507 4.8467 -1.6187 0.9782
1.8762 4.9170 -1.6187 0.9782
1.6992 4.9809 -1.6187 0.9782
1.3381 5.0860 -1.6176 0.9782
0.7837 5.1842 -1.6127 0.9783
0.4048 5.1445 -1.5872 0.9786
0.2174 5.0777 -1.5632 0.9790
0.0352 5.0172 -1.5432 0.9792
-0.3166 4.9036 -1.5114 0.9796
-0.4875 4.8479 -1.4986 0.9798
-0.6557 4.7927 -1.4879 0.9800
-0.8217 4.7379 -1.4790 0.9801
-1.4762 4.5347 -1.4668 0.9802
3.8168 3.0241 -1.6187 0.9797
3.7063 3.1586 -1.6187 0.9797
3.5910 3.2891 -1.6187 0.9797
3.3469 3.5372 -1.6187 0.9797
3.0856 3.7673 -1.6187 0.9797
2.8086 3.9781 -1.6187 0.9797
2.6647 4.0759 -1.6187 0.9797
2.5173 4.1685 -1.6187 0.9797
2.3667 4.2559 -1.6187 0.9797
2.2131 4.3377 -1.6187 0.9797
2.0566 4.4141 -1.6187 0.9797
1.7360 4.5497 -1.6187 0.9797
0.8995 4.7859 -1.6187 0.9797
0.5546 4.8324 -1.6169 0.9797
0.3813 4.8454 -1.6156 0.9797
0.2077 4.8525 -1.6145 0.9797
0.0341 4.8539 -1.6135 0.9797
-0.1393 4.8494 -1.6126 0.9798
-0.3124 4.8390 -1.6118 0.9798
-0.6528 4.7715 -1.6009 0.9799
-0.8181 4.7171 -1.5914 0.9800
-0.9815 4.6629 -1.5839 0.9801
-1.3058 4.5587 -1.5763 0.9802
-1.4681 4.5098 -1.5765 0.9802
3.4451 2.9360 -1.6187 0.9810
3.3379 3.0573 -1.6187 0.9810
3.2266 3.1746 -1.6187 0.9810
2.7412 3.6020 -1.6187 0.9810
2.4769 3.7887 -1.6187 0.9810
2.1999 3.9559 -1.6187 0.9810
2.0571 4.0320 -1.6187 0.9810
1.9117 4.1030 -1.6187 0.9810
1.6137 4.2291 -1.6187 0.9810
1.3075 4.3335 -1.6187 0.9810
1.1517 4.3775 -1.6187 0.9810
0.8361 4.4486 -1.6187 0.9810
0.6765 4.4757 -1.6187 0.9810
-0.1299 4.5224 -1.6179 0.9810
-0.2913 4.5129 -1.6172 0.9810
-0.4523 4.4978 -1.6166 0.9810
-0.6125 4.4773 -1.6160 0.9810
-0.9304 4.4198 -1.6152 0.9810
-1.0875 4.3830 -1.6149 0.9810
-1.2434 4.3411 -1.6148 0.9810
3.2148 2.7398 -1.6187 0.9821
2.7916 3.1700 -1.6187 0.9821
2.5580 3.3613 -1.6187 0.9821
2.4362 3.4506 -1.6187 0.9821
2.1835 3.6158 -1.6187 0.9821
2.0529 3.6915 -1.6187 0.9821
1.5058 3.9464 -1.6187 0.9821
1.3638 3.9978 -1.6187 0.9821
1.2201 4.0439 -1.6187 0.9821
0.7802 4.1513 -1.6187 0.9821
0.6313 4.1766 -1.6187 0.9821
0.3314 4.2110 -1.6187 0.9821
0.1806 4.2201 -1.6187 0.9821
-0.7218 4.1619 -1.6187 0.9821
-0.8701 4.1335 -1.6187 0.9821
2.9166 2.6713 -1.6187 0.9831
2.8192 2.7738 -1.6187 0.9831
2.5061 3.0597 -1.6187 0.9831
2.3951 3.1473 -1.6187 0.9831
2.2811 3.2309 -1.6187 0.9831
2.1642 3.3104 -1.6187 0.9831
2.0445 3.3856 -1.6187 0.9831
1.7974 3.5230 -1.6187 0.9831
1.5412 3.6425 -1.6187 0.9831
1.2770 3.7432 -1.6187 0.9831
1.1424 3.7865 -1.6187 0.9831
0.8690 3.8584 -1.6187 0.9831
0.4510 3.9293 -1.6187 0.9831
0.3103 3.9429 -1.6187 0.9831
0.1691 3.9515 -1.6187 0.9831
0.0278 3.9550 -1.6187 0.9831
-0.1136 3.9534 -1.6187 0.9831
-1.0891 3.8022 -1.6187 0.9831
-1.2243 3.7609 -1.6187 0.9831
2.8268 2.4091 -1.6187 0.9839
2.7389 2.5086 -1.6187 0.9839
2.6475 2.6049 -1.6187 0.9839
2.5527 2.6979 -1.6187 0.9839
2.3535 2.8733 -1.6187 0.9839
2.2493 2.9557 -1.6187 0.9839
2.1422 3.0341 -1.6187 0.9839
1.3241 3.4702 -1.6187 0.9839
1.1992 3.5153 -1.6187 0.9839
0.9450 3.5920 -1.6187 0.9839
0.1588 3.7108 -1.6187 0.9839
-0.3716 3.6956 -1.6187 0.9839
-0.5035 3.6800 -1.6187 0.9839
-0.8945 3.6049 -1.6187 0.9839
2.7409 2.1717 -1.6187 0.9847
2.6615 2.2683 -1.6187 0.9847
2.5788 2.3619 -1.6187 0.9847
2.4927 2.4526 -1.6187 0.9847
2.4034 2.5401 -1.6187 0.9847
2.2159 2.7053 -1.6187 0.9847
2.1177 2.7828 -1.6187 0.9847
2.0169 2.8567 -1.6187 0.9847
1.6996 3.0562 -1.6187 0.9847
1.5892 3.1150 -1.6187 0.9847
1.3627 3.2206 -1.6187 0.9847
1.2467 3.2672 -1.6187 0.9847
0.7684 3.4116 -1.6187 0.9847
0.5227 3.4577 -1.6187 0.9847
0.3988 3.4742 -1.6187 0.9847
0.2743 3.4862 -1.6187 0.9847
-0.1004 3.4956 -1.6187 0.9847
-0.2253 3.4898 -1.6187 0.9847
-0.3499 3.4795 -1.6187 0.9847
-0.7203 3.4220 -1.6187 0.9847
-0.8422 3.3941 -1.6187 0.9847
-1.0825 3.3253 -1.6187 0.9847
2.5116 2.1405 -1.6187 0.9854
2.4335 2.2289 -1.6187 0.9854
2.3523 2.3144 -1.6187 0.9854
2.2680 2.3970 -1.6187 0.9854
2.0910 2.5529 -1.6187 0.9854
1.9984 2.6260 -1.6187 0.9854
1.3937 2.9912 -1.6187 0.9854
1.2859 3.0391 -1.6187 0.9854
0.9532 3.1593 -1.6187 0.9854
0.1411 3.2969 -1.6187 0.9854
0.0232 3.2999 -1.6187 0.9854
-0.3301 3.2834 -1.6187 0.9854
2.4456 1.9377 -1.6187 0.9860
2.2241 2.1883 -1.6187 0.9860
1.7996 2.5489 -1.6187 0.9860
1.6129 2.6710 -1.6187 0.9860
1.5164 2.7269 -1.6187 0.9860
1.4180 2.7794 -1.6187 0.9860
1.3178 2.8283 -1.6187 0.9860
1.0075 2.9531 -1.6187 0.9860
0.7939 3.0175 -1.6187 0.9860
0.6856 3.0440 -1.6187 0.9860
0.5763 3.0665 -1.6187 0.9860
0.4664 3.0852 -1.6187 0.9860
0.3558 3.0999 -1.6187 0.9860
0.0219 3.1202 -1.6187 0.9860
-0.4229 3.0914 -1.6187 0.9860
-0.5332 3.0744 -1.6187 0.9860
-0.6427 3.0533 -1.6187 0.9860
-0.7514 3.0284 -1.6187 0.9860
-0.9658 2.9670 -1.6187 0.9860
2.3164 1.8354 -1.6187 0.9866
2.1794 1.9962 -1.6187 0.9866
2.1067 2.0728 -1.6187 0.9866
1.8727 2.2864 -1.6187 0.9866
1.7898 2.3519 -1.6187 0.9866
1.6172 2.4737 -1.6187 0.9866
1.5277 2.5299 -1.6187 0.9866
1.2482 2.6789 -1.6187 0.9866
1.0536 2.7613 -1.6187 0.9866
0.8537 2.8295 -1.6187 0.9866
0.7520 2.8582 -1.6187 0.9866
0.6494 2.8832 -1.6187 0.9866
0.3370 2.9362 -1.6187 0.9866
-0.0849 2.9542 -1.6187 0.9866
-0.1904 2.9493 -1.6187 0.9866
-0.5050 2.9120 -1.6187 0.9866
-0.7117 2.8685 -1.6187 0.9866
1.8529 2.1041 -1.6187 0.9871
1.7765 2.1690 -1.6187 0.9871
1.6979 2.2311 -1.6187 0.9871
1.6171 2.2904 -1.6187 0.9871
1.3626 2.4503 -1.6187 0.9871
0.8098 2.6842 -1.6187 0.9871
0.6160 2.7352 -1.6187 0.9871
0.4191 2.7722 -1.6187 0.9871
0.1199 2.8011 -1.6187 0.9871
0.0197 2.8036 -1.6187 0.9871
-0.1806 2.7979 -1.6187 0.9871
-0.6752 2.7212 -1.6187 0.9871
-0.7720 2.6953 -1.6187 0.9871
-0.8679 2.6660 -1.6187 0.9871
