ply
format ascii 1.0
element vertex 436
property float32 x
property float32 y
property float32 z
property float32 I
end_header
24.0175 -3.1112 2.6006 0.9072
29.3035 -9.2821 2.6021 0.8839
28.7337 -19.2994 2.1464 0.8705
25.8115 -41.8835 1.9399 0.8212
24.0097 -3.1102 0.9546 0.9076
25.4068 -38.1201 -0.2579 0.8326
24.0032 -3.1093 -0.1363 0.9077
24.0510 -36.0860 -1.2211 0.8407
29.0131 -37.4559 -1.3341 0.8273
12.6096 -12.2123 -0.4943 0.9322
15.1153 -10.1524 -0.5127 0.9297
24.0000 -3.1089 -0.6814 0.9077
16.3598 -24.5462 -1.4960 0.8886
17.2242 -23.9503 -1.4961 0.8886
12.4791 -12.0858 -0.8810 0.9328
12.7188 -11.4697 -0.8686 0.9337
13.8661 -10.8200 -0.8920 0.9320
13.9218 -10.0876 -0.8719 0.9335
15.1297 -10.1621 -0.9243 0.9296
15.1296 -9.3986 -0.9033 0.9311
25.8092 -13.5909 -1.4793 0.8897
26.6525 -11.6957 -1.4761 0.8900
27.3512 -9.7473 -1.4725 0.8902
27.6434 -8.7562 -1.4706 0.8904
28.9019 -0.6376 -1.4661 0.8907
28.9063 0.3911 -1.4661 0.8907
28.8741 1.4193 -1.4661 0.8907
28.8054 2.4457 -1.4661 0.8907
28.7164 3.4710 -1.4669 0.8906
30.3561 5.8841 -1.5681 0.8835
10.4912 -17.0238 -1.4662 0.9229
11.0903 -16.6397 -1.4662 0.9229
12.8001 -15.3631 -1.4662 0.9229
13.8602 -14.4139 -1.4662 0.9229
14.8500 -13.3916 -1.4662 0.9229
15.3171 -12.8548 -1.4662 0.9229
13.9265 -10.8672 -1.2952 0.9316
14.0145 -10.1548 -1.2690 0.9329
17.6930 -9.3170 -1.4662 0.9229
18.0134 -8.6816 -1.4662 0.9229
18.3108 -8.0352 -1.4662 0.9229
19.1970 -6.0808 -1.4765 0.9224
19.9079 -5.5347 -1.5150 0.9205
21.7433 -3.6073 -1.6161 0.9154
21.8915 -2.8358 -1.6185 0.9153
21.9786 -2.0551 -1.6185 0.9153
21.9150 2.6489 -1.6185 0.9153
8.9169 -12.3991 -1.4662 0.9405
9.3524 -12.0739 -1.4662 0.9405
10.1873 -11.3782 -1.4662 0.9405
11.1988 -10.8459 -1.4967 0.9393
11.7406 -10.5876 -1.5178 0.9384
12.2915 -10.3156 -1.5406 0.9376
12.8459 -10.0240 -1.5643 0.9366
13.4180 -9.7226 -1.5908 0.9356
13.9391 -9.3624 -1.6121 0.9348
14.2992 -8.8828 -1.6161 0.9346
14.9176 -7.8555 -1.6186 0.9345
15.1876 -7.3197 -1.6186 0.9345
15.4384 -6.7747 -1.6186 0.9345
15.8811 -5.6597 -1.6186 0.9345
16.2433 -4.5159 -1.6186 0.9345
16.5233 -3.3494 -1.6186 0.9345
16.6320 -2.7594 -1.6186 0.9345
16.8391 0.8277 -1.6186 0.9345
16.6550 2.6174 -1.6186 0.9345
7.1491 -11.6006 -1.6186 0.9466
7.5573 -11.3389 -1.6186 0.9466
7.9559 -11.0628 -1.6186 0.9466
8.3445 -10.7727 -1.6186 0.9466
10.1194 -9.1256 -1.6186 0.9466
10.4377 -8.7597 -1.6186 0.9466
10.7427 -8.3828 -1.6186 0.9466
11.0342 -7.9953 -1.6186 0.9466
11.3116 -7.5976 -1.6186 0.9466
11.5748 -7.1903 -1.6186 0.9466
12.0568 -6.3490 -1.6186 0.9466
12.2751 -5.9160 -1.6186 0.9466
12.6647 -5.0281 -1.6186 0.9466
13.1283 -3.6499 -1.6186 0.9466
13.2499 -3.1805 -1.6186 0.9466
13.4425 -2.2302 -1.6186 0.9466
13.5671 -1.2686 -1.6186 0.9466
13.6230 -0.3006 -1.6186 0.9466
13.6250 0.1843 -1.6186 0.9466
13.6099 0.6690 -1.6186 0.9466
13.5278 1.6351 -1.6186 0.9466
13.3773 2.5930 -1.6186 0.9466
5.9935 -9.7255 -1.6187 0.9549
6.3357 -9.5061 -1.6187 0.9549
6.6699 -9.2746 -1.6187 0.9549
8.2062 -7.9476 -1.6186 0.9549
8.7506 -7.3438 -1.6186 0.9549
9.0063 -7.0279 -1.6186 0.9549
9.2506 -6.7030 -1.6186 0.9549
9.4833 -6.3696 -1.6186 0.9549
9.9122 -5.6790 -1.6186 0.9549
10.4609 -4.5905 -1.6186 0.9549
10.7609 -3.8349 -1.6186 0.9549
10.8905 -3.4496 -1.6186 0.9549
11.1082 -2.6664 -1.6186 0.9549
11.3291 -1.4676 -1.6186 0.9549
11.3741 -1.0635 -1.6186 0.9549
11.4048 -0.6582 -1.6186 0.9549
11.4210 -0.2520 -1.6186 0.9549
11.4228 0.1545 -1.6186 0.9549
11.3412 1.3708 -1.6186 0.9549
11.2853 1.7735 -1.6186 0.9549
11.2151 2.1739 -1.6186 0.9549
5.1549 -8.3648 -1.6187 0.9610
5.7367 -7.9770 -1.6187 0.9610
6.0169 -7.7678 -1.6187 0.9610
7.2967 -6.5801 -1.6186 0.9610
7.5263 -6.3164 -1.6186 0.9610
7.7462 -6.0446 -1.6186 0.9610
7.9564 -5.7651 -1.6186 0.9610
8.5254 -4.8845 -1.6186 0.9610
8.6938 -4.5781 -1.6186 0.9610
9.4664 -2.6318 -1.6186 0.9610
9.6296 -1.9520 -1.6186 0.9610
9.7441 -1.2622 -1.6186 0.9610
9.8091 -0.5661 -1.6186 0.9610
9.8136 0.4824 -1.6186 0.9610
9.7545 1.1790 -1.6186 0.9610
9.7063 1.5254 -1.6186 0.9610
9.6459 1.8697 -1.6186 0.9610
4.5181 -7.3314 -1.6187 0.9656
4.7761 -7.1660 -1.6187 0.9656
5.0280 -6.9915 -1.6187 0.9656
5.2736 -6.8082 -1.6187 0.9656
5.5125 -6.6162 -1.6187 0.9656
5.9690 -6.2074 -1.6187 0.9656
6.1861 -5.9911 -1.6187 0.9656
6.3953 -5.7672 -1.6187 0.9656
6.5964 -5.5360 -1.6187 0.9656
6.9734 -5.0529 -1.6187 0.9656
7.1488 -4.8016 -1.6187 0.9656
7.4721 -4.2811 -1.6187 0.9656
7.6197 -4.0125 -1.6186 0.9656
8.0039 -3.1777 -1.6186 0.9656
8.2969 -2.3067 -1.6186 0.9656
8.4400 -1.7108 -1.6186 0.9656
8.5403 -1.1063 -1.6186 0.9656
8.5742 -0.8017 -1.6186 0.9656
8.6012 0.4228 -1.6186 0.9656
8.5808 0.7285 -1.6186 0.9656
8.5494 1.0334 -1.6186 0.9656
8.4543 1.6388 -1.6186 0.9656
4.0175 -6.5191 -1.6187 0.9692
5.5007 -5.3274 -1.6187 0.9692
5.8656 -4.9227 -1.6187 0.9692
6.0371 -4.7109 -1.6187 0.9692
6.3568 -4.2696 -1.6187 0.9692
6.5047 -4.0407 -1.6187 0.9692
6.6443 -3.8068 -1.6187 0.9692
6.7756 -3.5679 -1.6187 0.9692
7.3001 -2.3124 -1.6187 0.9692
7.3777 -2.0511 -1.6187 0.9692
7.4460 -1.7874 -1.6187 0.9692
7.5049 -1.5213 -1.6187 0.9692
7.5543 -1.2533 -1.6187 0.9692
7.5941 -0.9837 -1.6187 0.9692
7.6243 -0.7129 -1.6187 0.9692
7.6483 0.3760 -1.6187 0.9692
7.6301 0.6478 -1.6187 0.9692
7.6022 0.9189 -1.6187 0.9692
3.8197 -5.7310 -1.6187 0.9721
4.2176 -5.4449 -1.6187 0.9721
4.4086 -5.2914 -1.6187 0.9721
4.5941 -5.1312 -1.6187 0.9721
4.9474 -4.7915 -1.6187 0.9721
5.2756 -4.4275 -1.6187 0.9721
5.4298 -4.2370 -1.6187 0.9721
5.5771 -4.0411 -1.6187 0.9721
5.8503 -3.6343 -1.6187 0.9721
5.9759 -3.4238 -1.6187 0.9721
6.4876 -2.3120 -1.6187 0.9721
6.6356 -1.8448 -1.6187 0.9721
6.6970 -1.6075 -1.6187 0.9721
6.7500 -1.3683 -1.6187 0.9721
6.7944 -1.1272 -1.6187 0.9721
6.8573 -0.6412 -1.6187 0.9721
6.8789 0.3381 -1.6187 0.9721
6.8375 0.8265 -1.6187 0.9721
6.8038 1.0692 -1.6187 0.9721
3.8283 -4.9424 -1.6187 0.9745
4.0018 -4.8031 -1.6187 0.9745
4.3332 -4.5063 -1.6187 0.9745
4.6427 -4.1867 -1.6187 0.9745
4.7887 -4.0189 -1.6187 0.9745
5.0624 -3.6682 -1.6187 0.9745
5.1897 -3.4857 -1.6187 0.9745
5.3104 -3.2989 -1.6187 0.9745
5.8105 -2.3068 -1.6187 0.9745
5.8889 -2.0987 -1.6187 0.9745
6.0790 -1.4592 -1.6187 0.9745
6.1271 -1.2420 -1.6187 0.9745
6.1674 -1.0232 -1.6187 0.9745
6.2245 -0.5820 -1.6187 0.9745
6.2413 -0.3602 -1.6187 0.9745
6.2501 -0.1379 -1.6187 0.9745
6.2441 0.3069 -1.6187 0.9745
6.2292 0.5289 -1.6187 0.9745
6.2065 0.7502 -1.6187 0.9745
6.1759 0.9705 -1.6187 0.9745
6.1374 1.1897 -1.6187 0.9745
2.9998 -4.8677 -1.6187 0.9765
3.3384 -4.6421 -1.6187 0.9765
3.8140 -4.2599 -1.6187 0.9765
4.1073 -3.9779 -1.6187 0.9765
4.2462 -3.8292 -1.6187 0.9765
4.3798 -3.6757 -1.6187 0.9765
4.5078 -3.5176 -1.6187 0.9765
4.8570 -3.0172 -1.6187 0.9765
4.9612 -2.8424 -1.6187 0.9765
5.0592 -2.6641 -1.6187 0.9765
5.4509 -1.7266 -1.6187 0.9765
5.6038 -1.1359 -1.6187 0.9765
5.6407 -0.9358 -1.6187 0.9765
5.7083 -0.3294 -1.6187 0.9765
5.7164 -0.1261 -1.6187 0.9765
5.7109 0.2807 -1.6187 0.9765
5.6973 0.4837 -1.6187 0.9765
5.6765 0.6861 -1.6187 0.9765
5.6485 0.8877 -1.6187 0.9765
5.6133 1.0881 -1.6187 0.9765
2.7610 -4.4802 -1.6187 0.9782
3.2227 -4.1605 -1.6187 0.9782
3.6477 -3.7934 -1.6187 0.9782
3.7803 -3.6612 -1.6187 0.9782
4.0312 -3.3831 -1.6187 0.9782
4.1489 -3.2375 -1.6187 0.9782
4.2615 -3.0879 -1.6187 0.9782
4.5663 -2.6162 -1.6187 0.9782
4.6565 -2.4521 -1.6187 0.9782
4.7408 -2.2848 -1.6187 0.9782
4.8190 -2.1147 -1.6187 0.9782
4.9572 -1.7666 -1.6187 0.9782
5.1173 -1.2283 -1.6187 0.9782
5.2190 -0.6761 -1.6187 0.9782
5.2398 -0.4899 -1.6187 0.9782
5.2539 -0.3032 -1.6187 0.9782
5.2621 0.0712 -1.6187 0.9782
5.2563 0.2584 -1.6187 0.9782
5.2246 0.6315 -1.6187 0.9782
5.1665 1.0015 -1.6187 0.9782
2.7007 -4.0521 -1.6187 0.9797
2.8431 -3.9534 -1.6187 0.9797
2.9820 -3.8498 -1.6187 0.9797
3.1171 -3.7412 -1.6187 0.9797
3.2482 -3.6279 -1.6187 0.9797
3.3753 -3.5101 -1.6187 0.9797
3.6163 -3.2612 -1.6187 0.9797
3.8391 -2.9957 -1.6187 0.9797
3.9432 -2.8572 -1.6187 0.9797
4.3087 -2.2689 -1.6187 0.9797
4.3867 -2.1142 -1.6187 0.9797
4.5259 -1.7969 -1.6187 0.9797
4.5870 -1.6347 -1.6187 0.9797
4.6422 -1.4704 -1.6187 0.9797
4.6916 -1.3044 -1.6187 0.9797
4.7351 -1.1366 -1.6187 0.9797
4.8039 -0.7970 -1.6187 0.9797
4.8292 -0.6256 -1.6187 0.9797
4.8484 -0.4533 -1.6187 0.9797
4.8684 -0.1074 -1.6187 0.9797
4.8521 0.4120 -1.6187 0.9797
4.7806 0.9267 -1.6187 0.9797
2.3747 -3.8535 -1.6187 0.9810
2.5104 -3.7665 -1.6187 0.9810
2.8974 -3.4776 -1.6187 0.9810
3.1374 -3.2627 -1.6187 0.9810
3.3615 -3.0313 -1.6187 0.9810
3.5685 -2.7846 -1.6187 0.9810
3.6654 -2.6559 -1.6187 0.9810
3.8449 -2.3885 -1.6187 0.9810
3.9275 -2.2502 -1.6187 0.9810
4.0775 -1.9652 -1.6187 0.9810
4.1449 -1.8189 -1.6187 0.9810
4.2070 -1.6703 -1.6187 0.9810
4.2638 -1.5195 -1.6187 0.9810
4.3610 -1.2124 -1.6187 0.9810
4.4654 -0.7408 -1.6187 0.9810
4.4889 -0.5815 -1.6187 0.9810
4.5253 -0.0998 -1.6187 0.9810
4.4937 0.5432 -1.6187 0.9810
4.4715 0.7027 -1.6187 0.9810
4.4437 0.8614 -1.6187 0.9810
2.2161 -3.5959 -1.6187 0.9821
2.3426 -3.5148 -1.6187 0.9821
2.7038 -3.2452 -1.6187 0.9821
2.8175 -3.1469 -1.6187 0.9821
2.9277 -3.0447 -1.6187 0.9821
3.2355 -2.7154 -1.6187 0.9821
3.3301 -2.5985 -1.6187 0.9821
3.4204 -2.4784 -1.6187 0.9821
3.5064 -2.3551 -1.6187 0.9821
3.6650 -2.0998 -1.6187 0.9821
3.7374 -1.9681 -1.6187 0.9821
3.8679 -1.6973 -1.6187 0.9821
3.9258 -1.5586 -1.6187 0.9821
4.0267 -1.2755 -1.6187 0.9821
4.0696 -1.1314 -1.6187 0.9821
4.1397 -0.8392 -1.6187 0.9821
4.1670 -0.6913 -1.6187 0.9821
4.2056 -0.3932 -1.6187 0.9821
4.2169 -0.2434 -1.6187 0.9821
4.2229 -0.0932 -1.6187 0.9821
4.2188 0.2074 -1.6187 0.9821
2.0750 -3.3670 -1.6187 0.9831
2.3092 -3.2109 -1.6187 0.9831
2.4219 -3.1267 -1.6187 0.9831
2.6382 -2.9466 -1.6187 0.9831
2.9371 -2.6487 -1.6187 0.9831
3.1180 -2.4331 -1.6187 0.9831
3.2832 -2.2052 -1.6187 0.9831
3.5628 -1.7171 -1.6187 0.9831
3.6759 -1.4594 -1.6187 0.9831
3.8458 -0.9231 -1.6187 0.9831
3.8762 -0.7857 -1.6187 0.9831
3.9223 -0.5081 -1.6187 0.9831
3.9484 -0.2279 -1.6187 0.9831
3.9546 0.0535 -1.6187 0.9831
3.9408 0.3346 -1.6187 0.9831
2.1685 -3.0154 -1.6187 0.9839
2.2744 -2.9363 -1.6187 0.9839
2.4775 -2.7671 -1.6187 0.9839
2.9282 -2.2849 -1.6187 0.9839
3.0076 -2.1793 -1.6187 0.9839
3.1550 -1.9599 -1.6187 0.9839
3.2227 -1.8464 -1.6187 0.9839
3.5784 -0.9949 -1.6187 0.9839
3.6401 -0.7379 -1.6187 0.9839
3.6641 -0.6079 -1.6187 0.9839
3.6980 -0.3458 -1.6187 0.9839
3.7138 0.0503 -1.6187 0.9839
3.6873 0.4457 -1.6187 0.9839
1.9394 -2.9099 -1.6187 0.9847
2.1415 -2.7646 -1.6187 0.9847
2.2384 -2.6866 -1.6187 0.9847
2.4238 -2.5207 -1.6187 0.9847
2.6787 -2.2480 -1.6187 0.9847
2.7569 -2.1513 -1.6187 0.9847
2.8317 -2.0518 -1.6187 0.9847
2.9029 -1.9498 -1.6187 0.9847
3.0942 -1.6294 -1.6187 0.9847
3.2022 -1.4052 -1.6187 0.9847
3.2502 -1.2904 -1.6187 0.9847
3.2940 -1.1739 -1.6187 0.9847
3.3337 -1.0560 -1.6187 0.9847
3.4273 -0.6947 -1.6187 0.9847
3.4844 0.2958 -1.6187 0.9847
3.4717 0.4196 -1.6187 0.9847
3.4546 0.5429 -1.6187 0.9847
1.7313 -2.8093 -1.6187 0.9854
1.8302 -2.7459 -1.6187 0.9854
2.0208 -2.6088 -1.6187 0.9854
2.1123 -2.5353 -1.6187 0.9854
2.3705 -2.2958 -1.6187 0.9854
2.4506 -2.2100 -1.6187 0.9854
2.5277 -2.1214 -1.6187 0.9854
2.6016 -2.0301 -1.6187 0.9854
2.6722 -1.9362 -1.6187 0.9854
2.7394 -1.8399 -1.6187 0.9854
2.8031 -1.7413 -1.6187 0.9854
2.9198 -1.5375 -1.6187 0.9854
2.9727 -1.4327 -1.6187 0.9854
3.0218 -1.3260 -1.6187 0.9854
3.0671 -1.2177 -1.6187 0.9854
3.1084 -1.1078 -1.6187 0.9854
3.1459 -0.9965 -1.6187 0.9854
3.1793 -0.8839 -1.6187 0.9854
3.2088 -0.7702 -1.6187 0.9854
3.2554 -0.5401 -1.6187 0.9854
3.2991 -0.0728 -1.6187 0.9854
3.2996 0.0446 -1.6187 0.9854
3.2881 0.2792 -1.6187 0.9854
3.2761 0.3960 -1.6187 0.9854
2.0813 -2.3246 -1.6187 0.9860
2.1627 -2.2491 -1.6187 0.9860
2.2413 -2.1707 -1.6187 0.9860
2.3900 -2.0058 -1.6187 0.9860
2.5266 -1.8308 -1.6187 0.9860
2.5902 -1.7397 -1.6187 0.9860
2.6504 -1.6465 -1.6187 0.9860
2.7073 -1.5511 -1.6187 0.9860
2.8108 -1.3547 -1.6187 0.9860
2.9745 -0.9422 -1.6187 0.9860
3.0062 -0.8358 -1.6187 0.9860
3.0580 -0.6199 -1.6187 0.9860
3.0781 -0.5107 -1.6187 0.9860
3.0943 -0.4008 -1.6187 0.9860
3.1067 -0.2905 -1.6187 0.9860
3.1199 0.0422 -1.6187 0.9860
3.1164 0.1532 -1.6187 0.9860
3.1090 0.2640 -1.6187 0.9860
3.0976 0.3744 -1.6187 0.9860
3.0632 0.5938 -1.6187 0.9860
1.5505 -2.5160 -1.6187 0.9866
1.8918 -2.2706 -1.6187 0.9866
1.9714 -2.2018 -1.6187 0.9866
2.0485 -2.1303 -1.6187 0.9866
2.1948 -1.9792 -1.6187 0.9866
2.3932 -1.7341 -1.6187 0.9866
2.4534 -1.6478 -1.6187 0.9866
2.5105 -1.5595 -1.6187 0.9866
2.6150 -1.3770 -1.6187 0.9866
2.7063 -1.1876 -1.6187 0.9866
2.7469 -1.0906 -1.6187 0.9866
2.7839 -0.9921 -1.6187 0.9866
2.8474 -0.7916 -1.6187 0.9866
2.9156 -0.4837 -1.6187 0.9866
2.9505 -0.1703 -1.6187 0.9866
2.9547 -0.0652 -1.6187 0.9866
2.9196 0.4588 -1.6187 0.9866
2.9014 0.5624 -1.6187 0.9866
1.6369 -2.2762 -1.6187 0.9871
1.7169 -2.2165 -1.6187 0.9871
1.8702 -2.0888 -1.6187 0.9871
1.9433 -2.0209 -1.6187 0.9871
2.0140 -1.9505 -1.6187 0.9871
2.0821 -1.8776 -1.6187 0.9871
2.2103 -1.7248 -1.6187 0.9871
2.3815 -1.4794 -1.6187 0.9871
2.4807 -1.3063 -1.6187 0.9871
2.5256 -1.2172 -1.6187 0.9871
2.6058 -1.0345 -1.6187 0.9871
2.6728 -0.8466 -1.6187 0.9871
2.7012 -0.7510 -1.6187 0.9871
2.7478 -0.5570 -1.6187 0.9871
2.7804 -0.3602 -1.6187 0.9871
2.8030 -0.0618 -1.6187 0.9871
2.8034 0.0379 -1.6187 0.9871
2.7936 0.2372 -1.6187 0.9871
2.7697 0.4353 -1.6187 0.9871
2.7524 0.5335 -1.6187 0.9871
