ply
format ascii 1.0
element vertex 423
property float32 x
property float32 y
property float32 z
property float32 I
end_header
40.1229 26.7191 0.8143 0.8246
17.7628 29.0223 0.5748 0.8727
17.7516 29.0040 -0.1915 0.8728
17.8593 29.1800 -0.9633 0.8721
23.9845 -3.2815 -1.2277 0.9076
28.7651 -2.8803 -1.4661 0.8907
28.8505 -1.8381 -1.4661 0.8907
28.8798 1.2974 -1.4661 0.8907
30.3116 5.8165 -1.5653 0.8837
30.8254 8.2641 -1.6185 0.8800
30.5064 9.3735 -1.6185 0.8800
29.3120 12.6225 -1.6185 0.8800
28.3231 14.7083 -1.6185 0.8800
27.1860 16.7172 -1.6185 0.8800
26.5638 17.6896 -1.6185 0.8800
24.4919 20.4628 -1.6185 0.8800
23.7359 21.3353 -1.6186 0.8800
22.1318 22.9953 -1.6186 0.8800
20.4119 24.5352 -1.6186 0.8800
16.8354 23.5038 -1.4662 0.8907
15.9744 24.0974 -1.4662 0.8907
15.0926 24.6595 -1.4662 0.8907
14.1910 25.1893 -1.4662 0.8907
13.2708 25.6862 -1.4662 0.8907
21.8707 -2.9923 -1.6185 0.9153
22.0298 -1.4036 -1.6185 0.9153
22.0736 0.1925 -1.6185 0.9153
22.0522 0.9907 -1.6185 0.9153
22.0020 1.7875 -1.6185 0.9153
21.8153 3.3733 -1.6186 0.9153
21.5144 4.9413 -1.6186 0.9153
21.3217 5.7162 -1.6186 0.9153
20.2748 8.7308 -1.6186 0.9153
19.9458 9.4584 -1.6186 0.9153
19.2101 10.8755 -1.6186 0.9153
17.9193 12.8922 -1.6186 0.9153
16.9406 14.1538 -1.6186 0.9153
15.8733 15.3414 -1.6186 0.9153
12.7892 15.3727 -1.4662 0.9229
12.2250 15.8253 -1.4662 0.9229
11.6447 16.2571 -1.4662 0.9229
10.4392 17.0563 -1.4663 0.9229
9.1791 17.7664 -1.4663 0.9229
16.7038 -2.2854 -1.6186 0.9345
16.7755 -1.6798 -1.6186 0.9345
16.8530 -0.4628 -1.6186 0.9345
16.8424 0.7566 -1.6186 0.9345
16.6615 2.5763 -1.6186 0.9345
16.5574 3.1772 -1.6186 0.9345
16.4317 3.7739 -1.6186 0.9345
16.2844 4.3657 -1.6186 0.9345
16.1159 4.9518 -1.6186 0.9345
15.9263 5.5314 -1.6186 0.9345
15.2336 7.2238 -1.6186 0.9345
14.9624 7.7701 -1.6186 0.9345
14.3617 8.8313 -1.6186 0.9345
13.6858 9.8463 -1.6186 0.9345
12.9383 10.8099 -1.6186 0.9345
12.5390 11.2708 -1.6186 0.9345
11.6678 12.1230 -1.6153 0.9346
10.1859 11.3798 -1.4662 0.9405
9.7677 11.7408 -1.4663 0.9405
9.3367 12.0864 -1.4663 0.9405
8.4387 12.7297 -1.4663 0.9405
7.0104 13.5689 -1.4663 0.9405
13.5987 -0.8664 -1.6186 0.9466
13.6212 -0.3740 -1.6186 0.9466
13.5328 1.5939 -1.6186 0.9466
13.4663 2.0823 -1.6186 0.9466
13.3822 2.5679 -1.6186 0.9466
13.2806 3.0502 -1.6186 0.9466
13.1616 3.5285 -1.6186 0.9466
12.7020 4.9333 -1.6186 0.9466
12.5153 5.3894 -1.6186 0.9466
12.3122 5.8385 -1.6186 0.9466
11.6075 7.1377 -1.6186 0.9466
11.3418 7.5528 -1.6186 0.9466
10.7662 8.3529 -1.6186 0.9466
10.4571 8.7368 -1.6186 0.9466
8.7317 9.7552 -1.5552 0.9486
7.8945 9.4892 -1.4663 0.9515
7.5462 9.7685 -1.4663 0.9515
7.1880 10.0351 -1.4663 0.9515
6.8204 10.2885 -1.4663 0.9515
11.3669 -1.1382 -1.6186 0.9549
11.4007 -0.7263 -1.6186 0.9549
11.4195 -0.3136 -1.6186 0.9549
11.3863 0.9251 -1.6186 0.9549
11.3454 1.3363 -1.6186 0.9549
11.2896 1.7457 -1.6186 0.9549
11.2191 2.1529 -1.6186 0.9549
10.9200 3.3553 -1.6186 0.9549
10.3221 4.8948 -1.6186 0.9549
10.1383 5.2649 -1.6186 0.9549
9.9413 5.6281 -1.6186 0.9549
9.7313 5.9840 -1.6186 0.9549
9.5085 6.3320 -1.6186 0.9549
9.0260 7.0028 -1.6187 0.9549
8.2145 7.9392 -1.6187 0.9549
7.9220 8.2311 -1.6187 0.9549
7.6079 8.4997 -1.6163 0.9550
7.0974 8.5311 -1.5724 0.9562
5.4022 8.8266 -1.4663 0.9591
5.0795 9.0162 -1.4663 0.9591
9.8056 -0.6247 -1.6186 0.9610
9.8251 0.0857 -1.6186 0.9610
9.8155 0.4410 -1.6186 0.9610
9.7580 1.1493 -1.6186 0.9610
9.7101 1.5015 -1.6186 0.9610
9.5762 2.1994 -1.6186 0.9610
9.4904 2.5443 -1.6186 0.9610
9.0244 3.8861 -1.6186 0.9610
8.1782 5.4461 -1.6187 0.9610
7.3075 6.5684 -1.6187 0.9610
6.8136 7.0794 -1.6187 0.9610
6.5531 7.3212 -1.6187 0.9610
5.9813 7.7428 -1.6118 0.9611
5.3138 7.4186 -1.5033 0.9637
4.9179 7.4186 -1.4663 0.9646
4.6464 7.5916 -1.4663 0.9646
4.3688 7.7547 -1.4663 0.9646
4.0855 7.9076 -1.4663 0.9646
8.5687 -0.8580 -1.6186 0.9656
8.5105 1.3160 -1.6186 0.9656
8.3931 1.9277 -1.6186 0.9656
8.3179 2.2300 -1.6187 0.9656
8.2318 2.5293 -1.6187 0.9656
7.6426 3.9689 -1.6187 0.9656
6.9905 5.0294 -1.6187 0.9656
6.8040 5.2789 -1.6187 0.9656
6.1923 5.9848 -1.6187 0.9656
5.9718 6.2048 -1.6187 0.9656
5.5077 6.6203 -1.6187 0.9656
5.0019 6.9831 -1.6145 0.9656
4.6609 7.0310 -1.5856 0.9662
4.1544 6.7878 -1.4958 0.9681
3.8291 6.7967 -1.4663 0.9687
3.5808 6.9307 -1.4663 0.9687
7.6195 -0.7629 -1.6187 0.9692
7.6421 -0.4869 -1.6187 0.9692
7.6499 0.3437 -1.6187 0.9692
7.6324 0.6201 -1.6187 0.9692
7.6050 0.8957 -1.6187 0.9692
7.5204 1.4431 -1.6187 0.9692
7.4633 1.7141 -1.6187 0.9692
7.2337 2.5124 -1.6187 0.9692
7.0332 3.0287 -1.6187 0.9692
6.3737 4.2444 -1.6187 0.9692
5.8765 4.9098 -1.6187 0.9692
5.6951 5.1191 -1.6187 0.9692
5.5063 5.3217 -1.6187 0.9692
5.1072 5.7058 -1.6187 0.9692
4.4592 6.2254 -1.6187 0.9692
3.6763 6.5255 -1.5832 0.9698
6.8530 -0.6862 -1.6187 0.9721
6.8733 -0.4379 -1.6187 0.9721
6.8803 0.3091 -1.6187 0.9721
6.8400 0.8056 -1.6187 0.9721
6.7639 1.2979 -1.6187 0.9721
6.7125 1.5417 -1.6187 0.9721
6.6523 1.7834 -1.6187 0.9721
6.5835 2.0229 -1.6187 0.9721
6.5061 2.2596 -1.6187 0.9721
6.3257 2.7240 -1.6187 0.9721
6.1122 3.1741 -1.6187 0.9721
5.8668 3.6077 -1.6187 0.9721
5.7325 3.8175 -1.6187 0.9721
5.2854 4.4159 -1.6187 0.9721
4.9524 4.7864 -1.6187 0.9721
4.5934 5.1319 -1.6187 0.9721
4.4048 5.2946 -1.6187 0.9721
4.0106 5.5992 -1.6187 0.9721
3.3770 5.9943 -1.6170 0.9721
6.1940 -0.8474 -1.6187 0.9745
6.2205 -0.6229 -1.6187 0.9745
6.2493 -0.1716 -1.6187 0.9745
6.2454 0.2806 -1.6187 0.9745
6.2311 0.5062 -1.6187 0.9745
6.1397 1.1781 -1.6187 0.9745
6.0930 1.3994 -1.6187 0.9745
6.0384 1.6189 -1.6187 0.9745
5.9759 1.8362 -1.6187 0.9745
5.8276 2.2634 -1.6187 0.9745
5.7419 2.4726 -1.6187 0.9745
5.6487 2.6787 -1.6187 0.9745
5.5482 2.8812 -1.6187 0.9745
4.6495 4.1792 -1.6187 0.9745
4.4953 4.3447 -1.6187 0.9745
3.8219 4.9475 -1.6187 0.9745
3.6405 5.0825 -1.6187 0.9745
3.4543 5.2108 -1.6187 0.9745
3.2636 5.3323 -1.6187 0.9745
3.0686 5.4469 -1.6187 0.9745
2.8696 5.5543 -1.6187 0.9745
5.6893 -0.5697 -1.6187 0.9765
5.7156 -0.1569 -1.6187 0.9765
5.7176 0.0499 -1.6187 0.9765
5.6990 0.4630 -1.6187 0.9765
5.6786 0.6688 -1.6187 0.9765
5.6507 0.8737 -1.6187 0.9765
5.6154 1.0775 -1.6187 0.9765
5.5228 1.4806 -1.6187 0.9765
5.4013 1.8759 -1.6187 0.9765
5.3299 2.0701 -1.6187 0.9765
5.0744 2.6352 -1.6187 0.9765
4.9758 2.8170 -1.6187 0.9765
4.8707 2.9951 -1.6187 0.9765
4.6414 3.3393 -1.6187 0.9765
4.3879 3.6661 -1.6187 0.9765
4.1115 3.9737 -1.6187 0.9765
3.9650 4.1198 -1.6187 0.9765
3.8135 4.2605 -1.6187 0.9765
3.6569 4.3956 -1.6187 0.9765
3.3296 4.6484 -1.6187 0.9765
2.8066 4.9817 -1.6187 0.9765
2.6246 5.0800 -1.6187 0.9765
5.2520 -0.3346 -1.6187 0.9782
5.2606 -0.1444 -1.6187 0.9782
5.2624 0.0459 -1.6187 0.9782
5.2573 0.2362 -1.6187 0.9782
5.2265 0.6156 -1.6187 0.9782
5.2008 0.8042 -1.6187 0.9782
5.1683 0.9918 -1.6187 0.9782
5.0831 1.3628 -1.6187 0.9782
4.9056 1.9053 -1.6187 0.9782
4.7551 2.2549 -1.6187 0.9782
4.6705 2.4254 -1.6187 0.9782
4.5797 2.5927 -1.6187 0.9782
4.4829 2.7566 -1.6187 0.9782
4.3803 2.9170 -1.6187 0.9782
4.0386 3.3742 -1.6187 0.9782
3.6494 3.7918 -1.6187 0.9782
3.5099 3.9213 -1.6187 0.9782
3.2173 4.1648 -1.6187 0.9782
4.8246 -0.6601 -1.6187 0.9797
4.8453 -0.4852 -1.6187 0.9797
4.8597 -0.3096 -1.6187 0.9797
4.8647 0.2185 -1.6187 0.9797
4.8536 0.3943 -1.6187 0.9797
4.8362 0.5696 -1.6187 0.9797
4.7035 1.2610 -1.6187 0.9797
4.6548 1.4303 -1.6187 0.9797
4.6000 1.5977 -1.6187 0.9797
4.4725 1.9260 -1.6187 0.9797
4.3216 2.2443 -1.6187 0.9797
4.2376 2.3991 -1.6187 0.9797
4.1481 2.5508 -1.6187 0.9797
3.8475 2.9850 -1.6187 0.9797
3.7370 3.1222 -1.6187 0.9797
3.6216 3.2553 -1.6187 0.9797
3.3769 3.5086 -1.6187 0.9797
2.9770 3.8537 -1.6187 0.9797
2.8357 3.9588 -1.6187 0.9797
2.6906 4.0588 -1.6187 0.9797
2.5421 4.1535 -1.6187 0.9797
2.3902 4.2427 -1.6187 0.9797
2.2352 4.3263 -1.6187 0.9797
4.4846 -0.6136 -1.6187 0.9810
4.5173 -0.2878 -1.6187 0.9810
4.5219 0.2031 -1.6187 0.9810
4.4453 0.8530 -1.6187 0.9810
4.4115 1.0132 -1.6187 0.9810
4.3720 1.1721 -1.6187 0.9810
4.2194 1.6387 -1.6187 0.9810
4.0899 1.9395 -1.6187 0.9810
4.0171 2.0861 -1.6187 0.9810
3.9390 2.2300 -1.6187 0.9810
3.8558 2.3710 -1.6187 0.9810
3.4736 2.9022 -1.6187 0.9810
3.3664 3.0259 -1.6187 0.9810
3.1389 3.2613 -1.6187 0.9810
2.7672 3.5821 -1.6187 0.9810
2.6358 3.6799 -1.6187 0.9810
2.5010 3.7728 -1.6187 0.9810
2.3630 3.8608 -1.6187 0.9810
4.1849 -0.5726 -1.6187 0.9821
4.2029 -0.4208 -1.6187 0.9821
4.2223 -0.1159 -1.6187 0.9821
4.2238 0.0368 -1.6187 0.9821
4.2197 0.1896 -1.6187 0.9821
4.2100 0.3420 -1.6187 0.9821
4.1949 0.4941 -1.6187 0.9821
4.1167 0.9455 -1.6187 0.9821
3.9901 1.3858 -1.6187 0.9821
3.8795 1.6706 -1.6187 0.9821
3.4288 2.4669 -1.6187 0.9821
3.3373 2.5892 -1.6187 0.9821
3.1414 2.8237 -1.6187 0.9821
2.8171 3.1473 -1.6187 0.9821
2.7014 3.2471 -1.6187 0.9821
2.5822 3.3427 -1.6187 0.9821
2.4597 3.4339 -1.6187 0.9821
2.3339 3.5207 -1.6187 0.9821
3.9470 -0.2515 -1.6187 0.9831
3.9086 0.6044 -1.6187 0.9831
3.8546 0.8853 -1.6187 0.9831
3.8201 1.0241 -1.6187 0.9831
3.7361 1.2976 -1.6187 0.9831
3.6867 1.4319 -1.6187 0.9831
3.5736 1.6946 -1.6187 0.9831
3.4417 1.9485 -1.6187 0.9831
3.2919 2.1922 -1.6187 0.9831
3.2105 2.3098 -1.6187 0.9831
3.1248 2.4244 -1.6187 0.9831
3.0351 2.5358 -1.6187 0.9831
2.9414 2.6439 -1.6187 0.9831
2.5295 3.0404 -1.6187 0.9831
2.4178 3.1299 -1.6187 0.9831
2.3031 3.2153 -1.6187 0.9831
2.1853 3.2965 -1.6187 0.9831
2.0646 3.3734 -1.6187 0.9831
1.9413 3.4458 -1.6187 0.9831
1.8154 3.5138 -1.6187 0.9831
3.6799 -0.5035 -1.6187 0.9839
3.7127 -0.1019 -1.6187 0.9839
3.7140 0.0324 -1.6187 0.9839
3.7104 0.1667 -1.6187 0.9839
3.7019 0.3008 -1.6187 0.9839
3.6887 0.4344 -1.6187 0.9839
3.5875 0.9618 -1.6187 0.9839
3.4622 1.3447 -1.6187 0.9839
3.4113 1.4690 -1.6187 0.9839
3.0149 2.1691 -1.6187 0.9839
2.8503 2.3814 -1.6187 0.9839
2.7623 2.4829 -1.6187 0.9839
2.6707 2.5812 -1.6187 0.9839
2.5756 2.6761 -1.6187 0.9839
2.4771 2.7675 -1.6187 0.9839
2.3754 2.8553 -1.6187 0.9839
2.2706 2.9393 -1.6187 0.9839
2.1628 3.0195 -1.6187 0.9839
1.9389 3.1679 -1.6187 0.9839
1.7049 3.2998 -1.6187 0.9839
3.4795 -0.3484 -1.6187 0.9847
3.4855 0.2832 -1.6187 0.9847
3.4729 0.4091 -1.6187 0.9847
3.4559 0.5344 -1.6187 0.9847
3.3777 0.9055 -1.6187 0.9847
3.3427 1.0271 -1.6187 0.9847
3.1597 1.4983 -1.6187 0.9847
3.0431 1.7228 -1.6187 0.9847
2.9106 1.9383 -1.6187 0.9847
2.6836 2.2421 -1.6187 0.9847
2.6008 2.3377 -1.6187 0.9847
2.5145 2.4302 -1.6187 0.9847
2.4250 2.5196 -1.6187 0.9847
2.2365 2.6883 -1.6187 0.9847
2.1378 2.7674 -1.6187 0.9847
2.0363 2.8429 -1.6187 0.9847
1.8255 2.9827 -1.6187 0.9847
1.6051 3.1068 -1.6187 0.9847
3.2835 -0.3288 -1.6187 0.9854
3.2987 -0.0906 -1.6187 0.9854
3.2998 0.0288 -1.6187 0.9854
3.2966 0.1481 -1.6187 0.9854
3.2891 0.2672 -1.6187 0.9854
3.2612 0.5043 -1.6187 0.9854
3.1173 1.0827 -1.6187 0.9854
3.0308 1.3052 -1.6187 0.9854
2.9817 1.4139 -1.6187 0.9854
2.9286 1.5208 -1.6187 0.9854
2.8110 1.7285 -1.6187 0.9854
2.7466 1.8291 -1.6187 0.9854
2.6073 2.0228 -1.6187 0.9854
2.4542 2.2060 -1.6187 0.9854
2.3728 2.2933 -1.6187 0.9854
2.2009 2.4588 -1.6187 0.9854
2.0174 2.6115 -1.6187 0.9854
1.9216 2.6827 -1.6187 0.9854
1.8233 2.7505 -1.6187 0.9854
1.7227 2.8146 -1.6187 0.9854
1.5147 2.9318 -1.6187 0.9854
3.0914 -0.4229 -1.6187 0.9860
3.1139 -0.1984 -1.6187 0.9860
3.1201 0.0272 -1.6187 0.9860
3.0988 0.3650 -1.6187 0.9860
3.0835 0.4768 -1.6187 0.9860
3.0138 0.8080 -1.6187 0.9860
2.9475 1.0237 -1.6187 0.9860
2.9085 1.1296 -1.6187 0.9860
2.7691 1.4380 -1.6187 0.9860
2.7153 1.5372 -1.6187 0.9860
2.6579 1.6344 -1.6187 0.9860
2.5971 1.7295 -1.6187 0.9860
2.5328 1.8223 -1.6187 0.9860
2.4653 1.9127 -1.6187 0.9860
2.3945 2.0006 -1.6187 0.9860
2.2436 2.1684 -1.6187 0.9860
2.0810 2.3249 -1.6187 0.9860
1.9955 2.3986 -1.6187 0.9860
1.9075 2.4693 -1.6187 0.9860
1.6288 2.6613 -1.6187 0.9860
2.9407 -0.2945 -1.6187 0.9866
2.9553 0.0258 -1.6187 0.9866
2.9351 0.3457 -1.6187 0.9866
2.9025 0.5570 -1.6187 0.9866
2.8251 0.8680 -1.6187 0.9866
2.7918 0.9697 -1.6187 0.9866
2.7144 1.1689 -1.6187 0.9866
2.6704 1.2663 -1.6187 0.9866
2.6228 1.3621 -1.6187 0.9866
2.2680 1.8949 -1.6187 0.9866
2.1251 2.0539 -1.6187 0.9866
1.9711 2.2021 -1.6187 0.9866
1.8067 2.3389 -1.6187 0.9866
1.7210 2.4027 -1.6187 0.9866
1.5428 2.5208 -1.6187 0.9866
1.3566 2.6257 -1.6187 0.9866
2.7778 -0.3800 -1.6187 0.9871
2.7897 -0.2793 -1.6187 0.9871
2.7980 -0.1783 -1.6187 0.9871
2.8036 0.0245 -1.6187 0.9871
2.7707 0.4284 -1.6187 0.9871
2.7534 0.5284 -1.6187 0.9871
2.7080 0.7260 -1.6187 0.9871
2.6485 0.9199 -1.6187 0.9871
2.4882 1.2921 -1.6187 0.9871
2.4398 1.3813 -1.6187 0.9871
2.3883 1.4686 -1.6187 0.9871
2.2759 1.6374 -1.6187 0.9871
1.4636 2.3913 -1.6187 0.9871
1.3762 2.4427 -1.6187 0.9871
1.2869 2.4909 -1.6187 0.9871
