ply
format ascii 1.0
element vertex 426
property float32 x
property float32 y
property float32 z
property float32 I
end_header
35.3543 14.4599 5.8516 0.8568
35.3682 14.4656 4.1030 0.8575
21.2194 39.1191 4.7789 0.8361
35.3664 14.4648 3.2342 0.8578
35.3616 14.4629 1.5065 0.8582
35.3540 14.4597 -0.2150 0.8583
17.4413 29.5574 -0.1932 0.8717
21.1495 38.9902 -1.2490 0.8374
30.7198 6.4782 -1.5922 0.8818
29.9556 11.0080 -1.6185 0.8800
28.5913 14.1799 -1.6185 0.8800
28.0613 15.2021 -1.6185 0.8800
24.8786 19.9907 -1.6185 0.8800
24.1413 20.8752 -1.6186 0.8800
23.3727 21.7326 -1.6186 0.8800
16.4498 23.7754 -1.4662 0.8907
14.6929 24.8998 -1.4662 0.8907
13.7852 25.4137 -1.4662 0.8907
12.8595 25.8946 -1.4662 0.8907
11.9171 26.3418 -1.4662 0.8907
10.9592 26.7547 -1.4663 0.8907
6.9974 28.0533 -1.4663 0.8907
21.7498 3.7728 -1.6186 0.9153
21.5996 4.5549 -1.6186 0.9153
21.4212 5.3311 -1.6186 0.9153
20.9811 6.8617 -1.6186 0.9153
20.4319 8.3566 -1.6186 0.9153
20.1172 9.0883 -1.6186 0.9153
19.0177 11.2085 -1.6186 0.9153
18.6011 11.8872 -1.6186 0.9153
18.1602 12.5505 -1.6186 0.9153
17.6957 13.1975 -1.6186 0.9153
15.0407 16.1587 -1.6186 0.9153
12.5339 15.5817 -1.4662 0.9229
11.9637 16.0237 -1.4662 0.9229
10.1627 17.2226 -1.4663 0.9229
8.2427 18.2198 -1.4663 0.9229
7.5801 18.5054 -1.4663 0.9229
6.2264 19.0039 -1.4663 0.9229
5.5367 19.2162 -1.4663 0.9229
4.8399 19.4035 -1.4663 0.9229
4.1368 19.5655 -1.4663 0.9229
3.4283 19.7021 -1.4663 0.9229
16.3605 4.0716 -1.6186 0.9345
15.8249 5.8153 -1.6186 0.9345
15.6048 6.3824 -1.6186 0.9345
15.3644 6.9412 -1.6186 0.9345
14.5247 8.5604 -1.6186 0.9345
13.8698 9.5854 -1.6186 0.9345
13.5150 10.0795 -1.6186 0.9345
13.1427 10.5605 -1.6186 0.9345
12.7532 11.0278 -1.6186 0.9345
8.6898 12.5596 -1.4663 0.9405
7.7617 13.1536 -1.4663 0.9405
7.2822 13.4250 -1.4663 0.9405
6.7931 13.6790 -1.4663 0.9405
5.7892 14.1333 -1.4663 0.9405
4.7552 14.5140 -1.4663 0.9405
4.2285 14.6761 -1.4663 0.9405
2.0738 15.1319 -1.4663 0.9405
13.4258 2.3289 -1.6186 0.9466
13.3331 2.8117 -1.6186 0.9466
12.9513 4.2357 -1.6186 0.9466
12.7901 4.7001 -1.6186 0.9466
12.6123 5.1584 -1.6186 0.9466
11.4821 7.3378 -1.6186 0.9466
10.6222 8.5353 -1.6186 0.9466
10.3074 8.9129 -1.6186 0.9466
9.2577 9.9458 -1.6140 0.9467
8.0788 9.3328 -1.4663 0.9515
7.7369 9.6182 -1.4663 0.9515
7.0233 10.1510 -1.4663 0.9515
6.6526 10.3978 -1.4663 0.9515
5.4904 11.0557 -1.4663 0.9515
2.7444 6.6999 -0.8600 0.9713
4.2639 11.5842 -1.4663 0.9515
2.1162 12.1614 -1.4663 0.9515
11.2557 1.9524 -1.6186 0.9549
10.9789 3.1570 -1.6186 0.9549
10.7228 3.9404 -1.6186 0.9549
10.4108 4.7032 -1.6186 0.9549
10.0446 5.4416 -1.6186 0.9549
8.6413 7.4723 -1.6187 0.9549
8.3662 7.7791 -1.6187 0.9549
6.6136 8.2218 -1.4951 0.9583
5.8881 8.5102 -1.4663 0.9591
4.9342 9.0965 -1.4663 0.9591
2.9609 6.5448 -1.0178 0.9714
3.5746 9.7117 -1.4663 0.9591
2.5046 10.0411 -1.4663 0.9591
9.6809 1.6793 -1.6186 0.9610
9.5347 2.3729 -1.6186 0.9610
9.4429 2.7153 -1.6186 0.9610
9.3388 3.0542 -1.6186 0.9610
8.9542 4.0452 -1.6186 0.9610
8.8024 4.3656 -1.6186 0.9610
8.4648 4.9889 -1.6187 0.9610
8.2793 5.2910 -1.6187 0.9610
7.4323 6.4268 -1.6187 0.9610
7.1956 6.6907 -1.6187 0.9610
4.7969 7.4974 -1.4663 0.9646
4.5233 7.6656 -1.4663 0.9646
3.9589 7.9718 -1.4663 0.9646
2.9522 6.5256 -1.1799 0.9714
2.7311 6.6674 -1.1870 0.9712
2.7712 8.4583 -1.4663 0.9646
2.4643 8.5528 -1.4663 0.9646
1.8412 8.7083 -1.4663 0.9646
1.5259 8.7690 -1.4663 0.9646
8.4263 1.7770 -1.6186 0.9656
8.3567 2.0797 -1.6187 0.9656
8.2763 2.3799 -1.6187 0.9656
7.9708 3.2600 -1.6187 0.9656
7.8480 3.5455 -1.6187 0.9656
7.7150 3.8262 -1.6187 0.9656
7.5720 4.1021 -1.6187 0.9656
6.9033 5.1485 -1.6187 0.9656
6.5141 5.6328 -1.6187 0.9656
6.3067 5.8641 -1.6187 0.9656
6.0910 6.0878 -1.6187 0.9656
5.3977 6.7102 -1.6187 0.9656
5.1470 6.8937 -1.6171 0.9656
4.8811 7.0548 -1.6125 0.9657
4.4265 6.9185 -1.5438 0.9671
3.4698 6.9869 -1.4663 0.9687
2.6947 7.3209 -1.4663 0.9687
1.6137 7.6324 -1.4663 0.9687
7.4928 1.5801 -1.6187 0.9692
7.4309 1.8493 -1.6187 0.9692
7.3594 2.1162 -1.6187 0.9692
7.1877 2.6413 -1.6187 0.9692
6.8602 3.4024 -1.6187 0.9692
6.5971 3.8881 -1.6187 0.9692
6.2996 4.3537 -1.6187 0.9692
6.1385 4.5781 -1.6187 0.9692
5.2174 5.6052 -1.6187 0.9692
5.0118 5.7898 -1.6187 0.9692
4.7997 5.9668 -1.6187 0.9692
4.5814 6.1361 -1.6187 0.9692
4.3570 6.2974 -1.6187 0.9692
4.1194 6.4385 -1.6157 0.9692
3.8752 6.5673 -1.6119 0.9693
3.4979 6.4485 -1.5507 0.9705
2.8592 6.3201 -1.4663 0.9720
1.6788 6.7306 -1.4663 0.9720
1.1892 6.8342 -1.4663 0.9720
6.7859 1.1771 -1.6187 0.9721
6.6190 1.9033 -1.6187 0.9721
6.5461 2.1408 -1.6187 0.9721
6.4646 2.3756 -1.6187 0.9721
6.3747 2.6072 -1.6187 0.9721
6.2765 2.8355 -1.6187 0.9721
6.1701 3.0601 -1.6187 0.9721
6.0557 3.2807 -1.6187 0.9721
5.9335 3.4970 -1.6187 0.9721
5.5209 4.1175 -1.6187 0.9721
5.3688 4.3140 -1.6187 0.9721
5.2097 4.5049 -1.6187 0.9721
4.8714 4.8688 -1.6187 0.9721
4.3169 5.3665 -1.6187 0.9721
4.1205 5.5188 -1.6187 0.9721
3.5002 5.9317 -1.6187 0.9721
3.2775 6.0423 -1.6155 0.9722
2.7594 6.0994 -1.5734 0.9729
1.9425 5.9289 -1.4663 0.9747
6.1171 1.2900 -1.6187 0.9745
6.0666 1.5098 -1.6187 0.9745
6.0082 1.7277 -1.6187 0.9745
5.7864 2.3666 -1.6187 0.9745
5.6973 2.5738 -1.6187 0.9745
4.4218 4.4195 -1.6187 0.9745
3.5571 5.1412 -1.6187 0.9745
2.7807 5.5993 -1.6187 0.9745
2.3622 5.7668 -1.6135 0.9746
2.1468 5.8326 -1.6092 0.9746
1.6218 5.6287 -1.5167 0.9761
5.1225 2.5405 -1.6187 0.9765
5.0275 2.7236 -1.6187 0.9765
4.9260 2.9032 -1.6187 0.9765
4.8180 3.0790 -1.6187 0.9765
4.7038 3.2508 -1.6187 0.9765
4.5835 3.4184 -1.6187 0.9765
4.3251 3.7400 -1.6187 0.9765
4.0442 4.0421 -1.6187 0.9765
3.2533 4.7021 -1.6187 0.9765
2.9058 4.9245 -1.6187 0.9765
2.7263 5.0261 -1.6187 0.9765
2.3568 5.2096 -1.6187 0.9765
1.9734 5.3613 -1.6173 0.9765
1.5774 5.4747 -1.6129 0.9766
1.3745 5.5105 -1.6078 0.9767
5.1852 0.8994 -1.6187 0.9782
5.1494 1.0859 -1.6187 0.9782
5.1068 1.2710 -1.6187 0.9782
4.8710 1.9922 -1.6187 0.9782
4.7960 2.1667 -1.6187 0.9782
4.6273 2.5068 -1.6187 0.9782
4.5338 2.6721 -1.6187 0.9782
4.4345 2.8339 -1.6187 0.9782
4.3294 2.9920 -1.6187 0.9782
3.8541 3.5836 -1.6187 0.9782
3.7223 3.7203 -1.6187 0.9782
3.5856 3.8522 -1.6187 0.9782
3.2986 4.1007 -1.6187 0.9782
3.1485 4.2170 -1.6187 0.9782
2.9943 4.3278 -1.6187 0.9782
2.8363 4.4330 -1.6187 0.9782
2.6745 4.5324 -1.6187 0.9782
2.1692 4.7949 -1.6187 0.9782
1.8179 4.9388 -1.6187 0.9782
1.6385 5.0012 -1.6187 0.9782
1.4571 5.0570 -1.6187 0.9782
1.2723 5.1008 -1.6169 0.9782
1.0863 5.1379 -1.6152 0.9783
4.7648 1.0048 -1.6187 0.9797
4.7254 1.1760 -1.6187 0.9797
4.6800 1.3457 -1.6187 0.9797
4.5708 1.6796 -1.6187 0.9797
4.5072 1.8434 -1.6187 0.9797
4.3626 2.1636 -1.6187 0.9797
4.2817 2.3196 -1.6187 0.9797
4.1033 2.6222 -1.6187 0.9797
4.0060 2.7686 -1.6187 0.9797
3.7960 3.0502 -1.6187 0.9797
3.5662 3.3159 -1.6187 0.9797
3.4443 3.4424 -1.6187 0.9797
3.3179 3.5645 -1.6187 0.9797
3.1871 3.6818 -1.6187 0.9797
2.7707 4.0046 -1.6187 0.9797
2.6244 4.1019 -1.6187 0.9797
2.4748 4.1939 -1.6187 0.9797
2.3219 4.2805 -1.6187 0.9797
2.1659 4.3614 -1.6187 0.9797
1.8458 4.5063 -1.6187 0.9797
1.5162 4.6276 -1.6187 0.9797
4.3501 1.2509 -1.6187 0.9810
4.3022 1.4070 -1.6187 0.9810
4.1250 1.8636 -1.6187 0.9810
4.0551 2.0111 -1.6187 0.9810
3.9799 2.1561 -1.6187 0.9810
3.8141 2.4374 -1.6187 0.9810
3.7237 2.5734 -1.6187 0.9810
3.5285 2.8352 -1.6187 0.9810
3.4239 2.9607 -1.6187 0.9810
3.2015 3.1999 -1.6187 0.9810
2.9625 3.4224 -1.6187 0.9810
2.8371 3.5270 -1.6187 0.9810
2.7081 3.6270 -1.6187 0.9810
2.5754 3.7224 -1.6187 0.9810
2.4395 3.8129 -1.6187 0.9810
2.0133 4.0541 -1.6187 0.9810
1.8658 4.1241 -1.6187 0.9810
1.5636 4.2479 -1.6187 0.9810
1.2532 4.3496 -1.6187 0.9810
1.0955 4.3919 -1.6187 0.9810
0.9363 4.4286 -1.6187 0.9810
0.7760 4.4595 -1.6187 0.9810
0.6146 4.4846 -1.6187 0.9810
4.1618 0.7219 -1.6187 0.9821
4.0594 1.1673 -1.6187 0.9821
3.9096 1.5990 -1.6187 0.9821
3.8493 1.7390 -1.6187 0.9821
3.7139 2.0120 -1.6187 0.9821
3.5592 2.2746 -1.6187 0.9821
3.4749 2.4015 -1.6187 0.9821
3.3860 2.5253 -1.6187 0.9821
3.2927 2.6458 -1.6187 0.9821
3.1951 2.7628 -1.6187 0.9821
3.0934 2.8763 -1.6187 0.9821
2.9876 2.9860 -1.6187 0.9821
2.7645 3.1936 -1.6187 0.9821
2.6475 3.2913 -1.6187 0.9821
2.1466 3.6378 -1.6187 0.9821
1.8788 3.7832 -1.6187 0.9821
1.7411 3.8485 -1.6187 0.9821
1.1694 4.0589 -1.6187 0.9821
0.7241 4.1615 -1.6187 0.9821
0.5735 4.1849 -1.6187 0.9821
3.8968 0.6760 -1.6187 0.9831
3.8010 1.0930 -1.6187 0.9831
3.7591 1.2294 -1.6187 0.9831
3.6607 1.4972 -1.6187 0.9831
3.4775 1.8839 -1.6187 0.9831
3.1704 2.3645 -1.6187 0.9831
2.7974 2.7959 -1.6187 0.9831
2.5885 2.9903 -1.6187 0.9831
2.1315 3.3315 -1.6187 0.9831
2.0100 3.4062 -1.6187 0.9831
1.8858 3.4765 -1.6187 0.9831
1.6302 3.6034 -1.6187 0.9831
1.4992 3.6599 -1.6187 0.9831
1.2314 3.7585 -1.6187 0.9831
0.9572 3.8375 -1.6187 0.9831
0.6780 3.8965 -1.6187 0.9831
3.6595 0.6348 -1.6187 0.9839
3.6342 0.7664 -1.6187 0.9839
3.6042 0.8970 -1.6187 0.9839
3.5695 1.0264 -1.6187 0.9839
3.5302 1.1545 -1.6187 0.9839
3.4377 1.4060 -1.6187 0.9839
3.3848 1.5291 -1.6187 0.9839
3.3274 1.6502 -1.6187 0.9839
3.2657 1.7692 -1.6187 0.9839
3.1998 1.8858 -1.6187 0.9839
3.1297 2.0000 -1.6187 0.9839
3.0555 2.1117 -1.6187 0.9839
2.9773 2.2205 -1.6187 0.9839
2.8095 2.4294 -1.6187 0.9839
2.7200 2.5291 -1.6187 0.9839
2.5306 2.7187 -1.6187 0.9839
2.4309 2.8082 -1.6187 0.9839
2.2221 2.9762 -1.6187 0.9839
2.1133 3.0544 -1.6187 0.9839
2.0017 3.1286 -1.6187 0.9839
1.7709 3.2648 -1.6187 0.9839
1.4079 3.4370 -1.6187 0.9839
1.2830 3.4856 -1.6187 0.9839
0.8989 3.6038 -1.6187 0.9839
0.6367 3.6592 -1.6187 0.9839
0.5043 3.6798 -1.6187 0.9839
3.3608 0.9664 -1.6187 0.9847
3.3237 1.0870 -1.6187 0.9847
3.2824 1.2062 -1.6187 0.9847
3.1868 1.4397 -1.6187 0.9847
3.1328 1.5537 -1.6187 0.9847
3.0747 1.6657 -1.6187 0.9847
3.0126 1.7757 -1.6187 0.9847
2.8768 1.9882 -1.6187 0.9847
2.8032 2.0906 -1.6187 0.9847
2.7260 2.1904 -1.6187 0.9847
2.5610 2.3812 -1.6187 0.9847
2.4734 2.4721 -1.6187 0.9847
2.3826 2.5597 -1.6187 0.9847
2.2887 2.6440 -1.6187 0.9847
2.0921 2.8021 -1.6187 0.9847
1.8847 2.9457 -1.6187 0.9847
1.7772 3.0117 -1.6187 0.9847
1.3255 3.2360 -1.6187 0.9847
1.2079 3.2817 -1.6187 0.9847
0.7234 3.4214 -1.6187 0.9847
0.5995 3.4452 -1.6187 0.9847
0.4748 3.4646 -1.6187 0.9847
3.2514 0.5640 -1.6187 0.9854
3.2289 0.6809 -1.6187 0.9854
3.1714 0.9119 -1.6187 0.9854
3.0073 1.3586 -1.6187 0.9854
2.9015 1.5719 -1.6187 0.9854
2.8429 1.6755 -1.6187 0.9854
2.7806 1.7770 -1.6187 0.9854
2.6452 1.9729 -1.6187 0.9854
2.4962 2.1584 -1.6187 0.9854
2.2484 2.4155 -1.6187 0.9854
2.1598 2.4950 -1.6187 0.9854
2.0683 2.5713 -1.6187 0.9854
1.9742 2.6442 -1.6187 0.9854
1.7785 2.7797 -1.6187 0.9854
1.6770 2.8421 -1.6187 0.9854
1.5734 2.9007 -1.6187 0.9854
1.1399 3.0968 -1.6187 0.9854
1.0274 3.1359 -1.6187 0.9854
0.7987 3.2019 -1.6187 0.9854
0.6826 3.2286 -1.6187 0.9854
0.5657 3.2511 -1.6187 0.9854
3.0743 0.5333 -1.6187 0.9860
3.0530 0.6438 -1.6187 0.9860
2.9656 0.9699 -1.6187 0.9860
2.8880 1.1812 -1.6187 0.9860
2.7953 1.3863 -1.6187 0.9860
2.7435 1.4863 -1.6187 0.9860
2.6881 1.5843 -1.6187 0.9860
2.5668 1.7740 -1.6187 0.9860
2.5012 1.8654 -1.6187 0.9860
2.4323 1.9544 -1.6187 0.9860
1.6816 2.6283 -1.6187 0.9860
1.4877 2.7427 -1.6187 0.9860
1.2861 2.8428 -1.6187 0.9860
1.1827 2.8874 -1.6187 0.9860
0.9715 2.9652 -1.6187 0.9860
0.7552 3.0275 -1.6187 0.9860
0.6454 3.0527 -1.6187 0.9860
0.5349 3.0741 -1.6187 0.9860
2.8679 0.7137 -1.6187 0.9866
2.8403 0.8167 -1.6187 0.9866
2.7355 1.1188 -1.6187 0.9866
2.6933 1.2167 -1.6187 0.9866
2.5461 1.5006 -1.6187 0.9866
2.4903 1.5915 -1.6187 0.9866
2.4313 1.6803 -1.6187 0.9866
2.3691 1.7669 -1.6187 0.9866
2.3038 1.8512 -1.6187 0.9866
2.2355 1.9331 -1.6187 0.9866
2.1644 2.0125 -1.6187 0.9866
2.0904 2.0893 -1.6187 0.9866
1.9343 2.2345 -1.6187 0.9866
1.8524 2.3029 -1.6187 0.9866
1.6816 2.4304 -1.6187 0.9866
1.5928 2.4895 -1.6187 0.9866
1.5020 2.5454 -1.6187 0.9866
1.3145 2.6470 -1.6187 0.9866
0.9202 2.8086 -1.6187 0.9866
0.8183 2.8399 -1.6187 0.9866
0.7153 2.8676 -1.6187 0.9866
0.6114 2.8915 -1.6187 0.9866
0.5067 2.9117 -1.6187 0.9866
0.4013 2.9281 -1.6187 0.9866
2.7624 0.4792 -1.6187 0.9871
2.7433 0.5785 -1.6187 0.9871
2.7207 0.6771 -1.6187 0.9871
2.6945 0.7748 -1.6187 0.9871
2.6316 0.9671 -1.6187 0.9871
2.5950 1.0614 -1.6187 0.9871
2.5550 1.1543 -1.6187 0.9871
2.5117 1.2457 -1.6187 0.9871
2.4651 1.3355 -1.6187 0.9871
2.3624 1.5098 -1.6187 0.9871
2.2475 1.6762 -1.6187 0.9871
2.1855 1.7562 -1.6187 0.9871
2.1208 1.8338 -1.6187 0.9871
1.9102 2.0522 -1.6187 0.9871
1.6774 2.2466 -1.6187 0.9871
1.4249 2.4146 -1.6187 0.9871
1.3368 2.4645 -1.6187 0.9871
1.2470 2.5111 -1.6187 0.9871
1.1556 2.5544 -1.6187 0.9871
1.0627 2.5945 -1.6187 0.9871
0.3807 2.7777 -1.6187 0.9871
