ply
format ascii 1.0
element vertex 479
property float32 x
property float32 y
property float32 z
property float32 I
end_header
-41.9209 -19.8387 8.1777 0.8283
-35.2861 -18.2580 7.0055 0.8510
-34.4384 -21.0413 7.1161 0.8488
-34.4789 -24.5845 7.4668 0.8420
-36.2021 -27.8020 8.0486 0.8308
-19.8221 -16.3726 4.5333 0.9008
-38.6580 -18.2945 6.5519 0.8411
-36.9568 -19.1225 6.3746 0.8450
-35.9764 -21.9809 6.4587 0.8432
-19.8203 -16.3711 3.9379 0.9012
-33.1878 -36.4571 7.5526 0.8191
-37.6035 -17.7955 5.4174 0.8455
-35.8309 -20.1825 5.3552 0.8471
-34.5854 -22.8544 5.3982 0.8460
-35.6973 -25.4533 5.7092 0.8379
-36.2682 -22.1592 4.5639 0.8428
-35.3919 -23.3873 4.5552 0.8431
-19.8124 -16.3645 1.5935 0.9021
-25.5067 -22.6370 2.1147 0.8723
-19.8098 -16.3624 1.0131 0.9023
-19.8072 -16.3603 0.4340 0.9023
-24.7547 -23.5915 0.5776 0.8721
-35.2376 -18.2329 -0.2234 0.8532
-31.6357 -19.3288 -0.2087 0.8622
-32.2300 -22.9810 -0.2229 0.8536
-19.8046 -16.3582 -0.1446 0.9024
-34.3097 -30.4496 -0.2583 0.8324
-24.7547 -23.5915 -0.1925 0.8722
-45.0828 -15.7229 -1.3444 0.8261
-39.8114 -17.1393 -1.2205 0.8408
-35.2376 -18.2329 -1.1172 0.8532
-31.9696 -21.1257 -1.0790 0.8578
-24.7547 -23.5915 -0.9629 0.8721
-29.4486 -40.2165 -1.4035 0.8192
-27.5993 8.6312 -1.4665 0.8906
-27.8881 7.6468 -1.4665 0.8906
-28.1419 6.6527 -1.4665 0.8906
-31.5093 5.1228 -1.6190 0.8800
-2.9663 -0.1535 -0.1506 0.9882
-31.6828 -3.9064 -1.6189 0.8800
-31.3261 -6.1430 -1.6189 0.8800
-30.1419 -10.5122 -1.6189 0.8800
-28.8317 -13.6443 -1.6176 0.8801
-27.7032 -14.3344 -1.5819 0.8826
-26.1436 -14.7259 -1.5217 0.8868
-20.9324 -19.9489 -1.4664 0.8906
-20.2116 -20.6788 -1.4664 0.8906
-18.6943 -22.0596 -1.4664 0.8906
-17.9500 -22.7723 -1.4705 0.8904
-8.7860 -13.9803 -0.8374 0.9360
-19.2883 5.2887 -1.4665 0.9229
-2.4121 0.3048 -0.1783 0.9903
-2.4097 0.2180 -0.1774 0.9903
-2.4079 0.1319 -0.1768 0.9904
-2.4042 0.0463 -0.1763 0.9904
-2.4038 -0.0390 -0.1763 0.9904
-2.4076 -0.1246 -0.1768 0.9904
-2.4096 -0.2106 -0.1773 0.9903
-2.4887 -0.4880 -0.1860 0.9899
-2.5397 -0.5923 -0.1912 0.9896
-21.0920 -6.5265 -1.6189 0.9153
-20.2792 -8.7304 -1.6189 0.9153
-19.6090 -10.1462 -1.6188 0.9153
-18.8401 -11.5110 -1.6188 0.9153
-17.5105 -13.4474 -1.6188 0.9153
-15.9825 -15.2315 -1.6188 0.9153
-14.5782 4.5591 -1.4664 0.9405
-2.2473 0.6162 -0.2237 0.9907
-2.1674 0.3524 -0.2108 0.9912
-2.1569 0.2725 -0.2087 0.9913
-2.1551 0.1180 -0.2072 0.9914
-2.1521 -0.0349 -0.2066 0.9914
-2.1549 -0.1115 -0.2072 0.9914
-2.1565 -0.1885 -0.2078 0.9913
-2.1569 -0.2659 -0.2086 0.9913
-2.1651 -0.3453 -0.2105 0.9912
-2.1916 -0.4298 -0.2144 0.9911
-16.1084 -4.9844 -1.6188 0.9345
-15.9214 -5.5527 -1.6188 0.9345
-14.9758 -7.7489 -1.6188 0.9345
-14.6915 -8.2752 -1.6188 0.9345
-13.7290 -9.7892 -1.6188 0.9345
-13.3731 -10.2701 -1.6188 0.9345
-13.0004 -10.7380 -1.6188 0.9345
-11.3506 -12.4688 -1.6188 0.9345
-10.4379 -13.2422 -1.6188 0.9345
-9.9616 -13.6041 -1.6188 0.9345
-9.4727 -13.9488 -1.6188 0.9345
-8.9719 -14.2761 -1.6188 0.9345
-2.0762 0.6493 -0.2584 0.9913
-2.0599 0.5648 -0.2537 0.9914
-2.0435 0.4831 -0.2494 0.9916
-2.0269 0.4038 -0.2455 0.9917
-2.0126 0.3272 -0.2422 0.9918
-2.0102 0.2540 -0.2407 0.9919
-2.0071 0.1816 -0.2394 0.9919
-1.9992 0.0385 -0.2375 0.9920
-2.0031 -0.1037 -0.2383 0.9920
-2.0255 -0.3972 -0.2452 0.9917
-2.0421 -0.4763 -0.2491 0.9916
-12.8678 -4.4877 -1.6188 0.9466
-12.7004 -4.9413 -1.6188 0.9466
-12.5172 -5.3888 -1.6188 0.9466
-12.3181 -5.8294 -1.6188 0.9466
-12.1036 -6.2627 -1.6188 0.9466
-11.3696 -7.5132 -1.6188 0.9466
-11.0959 -7.9117 -1.6188 0.9466
-10.5070 -8.6785 -1.6188 0.9466
-10.1925 -9.0458 -1.6188 0.9466
-9.1737 -10.0774 -1.6188 0.9466
-8.8104 -10.3965 -1.6188 0.9466
-8.4361 -10.7025 -1.6188 0.9466
-7.6560 -11.2736 -1.6188 0.9466
-1.9665 0.6150 -0.2919 0.9917
-1.9530 0.5355 -0.2869 0.9919
-1.9392 0.4584 -0.2823 0.9920
-1.9161 0.1733 -0.2726 0.9923
-1.9069 -0.0310 -0.2702 0.9923
-1.9126 -0.0990 -0.2714 0.9923
-1.9158 -0.1675 -0.2725 0.9923
-1.9183 -0.2365 -0.2739 0.9922
-1.9786 -0.6901 -0.2969 0.9916
-10.6474 -4.1426 -1.6188 0.9549
-10.4937 -4.5176 -1.6188 0.9549
-8.8085 -7.2756 -1.6188 0.9549
-8.5449 -7.5835 -1.6188 0.9549
-8.2705 -7.8819 -1.6188 0.9549
-7.6908 -8.4484 -1.6188 0.9549
-7.0724 -8.9724 -1.6188 0.9549
-6.4184 -9.4512 -1.6187 0.9549
-6.0791 -9.6730 -1.6187 0.9549
-1.8343 0.2318 -0.3046 0.9925
-1.8324 0.1658 -0.3031 0.9926
-1.8282 0.1001 -0.3016 0.9926
-1.8230 0.0351 -0.3004 0.9926
-1.8225 -0.0296 -0.3003 0.9926
-1.8278 -0.0946 -0.3015 0.9926
-1.8322 -0.1602 -0.3030 0.9926
-1.8375 -0.3603 -0.3085 0.9924
-8.8819 -4.2033 -1.6188 0.9609
-8.7272 -4.5157 -1.6188 0.9609
-8.5615 -4.8224 -1.6188 0.9609
-8.1980 -5.4174 -1.6188 0.9609
-7.7933 -5.9849 -1.6188 0.9609
-7.1133 -6.7790 -1.6188 0.9609
-6.8683 -7.0271 -1.6188 0.9609
-6.6147 -7.2663 -1.6188 0.9609
-6.0828 -7.7170 -1.6187 0.9609
-5.2285 -8.3196 -1.6187 0.9609
-1.7785 0.5562 -0.3503 0.9924
-1.7717 0.4858 -0.3453 0.9926
-1.7643 0.4171 -0.3408 0.9926
-1.7574 0.2857 -0.3347 0.9928
-1.7538 0.1586 -0.3310 0.9929
-1.7495 -0.0906 -0.3293 0.9929
-1.7565 -0.2166 -0.3327 0.9928
-1.7574 -0.3446 -0.3366 0.9927
-1.7637 -0.4113 -0.3404 0.9927
-1.7711 -0.4799 -0.3449 0.9926
-1.7780 -0.5502 -0.3498 0.9925
-7.9103 -3.4055 -1.6188 0.9656
-7.6489 -3.9578 -1.6188 0.9656
-7.0122 -4.9999 -1.6188 0.9656
-6.6400 -5.4845 -1.6188 0.9656
-6.4413 -5.7166 -1.6188 0.9656
-6.2344 -5.9415 -1.6188 0.9656
-5.7975 -6.3685 -1.6187 0.9656
-5.3313 -6.7636 -1.6187 0.9656
-5.0880 -6.9484 -1.6187 0.9656
-4.5825 -7.2917 -1.6187 0.9656
-1.6989 0.5313 -0.3763 0.9927
-1.6846 0.3356 -0.3631 0.9930
-1.6808 0.1520 -0.3567 0.9931
-1.6728 -0.0272 -0.3536 0.9932
-1.6770 -0.0868 -0.3550 0.9932
-1.6833 -0.2075 -0.3585 0.9931
-1.6846 -0.3304 -0.3629 0.9930
-1.6869 -0.3934 -0.3661 0.9929
-1.6930 -0.4587 -0.3708 0.9929
-1.6985 -0.5256 -0.3758 0.9928
-1.7033 -0.5940 -0.3813 0.9927
-1.7073 -0.6643 -0.3872 0.9925
-6.8015 -3.5193 -1.6188 0.9692
-6.2353 -4.4459 -1.6188 0.9692
-5.1551 -5.6629 -1.6187 0.9692
-4.9510 -5.8423 -1.6187 0.9692
-4.5243 -6.1786 -1.6187 0.9692
-4.3022 -6.3352 -1.6187 0.9692
-1.6255 0.5083 -0.4003 0.9930
-1.6213 0.4445 -0.3951 0.9931
-1.6166 0.2628 -0.3849 0.9933
-1.6152 0.2041 -0.3826 0.9933
-1.6130 0.1459 -0.3806 0.9934
-1.6063 0.0309 -0.3776 0.9934
-1.6151 -0.1991 -0.3825 0.9933
-1.6165 -0.2578 -0.3847 0.9933
-1.6252 -0.5029 -0.3998 0.9930
-1.6287 -0.5680 -0.4054 0.9929
-1.6314 -0.6347 -0.4114 0.9928
-1.6334 -0.7032 -0.4179 0.9927
-6.2257 -2.9462 -1.6188 0.9721
-6.1172 -3.1652 -1.6188 0.9721
-5.8774 -3.5910 -1.6188 0.9721
-5.7463 -3.7972 -1.6187 0.9721
-5.1514 -4.5718 -1.6187 0.9721
-4.9860 -4.7517 -1.6187 0.9721
-4.8143 -4.9256 -1.6187 0.9721
-4.6365 -5.0933 -1.6187 0.9721
-4.4529 -5.2545 -1.6187 0.9721
-4.2637 -5.4092 -1.6187 0.9721
-1.5575 0.4871 -0.4225 0.9933
-1.5519 0.3669 -0.4129 0.9934
-1.5526 0.2524 -0.4073 0.9935
-1.5517 0.1961 -0.4049 0.9936
-1.5499 0.1402 -0.4029 0.9936
-1.5473 0.0848 -0.4012 0.9936
-1.5438 0.0297 -0.3998 0.9936
-1.5470 -0.0801 -0.4011 0.9936
-1.5528 -0.3045 -0.4097 0.9935
-1.5521 -0.3620 -0.4126 0.9934
-1.5540 -0.4211 -0.4169 0.9934
-1.5572 -0.4819 -0.4221 0.9933
-1.5617 -0.5446 -0.4282 0.9932
-1.5700 -0.6759 -0.4426 0.9930
-5.6511 -2.6743 -1.6187 0.9745
-5.4473 -3.0683 -1.6187 0.9745
-5.2160 -3.4468 -1.6187 0.9745
-5.0904 -3.6296 -1.6187 0.9745
-4.8203 -3.9814 -1.6187 0.9745
-4.6760 -4.1499 -1.6187 0.9745
-4.2086 -4.6232 -1.6187 0.9745
-4.0420 -4.7696 -1.6187 0.9745
-3.8702 -4.9100 -1.6187 0.9745
-3.6936 -5.0442 -1.6187 0.9745
-3.5123 -5.1720 -1.6187 0.9745
-3.3267 -5.2933 -1.6187 0.9745
-1.4960 0.4102 -0.4391 0.9936
-1.4945 0.3533 -0.4347 0.9936
-1.4868 0.0286 -0.4210 0.9938
-1.4920 -0.1304 -0.4240 0.9938
-1.4938 -0.1842 -0.4261 0.9938
-1.4948 -0.2384 -0.4285 0.9937
-1.4950 -0.2932 -0.4313 0.9937
-1.4946 -0.3486 -0.4345 0.9936
-1.4955 -0.4052 -0.4386 0.9936
-1.5045 -0.5247 -0.4511 0.9934
-1.5079 -0.5867 -0.4581 0.9933
-1.5126 -0.7158 -0.4737 0.9931
-5.0785 -2.6278 -1.6187 0.9765
-1.6655 -1.0176 -0.5525 0.9919
-4.6557 -3.3197 -1.6187 0.9765
-4.4086 -3.6414 -1.6187 0.9765
-4.2767 -3.7955 -1.6187 0.9765
-4.1394 -3.9448 -1.6187 0.9765
-3.9968 -4.0892 -1.6187 0.9765
-3.6968 -4.3623 -1.6187 0.9765
-3.5397 -4.4907 -1.6187 0.9765
-3.3782 -4.6134 -1.6187 0.9765
-3.2124 -4.7303 -1.6187 0.9765
-1.4478 0.4528 -0.4666 0.9937
-1.4449 0.3416 -0.4567 0.9938
-1.4458 0.2881 -0.4534 0.9938
-1.4459 0.2351 -0.4506 0.9939
-1.4439 0.1306 -0.4459 0.9940
-1.4418 0.0790 -0.4441 0.9940
-1.4373 0.0277 -0.4422 0.9940
-1.4365 -0.0233 -0.4419 0.9940
-1.4416 -0.0746 -0.4440 0.9940
-1.4452 -0.1782 -0.4479 0.9939
-1.4458 -0.2835 -0.4532 0.9939
-1.4450 -0.3370 -0.4564 0.9938
-1.4440 -0.3913 -0.4602 0.9938
-1.4475 -0.4479 -0.4660 0.9937
-1.4550 -0.6264 -0.4872 0.9934
-1.4963 -0.9142 -0.5393 0.9927
-4.2851 -3.0554 -1.6187 0.9782
-4.1740 -3.2055 -1.6187 0.9782
-3.8098 -3.6308 -1.6187 0.9782
-3.6786 -3.7637 -1.6187 0.9782
-3.2579 -4.1332 -1.6187 0.9782
-3.1092 -4.2462 -1.6187 0.9782
-2.8004 -4.4559 -1.6187 0.9782
-1.3960 0.3828 -0.4812 0.9939
-1.3979 -0.1222 -0.4664 0.9941
-1.3991 -0.1725 -0.4686 0.9941
-1.3995 -0.2232 -0.4711 0.9940
-1.3981 -0.3261 -0.4772 0.9940
-1.3981 -0.4326 -0.4865 0.9939
-1.4017 -0.5454 -0.5000 0.9937
-1.4027 -0.6638 -0.5158 0.9935
-1.5990 -0.9007 -0.6101 0.9923
-1.4963 -0.9142 -0.5829 0.9926
-3.6422 -3.2325 -1.6187 0.9797
-3.4039 -3.4825 -1.6187 0.9797
-3.2782 -3.6011 -1.6187 0.9797
-3.1484 -3.7151 -1.6187 0.9797
-3.0146 -3.8245 -1.6187 0.9797
-1.3533 0.3199 -0.4973 0.9941
-1.3547 0.2699 -0.4940 0.9941
-1.3552 0.1713 -0.4885 0.9942
-1.3543 0.1225 -0.4863 0.9942
-1.3488 0.0739 -0.4831 0.9943
-1.3414 0.0258 -0.4798 0.9943
-1.3407 -0.0218 -0.4795 0.9943
-1.3482 -0.0698 -0.4828 0.9943
-1.3553 -0.2162 -0.4908 0.9942
-1.3513 -0.3662 -0.5007 0.9941
-1.3512 -0.4181 -0.5058 0.9940
-1.3531 -0.5265 -0.5192 0.9939
-1.3558 -0.7637 -0.5565 0.9934
-3.7765 -2.4955 -1.6187 0.9810
-3.6856 -2.6279 -1.6187 0.9810
-3.5901 -2.7570 -1.6187 0.9810
-3.2768 -3.1228 -1.6187 0.9810
-3.1640 -3.2371 -1.6187 0.9810
-3.0471 -3.3473 -1.6187 0.9810
-2.8021 -3.5550 -1.6187 0.9810
-2.6743 -3.6521 -1.6187 0.9810
-2.4086 -3.8325 -1.6187 0.9810
-1.3083 0.3587 -0.5199 0.9942
-1.3124 0.2615 -0.5128 0.9943
-1.3040 0.0714 -0.5005 0.9944
-1.3096 -0.1145 -0.5038 0.9944
-1.3133 -0.1619 -0.5071 0.9943
-1.3109 -0.3057 -0.5158 0.9943
-1.3085 -0.3546 -0.5195 0.9942
-1.3074 -0.5087 -0.5376 0.9940
-1.3065 -0.5625 -0.5451 0.9939
-1.3049 -0.6176 -0.5532 0.9938
-1.2993 -0.7319 -0.5715 0.9936
-3.5241 -2.3288 -1.6187 0.9821
-3.4393 -2.4523 -1.6187 0.9821
-3.3501 -2.5728 -1.6187 0.9821
-3.1593 -2.8038 -1.6187 0.9821
-3.0578 -2.9142 -1.6187 0.9821
-2.9525 -3.0208 -1.6187 0.9821
-2.8435 -3.1236 -1.6187 0.9821
-2.3731 -3.4944 -1.6187 0.9821
-1.2701 0.3002 -0.5341 0.9944
-1.2719 0.2534 -0.5308 0.9944
-1.2730 0.2070 -0.5278 0.9944
-1.2670 0.1146 -0.5207 0.9945
-1.2613 0.0691 -0.5170 0.9946
-1.2549 0.0242 -0.5137 0.9946
-1.2608 -0.0653 -0.5167 0.9946
-1.2665 -0.1107 -0.5203 0.9945
-1.2715 -0.1568 -0.5243 0.9945
-1.2677 -0.3435 -0.5375 0.9943
-1.2644 -0.3912 -0.5417 0.9943
-1.2625 -0.5435 -0.5626 0.9941
-1.2570 -0.6504 -0.5792 0.9939
-3.2997 -2.1805 -1.6187 0.9831
-3.2203 -2.2962 -1.6187 0.9831
-3.0494 -2.5187 -1.6187 0.9831
-2.9581 -2.6253 -1.6187 0.9831
-2.6625 -2.9247 -1.6187 0.9831
-2.4484 -3.1062 -1.6187 0.9831
-1.2247 0.3830 -0.5592 0.9944
-1.2283 0.3368 -0.5551 0.9945
-1.2312 0.2910 -0.5514 0.9945
-1.2303 0.1554 -0.5404 0.9946
-1.2207 0.0669 -0.5328 0.9947
-1.2202 -0.0632 -0.5325 0.9947
-1.2299 -0.1516 -0.5401 0.9946
-1.2336 -0.1968 -0.5444 0.9946
-1.2333 -0.2419 -0.5477 0.9945
-1.2314 -0.2872 -0.5511 0.9945
-1.2286 -0.3329 -0.5548 0.9945
-1.2250 -0.3791 -0.5589 0.9944
-1.2207 -0.5255 -0.5792 0.9942
-1.2178 -0.5763 -0.5872 0.9941
-1.2140 -0.6282 -0.5957 0.9941
-1.2038 -0.7355 -0.6148 0.9939
-3.0242 -2.1563 -1.6187 0.9839
-2.7780 -2.4654 -1.6187 0.9839
-2.6888 -2.5624 -1.6187 0.9839
-2.5962 -2.6562 -1.6187 0.9839
-2.2993 -2.9170 -1.6187 0.9839
-2.0867 -3.0727 -1.6187 0.9839
-1.9764 -3.1448 -1.6187 0.9839
-1.1871 0.3712 -0.5757 0.9945
-1.1909 0.3265 -0.5716 0.9946
-1.1939 0.2822 -0.5679 0.9946
-1.1961 0.2383 -0.5645 0.9946
-1.1938 0.1941 -0.5598 0.9947
-1.1905 0.1504 -0.5555 0.9947
-1.1865 0.1073 -0.5515 0.9948
-1.1818 0.0647 -0.5479 0.9948
-1.1763 0.0226 -0.5446 0.9948
-1.1758 -0.0191 -0.5443 0.9948
-1.1941 -0.2785 -0.5676 0.9946
-1.1912 -0.3228 -0.5713 0.9946
-1.1846 -0.4132 -0.5807 0.9945
-1.1831 -0.4603 -0.5876 0.9944
-1.1807 -0.5083 -0.5950 0.9943
-1.1732 -0.6071 -0.6115 0.9942
-1.1680 -0.6579 -0.6205 0.9941
-2.8473 -2.0303 -1.6187 0.9847
-2.6155 -2.3213 -1.6187 0.9847
-2.5315 -2.4126 -1.6187 0.9847
-2.4444 -2.5009 -1.6187 0.9847
-2.3541 -2.5860 -1.6187 0.9847
-2.1648 -2.7464 -1.6187 0.9847
-1.9646 -2.8930 -1.6187 0.9847
-1.1510 0.3600 -0.5915 0.9946
-1.1489 0.1039 -0.5659 0.9949
-1.1395 0.0219 -0.5590 0.9949
-1.1390 -0.0185 -0.5588 0.9949
-1.1486 -0.1004 -0.5656 0.9949
-1.1523 -0.1421 -0.5695 0.9948
-1.1552 -0.1842 -0.5738 0.9948
-1.1573 -0.2270 -0.5785 0.9948
-1.1583 -0.2701 -0.5834 0.9947
-1.1552 -0.3130 -0.5871 0.9947
-1.1343 -0.5869 -0.6265 0.9943
-1.1287 -0.6357 -0.6354 0.9942
-1.1221 -0.6855 -0.6450 0.9942
-1.1143 -0.7364 -0.6552 0.9941
-2.6173 -2.0100 -1.6187 0.9854
-2.5443 -2.1015 -1.6187 0.9854
-2.4681 -2.1905 -1.6187 0.9854
-2.0428 -2.5917 -1.6187 0.9854
-1.9496 -2.6625 -1.6187 0.9854
-1.8540 -2.7300 -1.6187 0.9854
-1.7559 -2.7940 -1.6187 0.9854
-1.1163 0.3491 -0.6068 0.9947
-1.1203 0.2232 -0.5926 0.9949
-1.1129 0.1007 -0.5797 0.9950
-1.1126 -0.0973 -0.5794 0.9950
-1.1211 -0.2615 -0.5972 0.9948
-1.1167 -0.3455 -0.6064 0.9947
-1.1092 -0.4316 -0.6174 0.9947
-1.1060 -0.4762 -0.6247 0.9946
-1.0971 -0.5677 -0.6408 0.9944
-1.0528 -0.7507 -0.6708 0.9942
-2.3337 -2.0712 -1.6187 0.9860
-2.1810 -2.2314 -1.6187 0.9860
-2.1005 -2.3074 -1.6187 0.9860
-1.9316 -2.4505 -1.6187 0.9860
-1.8434 -2.5175 -1.6187 0.9860
-1.6603 -2.6418 -1.6187 0.9860
-1.0829 0.3387 -0.6214 0.9948
-1.0850 0.2975 -0.6162 0.9949
-1.0852 0.2565 -0.6108 0.9949
-1.0847 0.2161 -0.6058 0.9950
-1.0812 0.1366 -0.5969 0.9950
-1.0783 0.0975 -0.5930 0.9951
-1.0746 0.0589 -0.5894 0.9951
-1.0697 -0.0174 -0.5860 0.9951
-1.0742 -0.0556 -0.5892 0.9951
-1.0832 -0.1728 -0.6008 0.9950
-1.0846 -0.2127 -0.6053 0.9950
-1.0850 -0.2940 -0.6157 0.9949
-1.0783 -0.3761 -0.6255 0.9948
-1.0744 -0.4180 -0.6314 0.9948
-1.0667 -0.5048 -0.6463 0.9946
-1.0614 -0.5492 -0.6546 0.9946
-1.0552 -0.5944 -0.6633 0.9945
-1.0226 -0.6758 -0.6713 0.9944
-0.9916 -0.8190 -0.7044 0.9942
-2.1395 -2.0390 -1.6187 0.9866
-1.9896 -2.1855 -1.6187 0.9866
-1.8296 -2.3211 -1.6187 0.9866
-1.0487 0.3280 -0.6344 0.9949
-1.0501 0.2879 -0.6287 0.9950
-1.0494 0.1706 -0.6138 0.9951
-1.0475 0.1324 -0.6096 0.9951
-1.0449 0.0945 -0.6058 0.9952
-1.0447 -0.0913 -0.6054 0.9952
-1.0504 -0.2060 -0.6180 0.9951
-1.0507 -0.2450 -0.6229 0.9950
-1.0502 -0.2846 -0.6282 0.9950
-1.0327 -0.4887 -0.6596 0.9947
-1.0239 -0.5298 -0.6656 0.9947
-0.9933 -0.6069 -0.6720 0.9946
-0.9576 -0.6828 -0.6790 0.9946
-0.9294 -0.8248 -0.7174 0.9943
-1.7356 -2.2019 -1.6187 0.9871
-1.6564 -2.2621 -1.6187 0.9871
