ply
format ascii 1.0
element vertex 458
property float32 x
property float32 y
property float32 z
property float32 I
end_header
-41.9354 -19.8222 8.1788 0.8283
-35.2726 -18.2641 7.0038 0.8510
-34.4395 -21.1263 7.1241 0.8487
-38.6637 -18.2757 6.5514 0.8411
-36.9707 -20.8750 6.5042 0.8421
-36.0266 -22.0999 6.4747 0.8428
-34.2110 -22.7314 6.2924 0.8469
-34.2316 -24.5777 6.4558 0.8432
-35.7975 -20.2126 5.3533 0.8472
-35.0314 -21.4894 5.3517 0.8472
-34.3572 -22.8286 5.3716 0.8467
-37.0651 -19.1923 4.4820 0.8454
-36.7321 -20.7403 4.5297 0.8439
-36.4049 -26.1381 4.8125 0.8350
-25.5066 -22.8895 2.9011 0.8715
-25.3376 -22.7378 2.1111 0.8725
-31.6318 -19.4040 0.6268 0.8620
-45.0186 -15.5648 -0.2682 0.8265
-37.4141 -17.6850 -0.2330 0.8474
-35.2213 -18.2375 -0.2233 0.8533
-31.5488 -19.3530 -0.2084 0.8624
-32.2857 -23.1805 -0.2238 0.8530
-33.6428 -28.0590 -0.2466 0.8393
-34.4362 -30.9028 -0.2605 0.8310
-39.1569 -11.9690 -1.1529 0.8489
-45.2498 -15.6447 -1.3481 0.8256
-42.4216 -16.4100 -1.2808 0.8336
-37.6572 -17.8000 -1.1728 0.8465
-35.2213 -18.2375 -1.1168 0.8532
-33.5771 -18.9589 -1.0858 0.8570
-31.5488 -19.3530 -1.0422 0.8623
-31.8650 -21.1726 -1.0773 0.8581
-33.6416 -26.0513 -1.1981 0.8434
-33.8016 -28.1914 -1.2394 0.8385
-23.7009 -21.2691 -0.8967 0.8804
-35.5753 -34.3310 -1.3921 0.8205
-25.7812 -28.7656 -1.0877 0.8568
-27.7673 8.0744 -1.4665 0.8906
-28.0416 7.0635 -1.4665 0.8906
-28.2790 6.0432 -1.4665 0.8906
-31.6192 4.3938 -1.6190 0.8800
-2.9734 0.1954 -0.1511 0.9881
-2.9391 -0.0201 -0.1491 0.9883
-2.9803 -0.2368 -0.1516 0.9881
-31.5559 -4.8254 -1.6189 0.8800
-30.8462 -8.2197 -1.6189 0.8800
-30.5283 -9.3315 -1.6189 0.8800
-30.1701 -10.4311 -1.6189 0.8800
-29.7725 -11.5169 -1.6189 0.8800
-29.3357 -12.5876 -1.6189 0.8800
-28.8406 -13.6325 -1.6178 0.8801
-27.6901 -14.3379 -1.5814 0.8826
-26.0990 -14.7365 -1.5200 0.8869
-23.4890 -16.8647 -1.4665 0.8906
-19.6428 -16.3826 -1.2972 0.9026
-20.0662 -20.8198 -1.4664 0.8906
-19.2989 -21.5329 -1.4664 0.8906
-18.5135 -22.2263 -1.4670 0.8906
-17.7534 -22.9561 -1.4717 0.8903
-19.2047 5.5845 -1.4665 0.9229
-2.5128 0.5370 -0.1884 0.9897
-2.4053 0.0707 -0.1764 0.9904
-2.4102 -0.2796 -0.1779 0.9903
-2.5325 -0.5775 -0.1905 0.9896
-21.3343 -5.6850 -1.6189 0.9153
-21.1143 -6.4540 -1.6189 0.9153
-20.8667 -7.2145 -1.6189 0.9153
-20.5917 -7.9655 -1.6189 0.9153
-20.2896 -8.7061 -1.6189 0.9153
-19.9609 -9.4352 -1.6188 0.9153
-19.6061 -10.1520 -1.6188 0.9153
-18.8196 -11.5446 -1.6188 0.9153
-17.9345 -12.8766 -1.6188 0.9153
-17.4563 -13.5177 -1.6188 0.9153
-16.9552 -14.1410 -1.6188 0.9153
-15.8869 -15.3312 -1.6188 0.9153
-15.2928 -15.8672 -1.6158 0.9154
-14.4907 -16.1681 -1.5919 0.9166
-13.4852 -16.1896 -1.5449 0.9190
-12.5261 -16.1970 -1.5013 0.9212
-2.1565 0.2997 -0.2090 0.9913
-2.1568 0.2204 -0.2081 0.9913
-2.1533 0.0633 -0.2068 0.9914
-2.1543 -0.0928 -0.2070 0.9914
-2.1569 -0.2503 -0.2085 0.9913
-2.1603 -0.3303 -0.2098 0.9913
-2.2142 -0.5049 -0.2180 0.9909
-2.2405 -0.5970 -0.2226 0.9907
-16.1254 -4.9290 -1.6188 0.9345
-15.7262 -6.0834 -1.6188 0.9345
-15.4955 -6.6490 -1.6188 0.9345
-15.2445 -7.2058 -1.6188 0.9345
-14.6828 -8.2905 -1.6188 0.9345
-14.3729 -8.8168 -1.6188 0.9345
-13.3317 -10.3237 -1.6188 0.9345
-11.7011 -12.1406 -1.6188 0.9345
-11.2537 -12.5564 -1.6188 0.9345
-10.7915 -12.9557 -1.6188 0.9345
-10.3151 -13.3380 -1.6188 0.9345
-2.0503 0.5165 -0.2512 0.9915
-2.0334 0.4345 -0.2470 0.9917
-2.0172 0.3552 -0.2433 0.9918
-2.0047 0.1317 -0.2386 0.9919
-2.0005 0.0588 -0.2377 0.9920
-2.0061 -0.1594 -0.2390 0.9919
-2.0094 -0.2331 -0.2403 0.9919
-2.0120 -0.3077 -0.2418 0.9918
-2.0228 -0.3848 -0.2446 0.9917
-12.8798 -4.4531 -1.6188 0.9466
-12.7100 -4.9166 -1.6188 0.9466
-12.1017 -6.2662 -1.6188 0.9466
-11.8668 -6.7004 -1.6188 0.9466
-11.3506 -7.5419 -1.6188 0.9466
-11.0699 -7.9480 -1.6188 0.9466
-10.1425 -9.1018 -1.6188 0.9466
-9.8061 -9.4632 -1.6188 0.9466
-9.4570 -9.8121 -1.6188 0.9466
-9.0954 -10.1482 -1.6188 0.9466
-8.7218 -10.4709 -1.6188 0.9466
-8.3368 -10.7799 -1.6188 0.9466
-1.9589 0.5696 -0.2891 0.9918
-1.9449 0.4899 -0.2842 0.9919
-1.9322 0.4129 -0.2799 0.9920
-1.9208 0.3382 -0.2763 0.9922
-1.9192 0.2667 -0.2745 0.9922
-1.9169 0.1959 -0.2730 0.9922
-1.9114 -0.0823 -0.2711 0.9923
-1.9250 -0.3662 -0.2776 0.9921
-1.9365 -0.4416 -0.2814 0.9920
-1.9502 -0.5197 -0.2860 0.9919
-1.9776 -0.6837 -0.2965 0.9916
-10.6555 -4.1218 -1.6188 0.9549
-10.1455 -5.2533 -1.6188 0.9549
-9.9485 -5.6173 -1.6188 0.9549
-9.7385 -5.9739 -1.6188 0.9549
-9.5158 -6.3227 -1.6188 0.9549
-8.5029 -7.6305 -1.6188 0.9549
-8.2210 -7.9335 -1.6188 0.9549
-7.3119 -8.7783 -1.6188 0.9549
-1.8421 0.3937 -0.3103 0.9924
-1.8296 0.1202 -0.3021 0.9926
-1.8246 0.0537 -0.3007 0.9926
-1.8210 -0.0124 -0.3000 0.9926
-1.8314 -0.1455 -0.3026 0.9926
-1.8353 -0.2806 -0.3059 0.9925
-1.8360 -0.3492 -0.3079 0.9925
-1.8763 -0.6487 -0.3271 0.9920
-8.8838 -4.1992 -1.6188 0.9609
-8.7259 -4.5183 -1.6188 0.9609
-8.5565 -4.8313 -1.6188 0.9609
-8.3759 -5.1380 -1.6188 0.9609
-8.1843 -5.4381 -1.6188 0.9609
-7.9819 -5.7309 -1.6188 0.9609
-7.5461 -6.2937 -1.6188 0.9609
-7.3132 -6.5628 -1.6188 0.9609
-6.5582 -7.3173 -1.6188 0.9609
-6.2888 -7.5501 -1.6187 0.9609
-6.0112 -7.7729 -1.6187 0.9609
-1.7674 0.4452 -0.3426 0.9926
-1.7575 0.3095 -0.3354 0.9928
-1.7570 0.2442 -0.3334 0.9928
-1.7773 -0.5433 -0.3493 0.9925
-1.7843 -0.6169 -0.3549 0.9923
-1.7927 -0.6935 -0.3613 0.9922
-7.9144 -3.3960 -1.6188 0.9656
-7.6478 -3.9600 -1.6188 0.9656
-7.4994 -4.2344 -1.6188 0.9656
-7.3411 -4.5032 -1.6188 0.9656
-6.8093 -5.2729 -1.6188 0.9656
-6.6138 -5.5161 -1.6188 0.9656
-6.4097 -5.7520 -1.6188 0.9656
-5.9765 -6.2009 -1.6187 0.9656
-5.5119 -6.6173 -1.6187 0.9656
-1.6960 0.4932 -0.3733 0.9928
-1.6842 0.3599 -0.3640 0.9930
-1.6850 0.2967 -0.3616 0.9930
-1.6842 0.2340 -0.3594 0.9931
-1.6817 0.1719 -0.3573 0.9931
-1.6745 0.0492 -0.3541 0.9932
-1.6715 -0.0114 -0.3533 0.9932
-1.6798 -0.1335 -0.3562 0.9931
-1.6828 -0.1953 -0.3581 0.9931
-1.6847 -0.3204 -0.3625 0.9930
-1.6924 -0.4510 -0.3702 0.9929
-1.7071 -0.6604 -0.3869 0.9925
-7.0375 -3.0197 -1.6188 0.9692
-6.9235 -3.2726 -1.6188 0.9692
-6.5277 -4.0043 -1.6188 0.9692
-6.3784 -4.2381 -1.6188 0.9692
-5.6995 -5.1147 -1.6187 0.9692
-5.5105 -5.3178 -1.6187 0.9692
-5.3143 -5.5139 -1.6187 0.9692
-5.1111 -5.7027 -1.6187 0.9692
-4.9012 -5.8841 -1.6187 0.9692
-4.6849 -6.0578 -1.6187 0.9692
-1.6232 0.4720 -0.3973 0.9931
-1.6164 0.3454 -0.3885 0.9932
-1.6169 0.2847 -0.3859 0.9933
-1.6158 0.2245 -0.3834 0.9933
-1.6074 0.0473 -0.3779 0.9934
-1.6171 -0.3076 -0.3869 0.9933
-1.6203 -0.4318 -0.3941 0.9931
-1.6248 -0.4967 -0.3993 0.9930
-1.6285 -0.5630 -0.4050 0.9929
-1.6313 -0.6310 -0.4111 0.9928
-6.2270 -2.9434 -1.6188 0.9721
-5.5949 -4.0170 -1.6187 0.9721
-4.9562 -4.7828 -1.6187 0.9721
-4.5969 -5.1290 -1.6187 0.9721
-4.4081 -5.2922 -1.6187 0.9721
-1.5520 0.3909 -0.4144 0.9934
-1.5526 0.3318 -0.4111 0.9935
-1.5528 0.2734 -0.4082 0.9935
-1.5521 0.2157 -0.4057 0.9935
-1.5481 0.1017 -0.4017 0.9936
-1.5449 0.0454 -0.4002 0.9936
-1.5425 -0.0105 -0.3994 0.9936
-1.5492 -0.1231 -0.4024 0.9936
-1.5512 -0.1800 -0.4043 0.9936
-1.5525 -0.2374 -0.4066 0.9935
-1.5529 -0.2954 -0.4093 0.9935
-1.5523 -0.3540 -0.4122 0.9934
-1.5535 -0.4140 -0.4163 0.9934
-1.5570 -0.4759 -0.4215 0.9933
-1.5699 -0.6736 -0.4423 0.9930
-5.2073 -3.4600 -1.6187 0.9745
-5.0786 -3.6463 -1.6187 0.9745
-4.6531 -4.1756 -1.6187 0.9745
-4.1727 -4.6557 -1.6187 0.9745
-4.0013 -4.8038 -1.6187 0.9745
-1.4949 0.3195 -0.4328 0.9937
-1.4950 0.2633 -0.4297 0.9937
-1.4906 0.0980 -0.4229 0.9938
-1.4855 -0.0101 -0.4206 0.9938
-1.4916 -0.1185 -0.4236 0.9938
-1.4947 -0.2285 -0.4280 0.9937
-1.4947 -0.3408 -0.4340 0.9936
-1.5078 -0.5833 -0.4577 0.9933
-1.5106 -0.6482 -0.4653 0.9932
-1.6674 -1.0229 -0.5538 0.9919
-4.7626 -3.1645 -1.6187 0.9765
-4.3912 -3.6624 -1.6187 0.9765
-3.9681 -4.1171 -1.6187 0.9765
-3.8163 -4.2581 -1.6187 0.9765
-3.6596 -4.3935 -1.6187 0.9765
-3.4981 -4.5232 -1.6187 0.9765
-1.4459 0.4204 -0.4632 0.9937
-1.4444 0.3638 -0.4581 0.9938
-1.4456 0.3089 -0.4547 0.9938
-1.4456 0.2009 -0.4489 0.9939
-1.4341 -0.0098 -0.4411 0.9940
-1.4409 -0.0621 -0.4436 0.9940
-1.4433 -0.1147 -0.4453 0.9940
-1.4458 -0.2211 -0.4499 0.9939
-1.4459 -0.2750 -0.4527 0.9939
-1.4452 -0.3295 -0.4559 0.9938
-1.4505 -0.5015 -0.4721 0.9936
-1.5142 -0.7841 -0.5245 0.9929
-4.3834 -2.9126 -1.6187 0.9782
-3.9169 -3.5150 -1.6187 0.9782
-3.7870 -3.6545 -1.6187 0.9782
-3.3683 -4.0438 -1.6187 0.9782
-3.2196 -4.1631 -1.6187 0.9782
-1.3968 0.4062 -0.4835 0.9939
-1.3973 0.3520 -0.4790 0.9939
-1.3994 0.2464 -0.4723 0.9940
-1.3993 0.1944 -0.4696 0.9941
-1.3985 0.1429 -0.4673 0.9941
-1.3989 -0.1623 -0.4681 0.9941
-1.3995 -0.2140 -0.4706 0.9941
-1.3993 -0.2662 -0.4735 0.9940
-1.3983 -0.3188 -0.4767 0.9940
-1.3965 -0.3721 -0.4804 0.9939
-1.3978 -0.4273 -0.4859 0.9939
-1.4016 -0.5422 -0.4996 0.9937
-1.4027 -0.6630 -0.5157 0.9935
-1.4019 -0.7259 -0.5247 0.9934
-1.5102 -0.9264 -0.5889 0.9926
-4.0560 -2.6950 -1.6187 0.9797
-3.8503 -2.9816 -1.6187 0.9797
-3.7398 -3.1191 -1.6187 0.9797
-3.6244 -3.2525 -1.6187 0.9797
-3.3794 -3.5063 -1.6187 0.9797
-1.3503 0.3927 -0.5029 0.9940
-1.3525 0.3407 -0.4988 0.9941
-1.3552 0.2386 -0.4921 0.9942
-1.3553 0.1883 -0.4893 0.9942
-1.3547 0.1385 -0.4870 0.9942
-1.3509 0.0888 -0.4841 0.9943
-1.3436 0.0395 -0.4807 0.9943
-1.3464 -0.0580 -0.4819 0.9943
-1.3554 -0.2073 -0.4903 0.9942
-1.3510 -0.4130 -0.5052 0.9940
-1.3532 -0.5806 -0.5266 0.9938
-3.6770 -2.6400 -1.6187 0.9810
-3.5790 -2.7715 -1.6187 0.9810
-3.4762 -2.8993 -1.6187 0.9810
-3.3689 -3.0232 -1.6187 0.9810
-3.1412 -3.2592 -1.6187 0.9810
-3.0211 -3.3708 -1.6187 0.9810
-2.8970 -3.4780 -1.6187 0.9810
-1.3069 0.3800 -0.5216 0.9942
-1.3098 0.3299 -0.5176 0.9942
-1.3120 0.1341 -0.5054 0.9944
-1.2945 -0.0088 -0.4961 0.9945
-1.3018 -0.0561 -0.4993 0.9944
-1.3083 -0.1040 -0.5029 0.9944
-1.3132 -0.1524 -0.5066 0.9944
-1.3133 -0.2008 -0.5091 0.9943
-1.3126 -0.2497 -0.5120 0.9943
-1.3112 -0.2990 -0.5154 0.9943
-1.3088 -0.3488 -0.5191 0.9942
-1.3066 -0.3994 -0.5236 0.9942
-1.3074 -0.5058 -0.5372 0.9940
-1.3065 -0.5606 -0.5448 0.9939
-1.3050 -0.6168 -0.5531 0.9938
-1.3026 -0.6745 -0.5621 0.9937
-3.5182 -2.3377 -1.6187 0.9821
-3.4312 -2.4636 -1.6187 0.9821
-3.3398 -2.5862 -1.6187 0.9821
-3.1438 -2.8212 -1.6187 0.9821
-3.0395 -2.9332 -1.6187 0.9821
-2.7034 -3.2456 -1.6187 0.9821
-1.2691 0.3197 -0.5356 0.9944
-1.2713 0.2717 -0.5321 0.9944
-1.2727 0.2241 -0.5289 0.9944
-1.2732 0.1769 -0.5261 0.9945
-1.2686 0.1297 -0.5219 0.9945
-1.2631 0.0830 -0.5181 0.9945
-1.2593 -0.0543 -0.5159 0.9946
-1.2705 -0.1474 -0.5235 0.9945
-1.2731 -0.1947 -0.5271 0.9944
-1.2722 -0.2420 -0.5300 0.9944
-1.2680 -0.3379 -0.5371 0.9943
-1.2646 -0.3866 -0.5412 0.9943
-1.2640 -0.4890 -0.5547 0.9942
-1.2626 -0.5418 -0.5623 0.9941
-1.2602 -0.5957 -0.5705 0.9940
-1.2530 -0.7075 -0.5889 0.9938
-1.2479 -0.7655 -0.5992 0.9937
-3.1271 -2.4216 -1.6187 0.9831
-3.0374 -2.5332 -1.6187 0.9831
-2.9436 -2.6416 -1.6187 0.9831
-2.8460 -2.7465 -1.6187 0.9831
-2.7447 -2.8477 -1.6187 0.9831
-2.6397 -2.9453 -1.6187 0.9831
-2.5313 -3.0390 -1.6187 0.9831
-1.2268 0.3568 -0.5568 0.9944
-1.2301 0.3099 -0.5528 0.9945
-1.2325 0.2634 -0.5493 0.9945
-1.2316 0.1712 -0.5419 0.9946
-1.2223 0.0803 -0.5339 0.9947
-1.2125 -0.0083 -0.5284 0.9947
-1.2188 -0.0525 -0.5317 0.9947
-1.2243 -0.0973 -0.5353 0.9947
-1.2291 -0.1426 -0.5392 0.9946
-1.2330 -0.1885 -0.5436 0.9946
-1.2336 -0.2347 -0.5473 0.9945
-1.2317 -0.2809 -0.5506 0.9945
-1.2290 -0.3275 -0.5543 0.9945
-1.2207 -0.5238 -0.5789 0.9942
-1.2140 -0.6286 -0.5958 0.9941
-1.2035 -0.7383 -0.6153 0.9939
-3.0936 -2.0555 -1.6187 0.9839
-2.7644 -2.4807 -1.6187 0.9839
-2.5775 -2.6743 -1.6187 0.9839
-2.4789 -2.7659 -1.6187 0.9839
-1.1893 0.3458 -0.5733 0.9946
-1.1928 0.3004 -0.5694 0.9946
-1.1953 0.2554 -0.5658 0.9946
-1.1879 0.1214 -0.5527 0.9948
-1.1833 0.0778 -0.5489 0.9948
-1.1779 0.0346 -0.5455 0.9948
-1.1801 -0.0508 -0.5467 0.9948
-1.1930 -0.1824 -0.5586 0.9947
-1.1945 -0.2724 -0.5671 0.9946
-1.1878 -0.3631 -0.5749 0.9945
-1.1847 -0.4096 -0.5802 0.9945
-1.1775 -0.5566 -0.6029 0.9943
-1.1614 -0.7124 -0.6307 0.9940
-1.1541 -0.7668 -0.6414 0.9939
-2.7650 -2.1411 -1.6187 0.9847
-2.6027 -2.3356 -1.6187 0.9847
-2.5164 -2.4284 -1.6187 0.9847
-2.3340 -2.6042 -1.6187 0.9847
-2.1393 -2.7663 -1.6187 0.9847
-1.1569 0.2914 -0.5852 0.9947
-1.1580 0.2475 -0.5808 0.9947
-1.1562 0.2036 -0.5759 0.9948
-1.1460 0.0753 -0.5634 0.9949
-1.1410 0.0335 -0.5599 0.9949
-1.1375 -0.0078 -0.5580 0.9949
-1.1477 -0.0912 -0.5647 0.9949
-1.1516 -0.1336 -0.5687 0.9948
-1.1570 -0.2201 -0.5777 0.9948
-1.1584 -0.2642 -0.5828 0.9947
-1.1556 -0.3080 -0.5867 0.9947
-1.1517 -0.3521 -0.5908 0.9946
-1.1285 -0.6372 -0.6357 0.9942
-1.1301 -0.8114 -0.6824 0.9938
-2.5343 -2.1136 -1.6187 0.9854
-2.1120 -2.5356 -1.6187 0.9854
-2.0188 -2.6104 -1.6187 0.9854
-1.1213 0.2824 -0.5999 0.9948
-1.1207 0.2395 -0.5945 0.9948
-1.1171 0.1552 -0.5851 0.9949
-1.1056 0.0325 -0.5738 0.9950
-1.1074 -0.0477 -0.5750 0.9950
-1.1153 -0.1294 -0.5825 0.9950
-1.1180 -0.1710 -0.5868 0.9949
-1.1200 -0.2130 -0.5914 0.9949
-1.1210 -0.2556 -0.5965 0.9948
-1.1211 -0.2987 -0.6019 0.9948
-1.1171 -0.3415 -0.6060 0.9948
-1.1093 -0.4291 -0.6170 0.9947
-1.1062 -0.4746 -0.6245 0.9946
-1.0970 -0.5680 -0.6409 0.9944
-1.0909 -0.6160 -0.6500 0.9944
-2.3223 -2.0840 -1.6187 0.9860
-2.2453 -2.1667 -1.6187 0.9860
-2.1653 -2.2466 -1.6187 0.9860
-2.0825 -2.3236 -1.6187 0.9860
-1.9089 -2.4682 -1.6187 0.9860
-1.0846 0.3154 -0.6186 0.9949
-1.0850 0.2319 -0.6077 0.9950
-1.0820 0.1504 -0.5983 0.9950
-1.0684 -0.0073 -0.5852 0.9951
-1.0732 -0.0462 -0.5883 0.9951
-1.0804 -0.1254 -0.5957 0.9951
-1.0828 -0.1656 -0.6000 0.9950
-1.0844 -0.2063 -0.6046 0.9950
-1.0851 -0.2892 -0.6150 0.9949
-1.0787 -0.3730 -0.6251 0.9948
-1.0745 -0.4157 -0.6310 0.9948
-1.0667 -0.5042 -0.6462 0.9946
-1.0614 -0.5496 -0.6546 0.9946
-1.0550 -0.5957 -0.6636 0.9945
-1.0395 -0.6377 -0.6679 0.9945
-1.0017 -0.7192 -0.6754 0.9944
-2.1996 -1.9739 -1.6187 0.9866
-1.8915 -2.2709 -1.6187 0.9866
-1.8080 -2.3379 -1.6187 0.9866
-1.0496 0.3052 -0.6311 0.9950
-1.0459 0.1069 -0.6070 0.9952
-1.0427 0.0685 -0.6033 0.9952
-1.0387 0.0305 -0.5999 0.9952
-1.0440 -0.0829 -0.6046 0.9952
-1.0469 -0.1215 -0.6085 0.9951
-1.0491 -0.3207 -0.6333 0.9949
-1.0464 -0.3618 -0.6393 0.9949
-1.0411 -0.4028 -0.6445 0.9949
-1.0328 -0.4882 -0.6595 0.9947
-1.0088 -0.5696 -0.6688 0.9947
-0.9925 -0.6088 -0.6722 0.9946
-0.9748 -0.6477 -0.6757 0.9946
-0.9355 -0.7245 -0.6832 0.9945
-2.0175 -1.9469 -1.6187 0.9871
-1.8713 -2.0879 -1.6187 0.9871
