ply
format ascii 1.0
element vertex 374
property float32 x
property float32 y
property float32 z
property float32 I
end_header
2.8426 6.6538 1.2758 0.9710
2.8421 6.6528 1.1083 0.9711
21.8873 38.9320 5.8160 0.8351
2.8413 6.6508 0.7766 0.9713
2.8405 6.6489 0.4483 0.9714
2.8400 6.6479 0.2851 0.9715
18.1572 32.2972 0.6259 0.8622
40.1495 26.8155 -0.2718 0.8244
2.8392 6.6460 -0.0407 0.9715
17.9756 29.4316 -0.9711 0.8711
2.8388 6.6450 -0.2035 0.9715
28.7044 3.4337 -1.4661 0.8907
29.5236 4.6190 -1.5155 0.8872
30.8115 8.3157 -1.6185 0.8800
30.4910 9.4235 -1.6185 0.8800
30.1307 10.5190 -1.6185 0.8800
29.7311 11.6008 -1.6185 0.8800
28.8159 13.7175 -1.6185 0.8800
28.3016 14.7498 -1.6185 0.8800
27.1627 16.7551 -1.6185 0.8800
26.5397 17.7256 -1.6185 0.8800
25.8821 18.6730 -1.6185 0.8800
24.4663 20.4934 -1.6185 0.8800
21.2594 23.8044 -1.6186 0.8800
16.8119 23.5207 -1.4662 0.8907
15.9511 24.1128 -1.4662 0.8907
13.2487 25.6976 -1.4662 0.8907
12.3117 26.1596 -1.4662 0.8907
21.9183 2.6219 -1.6185 0.9153
21.8093 3.4121 -1.6186 0.9153
20.2614 8.7619 -1.6186 0.9153
19.1945 10.9029 -1.6186 0.9153
18.7881 11.5893 -1.6186 0.9153
18.3572 12.2605 -1.6186 0.9153
17.4240 13.5542 -1.6186 0.9153
16.9229 14.1749 -1.6186 0.9153
15.8552 15.3601 -1.6186 0.9153
15.2899 15.9229 -1.6186 0.9153
13.3203 14.9149 -1.4662 0.9229
12.7727 15.3864 -1.4662 0.9229
11.6284 16.2687 -1.4662 0.9229
11.0330 16.6783 -1.4662 0.9229
10.4233 17.0661 -1.4663 0.9229
8.5156 18.0939 -1.4663 0.9229
2.8380 6.6431 -0.5297 0.9714
16.5518 3.2061 -1.6186 0.9345
16.2771 4.3930 -1.6186 0.9345
15.4746 6.6919 -1.6186 0.9345
12.5253 11.2860 -1.6186 0.9345
12.1093 11.7312 -1.6186 0.9345
9.7551 11.7513 -1.4663 0.9405
9.3242 12.0961 -1.4663 0.9405
7.9607 13.0340 -1.4663 0.9405
7.4846 13.3132 -1.4663 0.9405
6.9987 13.5749 -1.4663 0.9405
6.5037 13.8190 -1.4663 0.9405
13.5795 1.1286 -1.6186 0.9466
13.3776 2.5913 -1.6186 0.9466
13.2753 3.0729 -1.6186 0.9466
13.1556 3.5506 -1.6186 0.9466
13.0188 4.0236 -1.6186 0.9466
12.5070 5.4086 -1.6186 0.9466
12.3035 5.8570 -1.6186 0.9466
12.0838 6.2977 -1.6186 0.9466
11.8484 6.7302 -1.6186 0.9466
11.5976 7.1538 -1.6186 0.9466
11.0507 7.9727 -1.6186 0.9466
10.4462 8.7499 -1.6186 0.9466
9.4316 9.8221 -1.6175 0.9466
7.8843 9.4977 -1.4663 0.9515
6.8104 10.2951 -1.4663 0.9515
6.0492 10.7600 -1.4663 0.9515
11.3845 0.9462 -1.6186 0.9549
11.3429 1.3569 -1.6186 0.9549
11.1295 2.5762 -1.6186 0.9549
10.9144 3.3732 -1.6186 0.9549
10.4854 4.5344 -1.6186 0.9549
10.3148 4.9103 -1.6186 0.9549
10.1306 5.2797 -1.6186 0.9549
9.2645 6.6840 -1.6186 0.9549
9.0169 7.0144 -1.6187 0.9549
8.4869 7.6472 -1.6187 0.9549
8.2051 7.9489 -1.6187 0.9549
7.9126 8.2401 -1.6187 0.9549
7.5976 8.5071 -1.6161 0.9550
6.3179 8.1961 -1.4663 0.9591
5.3940 8.8316 -1.4663 0.9591
5.0714 9.0208 -1.4663 0.9591
4.7422 9.1981 -1.4663 0.9591
2.7816 6.5110 -1.0032 0.9718
9.7917 0.8138 -1.6186 0.9610
9.3874 2.9013 -1.6186 0.9610
8.8716 4.2233 -1.6186 0.9610
8.7132 4.5410 -1.6187 0.9610
8.5435 4.8529 -1.6187 0.9610
8.1708 5.4572 -1.6187 0.9610
7.9683 5.7488 -1.6187 0.9610
7.7554 6.0329 -1.6187 0.9610
7.2995 6.5773 -1.6187 0.9610
6.8055 7.0872 -1.6187 0.9610
6.5450 7.3285 -1.6187 0.9610
5.2957 7.4089 -1.5003 0.9638
4.3618 7.7586 -1.4663 0.9646
2.7719 6.4884 -1.1624 0.9718
8.5820 0.7133 -1.6186 0.9656
8.5081 1.3311 -1.6186 0.9656
8.2276 2.5429 -1.6187 0.9656
8.1304 2.8384 -1.6187 0.9656
8.0226 3.1303 -1.6187 0.9656
7.9043 3.4182 -1.6187 0.9656
7.7756 3.7015 -1.6187 0.9656
7.6368 3.9800 -1.6187 0.9656
7.4880 4.2533 -1.6187 0.9656
6.9839 5.0386 -1.6187 0.9656
6.3977 5.7647 -1.6187 0.9656
6.1852 5.9921 -1.6187 0.9656
5.9647 6.2117 -1.6187 0.9656
5.7364 6.4231 -1.6187 0.9656
4.1421 6.7818 -1.4937 0.9682
3.8230 6.8001 -1.4663 0.9687
3.5748 6.9338 -1.4663 0.9687
2.7624 6.4660 -1.3216 0.9718
7.5178 1.4562 -1.6187 0.9692
7.2297 2.5240 -1.6187 0.9692
7.0285 3.0395 -1.6187 0.9692
6.9142 3.2914 -1.6187 0.9692
6.7907 3.5391 -1.6187 0.9692
6.5174 4.0202 -1.6187 0.9692
6.3679 4.2531 -1.6187 0.9692
5.8704 4.9171 -1.6187 0.9692
5.6889 5.1260 -1.6187 0.9692
5.1009 5.7115 -1.6187 0.9692
4.8912 5.8921 -1.6187 0.9692
4.6751 6.0650 -1.6187 0.9692
4.4529 6.2299 -1.6187 0.9692
3.6661 6.5212 -1.5813 0.9699
3.2749 6.3522 -1.5107 0.9712
2.9539 6.2764 -1.4663 0.9720
2.7252 6.3790 -1.4663 0.9720
6.8385 0.8181 -1.6187 0.9721
6.5802 2.0337 -1.6187 0.9721
6.5024 2.2701 -1.6187 0.9721
6.2186 2.9603 -1.6187 0.9721
5.8618 3.6158 -1.6187 0.9721
5.4362 4.2288 -1.6187 0.9721
5.2798 4.4225 -1.6187 0.9721
4.9467 4.7922 -1.6187 0.9721
4.3991 5.2994 -1.6187 0.9721
3.7999 5.7442 -1.6187 0.9721
3.5899 5.8778 -1.6187 0.9721
3.1463 6.1027 -1.6137 0.9722
2.8978 6.1572 -1.5993 0.9724
5.9023 2.0606 -1.6187 0.9745
5.8240 2.2725 -1.6187 0.9745
5.7381 2.4814 -1.6187 0.9745
5.5440 2.8893 -1.6187 0.9745
5.4360 3.0877 -1.6187 0.9745
5.1988 3.4722 -1.6187 0.9745
5.0700 3.6578 -1.6187 0.9745
4.9345 3.8386 -1.6187 0.9745
4.3301 4.5094 -1.6187 0.9745
3.9932 4.8103 -1.6187 0.9745
3.8168 4.9514 -1.6187 0.9745
3.6354 5.0861 -1.6187 0.9745
3.0637 5.4496 -1.6187 0.9745
2.6599 5.6517 -1.6173 0.9745
5.6982 0.4736 -1.6187 0.9765
5.6773 0.6791 -1.6187 0.9765
5.6491 0.8838 -1.6187 0.9765
5.6135 1.0873 -1.6187 0.9765
5.5705 1.2895 -1.6187 0.9765
5.2481 2.2695 -1.6187 0.9765
5.0705 2.6426 -1.6187 0.9765
4.8665 3.0018 -1.6187 0.9765
4.7548 3.1757 -1.6187 0.9765
4.5131 3.5108 -1.6187 0.9765
4.3833 3.6716 -1.6187 0.9765
4.2478 3.8275 -1.6187 0.9765
3.9603 4.1243 -1.6187 0.9765
3.6521 4.3995 -1.6187 0.9765
3.3250 4.6518 -1.6187 0.9765
3.1547 4.7689 -1.6187 0.9765
2.9804 4.8797 -1.6187 0.9765
2.8021 4.9842 -1.6187 0.9765
2.4349 5.1736 -1.6187 0.9765
2.2464 5.2582 -1.6187 0.9765
5.1666 1.0008 -1.6187 0.9782
5.1271 1.1868 -1.6187 0.9782
5.0808 1.3713 -1.6187 0.9782
5.0280 1.5539 -1.6187 0.9782
4.9027 1.9130 -1.6187 0.9782
4.7517 2.2620 -1.6187 0.9782
4.4791 2.7629 -1.6187 0.9782
4.3763 2.9229 -1.6187 0.9782
4.1538 3.2313 -1.6187 0.9782
3.6451 3.7960 -1.6187 0.9782
3.5055 3.9252 -1.6187 0.9782
3.2129 4.1681 -1.6187 0.9782
3.0603 4.2815 -1.6187 0.9782
2.7431 4.4913 -1.6187 0.9782
2.5791 4.5875 -1.6187 0.9782
2.4116 4.6776 -1.6187 0.9782
2.2410 4.7617 -1.6187 0.9782
4.8351 0.5784 -1.6187 0.9797
4.7014 1.2688 -1.6187 0.9797
4.5365 1.7701 -1.6187 0.9797
4.3968 2.0931 -1.6187 0.9797
4.1445 2.5565 -1.6187 0.9797
3.9491 2.8492 -1.6187 0.9797
3.7331 3.1269 -1.6187 0.9797
3.6176 3.2597 -1.6187 0.9797
3.4975 3.3883 -1.6187 0.9797
3.3728 3.5125 -1.6187 0.9797
3.2437 3.6320 -1.6187 0.9797
3.1104 3.7469 -1.6187 0.9797
2.9730 3.8568 -1.6187 0.9797
2.5382 4.1558 -1.6187 0.9797
2.2315 4.3283 -1.6187 0.9797
1.9131 4.4781 -1.6187 0.9797
4.4720 0.6997 -1.6187 0.9810
4.4438 0.8608 -1.6187 0.9810
4.3246 1.3366 -1.6187 0.9810
4.0870 1.9456 -1.6187 0.9810
3.9358 2.2356 -1.6187 0.9810
3.8525 2.3763 -1.6187 0.9810
3.7641 2.5140 -1.6187 0.9810
3.6708 2.6483 -1.6187 0.9810
3.3627 3.0300 -1.6187 0.9810
3.2510 3.1495 -1.6187 0.9810
3.0151 3.3761 -1.6187 0.9810
2.8912 3.4828 -1.6187 0.9810
2.7634 3.5850 -1.6187 0.9810
2.2182 3.9457 -1.6187 0.9810
2.0742 4.0233 -1.6187 0.9810
1.9275 4.0956 -1.6187 0.9810
4.2094 0.3499 -1.6187 0.9821
4.1732 0.6529 -1.6187 0.9821
4.1468 0.8033 -1.6187 0.9821
4.1151 0.9526 -1.6187 0.9821
3.9350 1.5354 -1.6187 0.9821
3.8769 1.6766 -1.6187 0.9821
3.8138 1.8155 -1.6187 0.9821
3.6728 2.0862 -1.6187 0.9821
3.5950 2.2176 -1.6187 0.9821
3.5125 2.3460 -1.6187 0.9821
3.4255 2.4714 -1.6187 0.9821
3.1380 2.8275 -1.6187 0.9821
2.9256 3.0467 -1.6187 0.9821
2.3305 3.5229 -1.6187 0.9821
2.0700 3.6820 -1.6187 0.9821
1.9356 3.7544 -1.6187 0.9821
1.7987 3.8219 -1.6187 0.9821
3.9270 0.4698 -1.6187 0.9831
3.9075 0.6113 -1.6187 0.9831
3.8531 0.8919 -1.6187 0.9831
3.8184 1.0305 -1.6187 0.9831
3.7340 1.3036 -1.6187 0.9831
3.5073 1.8279 -1.6187 0.9831
3.4390 1.9534 -1.6187 0.9831
3.2889 2.1967 -1.6187 0.9831
3.2074 2.3140 -1.6187 0.9831
3.0319 2.5396 -1.6187 0.9831
2.9382 2.6475 -1.6187 0.9831
2.8406 2.7519 -1.6187 0.9831
2.5262 3.0431 -1.6187 0.9831
2.4146 3.1324 -1.6187 0.9831
2.2998 3.2176 -1.6187 0.9831
2.1821 3.2986 -1.6187 0.9831
1.9382 3.4476 -1.6187 0.9831
3.6879 0.4412 -1.6187 0.9839
3.6695 0.5741 -1.6187 0.9839
3.5066 1.2242 -1.6187 0.9839
3.4601 1.3501 -1.6187 0.9839
3.4090 1.4742 -1.6187 0.9839
3.3536 1.5964 -1.6187 0.9839
3.2937 1.7166 -1.6187 0.9839
3.2295 1.8344 -1.6187 0.9839
3.0886 2.0629 -1.6187 0.9839
3.0121 2.1731 -1.6187 0.9839
2.8473 2.3849 -1.6187 0.9839
2.7593 2.4862 -1.6187 0.9839
2.6676 2.5843 -1.6187 0.9839
2.4741 2.7702 -1.6187 0.9839
2.2675 2.9417 -1.6187 0.9839
2.0492 3.0977 -1.6187 0.9839
1.9359 3.1697 -1.6187 0.9839
1.8202 3.2376 -1.6187 0.9839
1.7020 3.3013 -1.6187 0.9839
1.4591 3.4156 -1.6187 0.9839
3.4332 0.6650 -1.6187 0.9847
3.3762 0.9112 -1.6187 0.9847
3.3410 1.0326 -1.6187 0.9847
3.3016 1.1526 -1.6187 0.9847
3.1574 1.5031 -1.6187 0.9847
3.1011 1.6162 -1.6187 0.9847
3.0407 1.7272 -1.6187 0.9847
2.9763 1.8359 -1.6187 0.9847
2.9080 1.9422 -1.6187 0.9847
2.7602 2.1472 -1.6187 0.9847
2.5979 2.3409 -1.6187 0.9847
2.5116 2.4332 -1.6187 0.9847
2.4221 2.5224 -1.6187 0.9847
2.3294 2.6082 -1.6187 0.9847
1.7138 3.0483 -1.6187 0.9847
1.4891 3.1641 -1.6187 0.9847
1.3739 3.2158 -1.6187 0.9847
3.2886 0.2733 -1.6187 0.9854
3.2766 0.3920 -1.6187 0.9854
3.2397 0.6275 -1.6187 0.9854
3.1528 0.9744 -1.6187 0.9854
3.1155 1.0877 -1.6187 0.9854
3.0288 1.3098 -1.6187 0.9854
2.9263 1.5251 -1.6187 0.9854
2.8086 1.7325 -1.6187 0.9854
2.6046 2.0262 -1.6187 0.9854
2.3701 2.2961 -1.6187 0.9854
2.2856 2.3803 -1.6187 0.9854
2.1981 2.4613 -1.6187 0.9854
2.1078 2.5391 -1.6187 0.9854
2.0147 2.6136 -1.6187 0.9854
1.9189 2.6847 -1.6187 0.9854
1.6172 2.8765 -1.6187 0.9854
1.5122 2.9331 -1.6187 0.9854
1.2964 3.0346 -1.6187 0.9854
3.1095 0.2584 -1.6187 0.9860
3.0827 0.4823 -1.6187 0.9860
3.0398 0.7036 -1.6187 0.9860
3.0124 0.8130 -1.6187 0.9860
2.9811 0.9213 -1.6187 0.9860
2.8639 1.2385 -1.6187 0.9860
2.8173 1.3411 -1.6187 0.9860
2.7670 1.4420 -1.6187 0.9860
2.7131 1.5411 -1.6187 0.9860
2.6556 1.6381 -1.6187 0.9860
2.5304 1.8256 -1.6187 0.9860
2.4628 1.9158 -1.6187 0.9860
2.3180 2.0887 -1.6187 0.9860
2.2410 2.1711 -1.6187 0.9860
2.1611 2.2506 -1.6187 0.9860
2.0784 2.3272 -1.6187 0.9860
1.9930 2.4008 -1.6187 0.9860
1.9049 2.4712 -1.6187 0.9860
1.8144 2.5384 -1.6187 0.9860
2.9453 0.2448 -1.6187 0.9866
2.9199 0.4568 -1.6187 0.9866
2.9015 0.5620 -1.6187 0.9866
2.8793 0.6665 -1.6187 0.9866
2.7533 1.0743 -1.6187 0.9866
2.7126 1.1731 -1.6187 0.9866
2.6685 1.2703 -1.6187 0.9866
2.6208 1.3659 -1.6187 0.9866
2.4577 1.6415 -1.6187 0.9866
2.3968 1.7292 -1.6187 0.9866
2.3327 1.8146 -1.6187 0.9866
2.2656 1.8977 -1.6187 0.9866
2.1956 1.9784 -1.6187 0.9866
2.1227 2.0564 -1.6187 0.9866
1.5405 2.5222 -1.6187 0.9866
1.2585 2.6741 -1.6187 0.9866
1.1611 2.7178 -1.6187 0.9866
2.7940 0.2322 -1.6187 0.9871
2.7838 0.3330 -1.6187 0.9871
2.7525 0.5332 -1.6187 0.9871
2.7068 0.7305 -1.6187 0.9871
2.6119 1.0191 -1.6187 0.9871
2.5733 1.1128 -1.6187 0.9871
2.4863 1.2958 -1.6187 0.9871
2.2129 1.7215 -1.6187 0.9871
2.1493 1.8003 -1.6187 0.9871
2.0829 1.8768 -1.6187 0.9871
1.9419 2.0223 -1.6187 0.9871
1.6303 2.2809 -1.6187 0.9871
1.4614 2.3927 -1.6187 0.9871
1.1939 2.5368 -1.6187 0.9871
