ply
format ascii 1.0
element vertex 422
property float32 x
property float32 y
property float32 z
property float32 I
end_header
17.2289 -18.7227 3.3135 0.9025
17.2258 -18.7194 2.7316 0.9027
17.2228 -18.7161 2.1532 0.9029
20.4617 -42.0665 2.9008 0.8290
23.7965 -34.9108 2.6199 0.8442
17.2198 -18.7128 1.5769 0.9031
27.4045 -20.6157 2.1265 0.8716
27.1670 -18.9295 2.0533 0.8757
19.3426 -39.7656 1.7437 0.8378
21.4792 -40.3555 1.8026 0.8328
23.9978 -41.3828 1.8863 0.8257
26.4874 -42.0702 1.9603 0.8195
18.4099 -37.8483 0.7110 0.8450
22.6226 -39.0113 0.7618 0.8349
24.9695 -39.6592 0.7916 0.8290
19.4080 -36.4640 -0.2326 0.8477
21.4766 -37.0351 -0.2410 0.8426
23.7046 -37.6502 -0.2505 0.8370
18.5795 -34.9074 -1.1135 0.8536
24.7242 -36.2718 -1.2360 0.8389
27.2138 -36.9592 -1.2924 0.8322
17.1349 -18.6206 -0.7125 0.9037
12.4603 -12.5889 -0.4987 0.9316
12.6097 -11.8450 -0.4871 0.9331
12.7566 -11.1376 -0.4768 0.9345
13.7448 -10.3399 -0.4843 0.9335
15.0089 -10.4579 -0.5151 0.9294
13.8863 -26.0897 -1.4989 0.8884
16.6193 -24.3819 -1.4965 0.8885
18.3204 -23.0730 -1.4941 0.8887
12.5605 -12.6901 -0.9055 0.9310
12.7804 -11.1583 -0.8604 0.9343
13.7770 -11.1717 -0.8995 0.9314
23.4156 -17.6150 -1.4860 0.8893
15.0956 -9.7220 -0.9106 0.9306
15.1671 -9.0047 -0.8945 0.9318
25.6199 -13.9756 -1.4800 0.8897
26.0876 -13.0223 -1.4787 0.8898
27.5599 -9.0540 -1.4712 0.8903
28.0679 -7.0064 -1.4671 0.8906
28.8522 -1.8101 -1.4661 0.8907
28.9075 0.2929 -1.4661 0.8907
8.7470 -17.9826 -1.4662 0.9229
9.3955 -17.6523 -1.4662 0.9229
10.0315 -17.2987 -1.4662 0.9229
11.2629 -16.5233 -1.4662 0.9229
13.5405 -14.7146 -1.4662 0.9229
12.6217 -11.8562 -1.2697 0.9329
13.8873 -11.2612 -1.3110 0.9308
13.8792 -10.4410 -1.2735 0.9327
15.1886 -9.0175 -1.2951 0.9316
17.5543 -9.5759 -1.4662 0.9229
17.8911 -8.9308 -1.4662 0.9229
18.2042 -8.2739 -1.4662 0.9229
19.7146 -5.6908 -1.5045 0.9210
20.4423 -5.1029 -1.5449 0.9190
21.6957 -3.7652 -1.6146 0.9155
21.8723 -2.9807 -1.6185 0.9153
21.9663 -2.1829 -1.6185 0.9153
22.0311 -1.3822 -1.6185 0.9153
22.0668 -0.5797 -1.6185 0.9153
22.0506 1.0267 -1.6185 0.9153
7.6615 -13.2118 -1.4662 0.9405
8.1371 -12.9243 -1.4662 0.9405
8.6020 -12.6196 -1.4662 0.9405
9.0555 -12.2983 -1.4662 0.9405
10.8837 -10.9960 -1.4853 0.9397
11.9902 -10.4685 -1.5281 0.9380
12.5522 -10.1785 -1.5515 0.9371
13.7211 -9.5606 -1.6055 0.9350
14.1359 -9.1040 -1.6142 0.9347
14.4965 -8.6066 -1.6185 0.9345
15.8151 -5.8413 -1.6186 0.9345
16.0172 -5.2620 -1.6186 0.9345
16.4952 -3.4853 -1.6186 0.9345
16.7768 -1.6672 -1.6186 0.9345
16.8263 -1.0556 -1.6186 0.9345
16.8412 0.7841 -1.6186 0.9345
7.6749 -11.2596 -1.6186 0.9466
8.8561 -10.3562 -1.6186 0.9466
9.2270 -10.0271 -1.6186 0.9466
9.5858 -9.6847 -1.6186 0.9466
10.5839 -8.5825 -1.6186 0.9466
11.1800 -7.7900 -1.6186 0.9466
11.7169 -6.9563 -1.6186 0.9466
11.9623 -6.5254 -1.6186 0.9466
12.4051 -5.6382 -1.6186 0.9466
12.6020 -5.1831 -1.6186 0.9466
12.7823 -4.7211 -1.6186 0.9466
12.9456 -4.2529 -1.6186 0.9466
13.2206 -3.3002 -1.6186 0.9466
13.3319 -2.8169 -1.6186 0.9466
13.4256 -2.3300 -1.6186 0.9466
13.5595 -1.3475 -1.6186 0.9466
13.6216 -0.3578 -1.6186 0.9466
5.3675 -10.0845 -1.6187 0.9549
5.7309 -9.8825 -1.6187 0.9549
6.0867 -9.6675 -1.6187 0.9549
6.4344 -9.4396 -1.6187 0.9549
7.7356 -8.4063 -1.6186 0.9549
8.0363 -8.1193 -1.6186 0.9549
8.3264 -7.8215 -1.6186 0.9549
8.8732 -7.1952 -1.6186 0.9549
9.1291 -6.8676 -1.6186 0.9549
9.3729 -6.5309 -1.6186 0.9549
9.8230 -5.8319 -1.6186 0.9549
10.0287 -5.4707 -1.6186 0.9549
10.2211 -5.1021 -1.6186 0.9549
10.8531 -3.5655 -1.6186 0.9549
10.9757 -3.1682 -1.6186 0.9549
11.0837 -2.7667 -1.6186 0.9549
11.1770 -2.3616 -1.6186 0.9549
11.3192 -1.5426 -1.6186 0.9549
11.4013 -0.7153 -1.6186 0.9549
11.4232 0.1158 -1.6186 0.9549
11.4114 0.5313 -1.6186 0.9549
4.2979 -8.8358 -1.6187 0.9610
4.6165 -8.6736 -1.6187 0.9610
5.5341 -8.1189 -1.6187 0.9610
6.6533 -7.2302 -1.6187 0.9610
7.6317 -6.1885 -1.6186 0.9610
8.2606 -5.3201 -1.6186 0.9610
8.7911 -4.3883 -1.6186 0.9610
8.9449 -4.0655 -1.6186 0.9610
9.0869 -3.7374 -1.6186 0.9610
9.4400 -2.7249 -1.6186 0.9610
9.5329 -2.3796 -1.6186 0.9610
9.6132 -2.0312 -1.6186 0.9610
9.6808 -1.6801 -1.6186 0.9610
9.7773 -0.9716 -1.6186 0.9610
9.8062 -0.6152 -1.6186 0.9610
9.8250 0.0996 -1.6186 0.9610
3.7669 -7.7442 -1.6187 0.9656
4.0462 -7.6020 -1.6187 0.9656
4.3201 -7.4498 -1.6187 0.9656
4.8504 -7.1158 -1.6187 0.9656
6.4871 -5.6638 -1.6187 0.9656
6.6889 -5.4240 -1.6187 0.9656
6.8818 -5.1770 -1.6187 0.9656
7.7050 -3.8462 -1.6186 0.9656
8.0782 -2.9837 -1.6186 0.9656
8.1814 -2.6878 -1.6186 0.9656
8.4256 -1.7803 -1.6186 0.9656
8.4848 -1.4725 -1.6186 0.9656
8.5327 -1.1628 -1.6186 0.9656
8.5694 -0.8516 -1.6186 0.9656
8.5947 -0.5392 -1.6186 0.9656
8.5819 -0.2254 -1.6136 0.9657
8.6112 0.0873 -1.6186 0.9656
4.0800 -6.4802 -1.6187 0.9692
4.5404 -6.1664 -1.6187 0.9692
4.9768 -5.8198 -1.6187 0.9692
5.1853 -5.6349 -1.6187 0.9692
5.3869 -5.4425 -1.6187 0.9692
5.5813 -5.2429 -1.6187 0.9692
5.7684 -5.0363 -1.6187 0.9692
5.9478 -4.8231 -1.6187 0.9692
6.1194 -4.6035 -1.6187 0.9692
6.4379 -4.1462 -1.6187 0.9692
6.7224 -3.6671 -1.6187 0.9692
6.9713 -3.1685 -1.6187 0.9692
7.1833 -2.6531 -1.6187 0.9692
7.2750 -2.3900 -1.6187 0.9692
7.4922 -1.5830 -1.6187 0.9692
7.5874 -1.0340 -1.6187 0.9692
7.6200 -0.7572 -1.6187 0.9692
7.6571 0.0776 -1.6187 0.9692
7.6493 0.3562 -1.6187 0.9692
3.2360 -6.0798 -1.6187 0.9721
3.6695 -5.8283 -1.6187 0.9721
4.0837 -5.5460 -1.6187 0.9721
4.2828 -5.3938 -1.6187 0.9721
4.4762 -5.2344 -1.6187 0.9721
4.8450 -4.8950 -1.6187 0.9721
5.3495 -4.3379 -1.6187 0.9721
5.6508 -3.9374 -1.6187 0.9721
5.7903 -3.7292 -1.6187 0.9721
5.9222 -3.5160 -1.6187 0.9721
6.0462 -3.2982 -1.6187 0.9721
6.1622 -3.0760 -1.6187 0.9721
6.3696 -2.6197 -1.6187 0.9721
6.4606 -2.3862 -1.6187 0.9721
6.5432 -2.1496 -1.6187 0.9721
6.6171 -1.9101 -1.6187 0.9721
6.7858 -1.1777 -1.6187 0.9721
6.8737 -0.4312 -1.6187 0.9721
6.8849 -0.1808 -1.6187 0.9721
6.8869 0.0698 -1.6187 0.9721
6.8798 0.3203 -1.6187 0.9721
2.7346 -5.6219 -1.6187 0.9745
2.9373 -5.5187 -1.6187 0.9745
3.3309 -5.2905 -1.6187 0.9745
3.5212 -5.1657 -1.6187 0.9745
3.7068 -5.0342 -1.6187 0.9745
3.8875 -4.8960 -1.6187 0.9745
4.2333 -4.6003 -1.6187 0.9745
4.5566 -4.2803 -1.6187 0.9745
4.7093 -4.1117 -1.6187 0.9745
4.9959 -3.7583 -1.6187 0.9745
5.1293 -3.5740 -1.6187 0.9745
5.5935 -2.7921 -1.6187 0.9745
5.6914 -2.5868 -1.6187 0.9745
5.7817 -2.3780 -1.6187 0.9745
5.8644 -2.1660 -1.6187 0.9745
6.1596 -1.0690 -1.6187 0.9745
6.2394 -0.3914 -1.6187 0.9745
6.2513 0.0633 -1.6187 0.9745
6.2449 0.2908 -1.6187 0.9745
2.5011 -5.1418 -1.6187 0.9765
2.6865 -5.0474 -1.6187 0.9765
3.0464 -4.8387 -1.6187 0.9765
3.3903 -4.6043 -1.6187 0.9765
3.5555 -4.4779 -1.6187 0.9765
4.0223 -4.0638 -1.6187 0.9765
4.1675 -3.9148 -1.6187 0.9765
4.3072 -3.7605 -1.6187 0.9765
4.5693 -3.4373 -1.6187 0.9765
4.9166 -2.9190 -1.6187 0.9765
5.1159 -2.5537 -1.6187 0.9765
5.2054 -2.3659 -1.6187 0.9765
5.2880 -2.1749 -1.6187 0.9765
5.5476 -1.3848 -1.6187 0.9765
5.5943 -1.1820 -1.6187 0.9765
5.6654 -0.7721 -1.6187 0.9765
5.7066 -0.3580 -1.6187 0.9765
5.7158 -0.1501 -1.6187 0.9765
2.3020 -4.7325 -1.6187 0.9782
2.8039 -4.4535 -1.6187 0.9782
2.9641 -4.3485 -1.6187 0.9782
3.1204 -4.2378 -1.6187 0.9782
3.4203 -3.9996 -1.6187 0.9782
3.9643 -3.4612 -1.6187 0.9782
4.5252 -2.6866 -1.6187 0.9782
4.7910 -2.1775 -1.6187 0.9782
4.8671 -2.0018 -1.6187 0.9782
4.9367 -1.8233 -1.6187 0.9782
5.0562 -1.4595 -1.6187 0.9782
5.1060 -1.2746 -1.6187 0.9782
5.1489 -1.0879 -1.6187 0.9782
5.2144 -0.7106 -1.6187 0.9782
2.1301 -4.3791 -1.6187 0.9797
2.4429 -4.2126 -1.6187 0.9797
2.7427 -4.0237 -1.6187 0.9797
3.0281 -3.8136 -1.6187 0.9797
3.1649 -3.7009 -1.6187 0.9797
3.2974 -3.5833 -1.6187 0.9797
3.6682 -3.2027 -1.6187 0.9797
3.8914 -2.9274 -1.6187 0.9797
3.9953 -2.7839 -1.6187 0.9797
4.0940 -2.6367 -1.6187 0.9797
4.4332 -2.0149 -1.6187 0.9797
4.6263 -1.5199 -1.6187 0.9797
4.6786 -1.3505 -1.6187 0.9797
4.7246 -1.1794 -1.6187 0.9797
4.7644 -1.0067 -1.6187 0.9797
4.8250 -0.6575 -1.6187 0.9797
4.8679 -0.1279 -1.6187 0.9797
4.8693 0.0493 -1.6187 0.9797
4.8643 0.2265 -1.6187 0.9797
1.9799 -4.0705 -1.6187 0.9810
2.1267 -3.9957 -1.6187 0.9810
2.4117 -3.8305 -1.6187 0.9810
3.1842 -3.2170 -1.6187 0.9810
3.6172 -2.7211 -1.6187 0.9810
3.8055 -2.4509 -1.6187 0.9810
3.9737 -2.1676 -1.6187 0.9810
4.1208 -1.8729 -1.6187 0.9810
4.1862 -1.7217 -1.6187 0.9810
4.3003 -1.4127 -1.6187 0.9810
4.4286 -0.9357 -1.6187 0.9810
4.4598 -0.7740 -1.6187 0.9810
4.5175 -0.2834 -1.6187 0.9810
1.9846 -3.7287 -1.6187 0.9821
2.1190 -3.6540 -1.6187 0.9821
2.2505 -3.5745 -1.6187 0.9821
2.6266 -3.3080 -1.6187 0.9821
2.7452 -3.2102 -1.6187 0.9821
2.8602 -3.1082 -1.6187 0.9821
3.0787 -2.8919 -1.6187 0.9821
3.1818 -2.7780 -1.6187 0.9821
3.2808 -2.6604 -1.6187 0.9821
3.3754 -2.5393 -1.6187 0.9821
3.4656 -2.4148 -1.6187 0.9821
3.5512 -2.2871 -1.6187 0.9821
3.6320 -2.1563 -1.6187 0.9821
3.7081 -2.0228 -1.6187 0.9821
3.7792 -1.8865 -1.6187 0.9821
3.9064 -1.6067 -1.6187 0.9821
4.0129 -1.3183 -1.6187 0.9821
4.2156 -0.2645 -1.6187 0.9821
4.2225 -0.1109 -1.6187 0.9821
4.2193 0.1964 -1.6187 0.9821
1.7300 -3.5566 -1.6187 0.9831
1.8583 -3.4913 -1.6187 0.9831
2.1072 -3.3469 -1.6187 0.9831
2.2276 -3.2680 -1.6187 0.9831
2.5704 -3.0058 -1.6187 0.9831
2.6781 -2.9103 -1.6187 0.9831
2.7822 -2.8109 -1.6187 0.9831
2.8826 -2.7078 -1.6187 0.9831
2.9793 -2.6012 -1.6187 0.9831
3.0719 -2.4910 -1.6187 0.9831
3.2450 -2.2610 -1.6187 0.9831
3.4008 -2.0191 -1.6187 0.9831
3.4720 -1.8940 -1.6187 0.9831
3.6577 -1.5044 -1.6187 0.9831
3.7999 -1.0968 -1.6187 0.9831
3.8372 -0.9579 -1.6187 0.9831
3.8696 -0.8176 -1.6187 0.9831
3.9472 -0.2476 -1.6187 0.9831
1.6246 -3.3400 -1.6187 0.9839
1.7451 -3.2787 -1.6187 0.9839
1.8632 -3.2130 -1.6187 0.9839
2.0919 -3.0690 -1.6187 0.9839
2.2022 -2.9908 -1.6187 0.9839
2.4139 -2.8228 -1.6187 0.9839
2.6128 -2.6397 -1.6187 0.9839
2.7071 -2.5429 -1.6187 0.9839
2.7979 -2.4427 -1.6187 0.9839
2.9681 -2.2328 -1.6187 0.9839
3.1226 -2.0111 -1.6187 0.9839
3.1937 -1.8961 -1.6187 0.9839
3.2605 -1.7786 -1.6187 0.9839
3.3813 -1.5368 -1.6187 0.9839
3.4841 -1.2868 -1.6187 0.9839
3.5286 -1.1592 -1.6187 0.9839
3.6959 -0.3673 -1.6187 0.9839
3.7069 -0.2325 -1.6187 0.9839
3.7129 -0.0975 -1.6187 0.9839
1.6430 -3.0869 -1.6187 0.9847
1.7543 -3.0251 -1.6187 0.9847
2.1745 -2.7386 -1.6187 0.9847
2.3679 -2.5733 -1.6187 0.9847
2.4600 -2.4854 -1.6187 0.9847
2.5488 -2.3942 -1.6187 0.9847
2.7945 -2.1022 -1.6187 0.9847
2.8691 -1.9992 -1.6187 0.9847
3.0070 -1.7852 -1.6187 0.9847
3.0699 -1.6746 -1.6187 0.9847
3.1288 -1.5618 -1.6187 0.9847
3.2341 -1.3301 -1.6187 0.9847
3.2804 -1.2116 -1.6187 0.9847
3.3928 -0.8469 -1.6187 0.9847
3.4454 -0.5980 -1.6187 0.9847
3.4649 -0.4722 -1.6187 0.9847
3.4798 -0.3458 -1.6187 0.9847
3.4901 -0.2190 -1.6187 0.9847
1.4434 -2.9675 -1.6187 0.9854
1.5504 -2.9130 -1.6187 0.9854
1.6554 -2.8547 -1.6187 0.9854
1.7582 -2.7925 -1.6187 0.9854
2.1447 -2.5080 -1.6187 0.9854
2.2345 -2.4283 -1.6187 0.9854
2.3214 -2.3454 -1.6187 0.9854
2.4052 -2.2593 -1.6187 0.9854
2.4858 -2.1703 -1.6187 0.9854
2.6370 -1.9838 -1.6187 0.9854
2.7075 -1.8865 -1.6187 0.9854
2.7743 -1.7868 -1.6187 0.9854
2.8375 -1.6846 -1.6187 0.9854
2.8969 -1.5803 -1.6187 0.9854
3.0955 -1.1433 -1.6187 0.9854
3.2017 -0.7992 -1.6187 0.9854
3.2286 -0.6822 -1.6187 0.9854
3.2513 -0.5642 -1.6187 0.9854
3.2837 -0.3263 -1.6187 0.9854
3.2988 -0.0866 -1.6187 0.9854
3.2998 0.0334 -1.6187 0.9854
3.2963 0.1535 -1.6187 0.9854
1.3648 -2.8059 -1.6187 0.9860
1.5653 -2.6992 -1.6187 0.9860
1.7574 -2.5782 -1.6187 0.9860
1.9403 -2.4436 -1.6187 0.9860
2.1128 -2.2960 -1.6187 0.9860
2.1950 -2.2176 -1.6187 0.9860
2.2742 -2.1363 -1.6187 0.9860
2.4235 -1.9652 -1.6187 0.9860
2.4934 -1.8757 -1.6187 0.9860
2.5600 -1.7838 -1.6187 0.9860
2.6830 -1.5929 -1.6187 0.9860
2.9643 -0.9738 -1.6187 0.9860
2.9978 -0.8653 -1.6187 0.9860
3.0273 -0.7557 -1.6187 0.9860
3.1049 -0.3085 -1.6187 0.9860
3.1141 -0.1954 -1.6187 0.9860
3.1191 -0.0819 -1.6187 0.9860
1.3886 -2.6089 -1.6187 0.9866
1.5746 -2.5010 -1.6187 0.9866
1.7523 -2.3799 -1.6187 0.9866
1.8378 -2.3145 -1.6187 0.9866
2.0012 -2.1748 -1.6187 0.9866
2.0791 -2.1005 -1.6187 0.9866
2.1541 -2.0235 -1.6187 0.9866
2.2263 -1.9437 -1.6187 0.9866
2.3617 -1.7767 -1.6187 0.9866
2.4248 -1.6896 -1.6187 0.9866
2.4847 -1.6002 -1.6187 0.9866
2.5945 -1.4153 -1.6187 0.9866
2.6443 -1.3200 -1.6187 0.9866
2.7333 -1.1242 -1.6187 0.9866
2.8078 -0.9224 -1.6187 0.9866
2.8674 -0.7158 -1.6187 0.9866
2.9119 -0.5054 -1.6187 0.9866
2.9283 -0.3990 -1.6187 0.9866
2.9496 -0.1850 -1.6187 0.9866
2.9544 -0.0776 -1.6187 0.9866
2.9553 0.0299 -1.6187 0.9866
2.9522 0.1375 -1.6187 0.9866
1.2263 -2.5212 -1.6187 0.9871
1.4065 -2.4254 -1.6187 0.9871
1.4938 -2.3726 -1.6187 0.9871
1.6624 -2.2577 -1.6187 0.9871
1.9723 -1.9926 -1.6187 0.9871
2.1120 -1.8439 -1.6187 0.9871
2.1777 -1.7659 -1.6187 0.9871
2.3003 -1.6028 -1.6187 0.9871
2.3571 -1.5180 -1.6187 0.9871
2.5085 -1.2522 -1.6187 0.9871
2.5929 -1.0664 -1.6187 0.9871
2.6937 -0.7775 -1.6187 0.9871
2.7780 -0.3786 -1.6187 0.9871
2.7981 -0.1755 -1.6187 0.9871
