ply
format ascii 1.0
element vertex 429
property float32 x
property float32 y
property float32 z
property float32 I
end_header
-35.2183 -18.5274 7.0168 0.8508
-34.6641 -23.3096 7.3656 0.8439
-23.0608 -37.7837 7.8051 0.8354
-21.4829 -38.2193 7.7307 0.8369
-19.9329 -38.6472 7.6675 0.8381
-38.5030 -18.5224 6.5455 0.8412
-36.6569 -19.2841 6.3453 0.8457
-35.8697 -20.5466 6.3327 0.8460
-35.8706 -22.2941 6.4700 0.8429
-34.1830 -22.9862 6.3105 0.8465
-33.9819 -24.6673 6.4328 0.8437
-32.7606 -36.7927 7.5470 0.8193
-23.0608 -37.7837 6.7812 0.8360
-35.8859 -18.8785 5.2803 0.8491
-35.6816 -20.4388 5.3548 0.8472
-34.3522 -21.3504 5.2670 0.8495
-34.5654 -23.2433 5.4242 0.8453
-21.4702 -38.1968 5.7059 0.8380
-19.8878 -38.5597 5.6498 0.8394
-36.2031 -19.0454 4.3927 0.8483
-19.9329 -38.6472 4.6695 0.8395
-22.9887 -37.6657 3.7355 0.8377
-21.4246 -38.1156 3.7014 0.8390
-19.8858 -38.5558 3.6724 0.8402
-25.2942 -22.8925 2.1155 0.8722
-23.9779 -23.3206 2.0741 0.8745
-27.4941 -33.2049 2.6733 0.8413
-23.0607 -37.7836 2.7449 0.8374
-39.5081 -22.6307 0.7691 0.8335
-31.3531 -19.4865 0.6236 0.8627
-39.8084 -28.8967 0.8309 0.8214
-23.0607 -37.7836 0.7477 0.8377
-21.4829 -38.2192 0.7406 0.8391
-47.2829 -14.8742 -0.2791 0.8201
-44.3965 -15.7386 -0.2652 0.8283
-39.1647 -17.1380 -0.2407 0.8428
-33.0156 -18.9117 -0.2142 0.8588
-31.2656 -19.4320 -0.2073 0.8631
-31.7808 -21.3708 -0.2156 0.8580
-33.0231 -25.8308 -0.2361 0.8456
-34.4545 -31.1830 -0.2616 0.8304
-35.4248 -34.4536 -0.2782 0.8206
-23.0607 -37.7836 -0.2492 0.8377
-19.9329 -38.6472 -0.2448 0.8403
-47.2829 -14.8742 -1.3957 0.8201
-44.6504 -15.8287 -1.3339 0.8273
-41.9702 -16.5973 -1.2708 0.8348
-39.1648 -17.1380 -1.2038 0.8428
-31.2656 -19.4320 -1.0366 0.8630
-32.3000 -23.4463 -1.1239 0.8524
-23.6931 -21.4434 -0.8998 0.8800
-25.4348 -26.5795 -1.0359 0.8631
-25.8325 -29.0120 -1.0938 0.8560
-29.1141 -37.8489 -1.3446 0.8261
-23.0607 -37.7836 -1.2464 0.8377
-7.2407 -14.0388 -0.4448 0.9387
-2.9672 -0.1588 -0.1507 0.9882
-31.6727 -3.9885 -1.6189 0.8800
-31.0603 -7.3701 -1.6189 0.8800
-30.0878 -10.6662 -1.6189 0.8800
-29.2449 -12.7972 -1.6189 0.8800
-27.3998 -14.4143 -1.5701 0.8834
-24.5593 -15.2640 -1.4665 0.8906
-23.9955 -16.1357 -1.4665 0.8906
-21.4389 -19.4033 -1.4664 0.8906
-20.7285 -20.1602 -1.4664 0.8906
-17.6978 -23.0075 -1.4721 0.8902
-16.9183 -23.7088 -1.4771 0.8899
-9.2462 -13.9938 -0.8506 0.9350
-8.5148 -13.9511 -0.8289 0.9366
-7.7959 -13.8694 -0.8069 0.9383
-7.1329 -13.8299 -0.7892 0.9396
-2.4078 -0.1289 -0.1768 0.9904
-2.4096 -0.2159 -0.1774 0.9903
-2.4936 -0.4979 -0.1864 0.9899
-2.5453 -0.6040 -0.1918 0.9896
-21.2853 -5.8651 -1.6188 0.9153
-21.0610 -6.6254 -1.6188 0.9153
-19.8958 -9.5712 -1.6188 0.9153
-19.5394 -10.2792 -1.6188 0.9153
-19.1578 -10.9738 -1.6188 0.9153
-17.8670 -12.9695 -1.6188 0.9153
-17.3899 -13.6025 -1.6188 0.9153
-15.8267 -15.3928 -1.6188 0.9153
-13.4062 -16.1908 -1.5413 0.9191
-7.7963 -13.8701 -1.1666 0.9382
-7.1234 -13.8114 -1.1394 0.9396
-2.1522 -0.0378 -0.2067 0.9914
-2.1550 -0.1154 -0.2072 0.9914
-2.1566 -0.1933 -0.2079 0.9913
-2.1674 -0.3524 -0.2108 0.9912
-2.1942 -0.4381 -0.2148 0.9910
-16.0846 -5.0599 -1.6188 0.9345
-15.8925 -5.6340 -1.6188 0.9345
-15.4474 -6.7596 -1.6188 0.9345
-15.1947 -7.3097 -1.6188 0.9345
-14.3209 -8.9006 -1.6188 0.9345
-13.9921 -9.4089 -1.6188 0.9345
-12.8995 -10.8584 -1.6188 0.9345
-11.6574 -12.1821 -1.6188 0.9345
-11.2126 -12.5926 -1.6187 0.9345
-10.7533 -12.9869 -1.6187 0.9345
-10.2802 -13.3645 -1.6187 0.9345
-9.7939 -13.7249 -1.6187 0.9345
-9.2949 -14.0675 -1.6187 0.9345
-8.2617 -14.6980 -1.6187 0.9345
-1.9990 -0.0351 -0.2375 0.9920
-2.0101 -0.2531 -0.2407 0.9919
-2.0271 -0.4048 -0.2455 0.9917
-2.0439 -0.4850 -0.2495 0.9916
-2.0605 -0.5678 -0.2539 0.9914
-2.0770 -0.6534 -0.2586 0.9913
-12.4846 -5.4631 -1.6188 0.9466
-11.5742 -7.1935 -1.6188 0.9466
-10.7338 -8.3960 -1.6187 0.9466
-10.4255 -8.7759 -1.6187 0.9466
-10.1037 -9.1444 -1.6187 0.9466
-9.4216 -9.8457 -1.6187 0.9466
-8.6910 -10.4962 -1.6187 0.9466
-8.3086 -10.8013 -1.6187 0.9466
-7.9155 -11.0926 -1.6187 0.9466
-7.5123 -11.3695 -1.6187 0.9466
-7.0993 -11.6318 -1.6187 0.9466
-6.6772 -11.8791 -1.6187 0.9466
-6.2465 -12.1111 -1.6187 0.9466
-1.9071 -0.0335 -0.2703 0.9923
-1.9128 -0.1024 -0.2714 0.9923
-1.9160 -0.1717 -0.2726 0.9923
-1.9203 -0.3122 -0.2757 0.9922
-1.9395 -0.4602 -0.2824 0.9920
-10.7681 -3.8173 -1.6188 0.9549
-10.6241 -4.2013 -1.6188 0.9549
-10.4665 -4.5800 -1.6187 0.9549
-9.9134 -5.6785 -1.6187 0.9549
-9.7032 -6.0307 -1.6187 0.9549
-9.2455 -6.7113 -1.6187 0.9549
-8.4705 -7.6662 -1.6187 0.9549
-8.1898 -7.9653 -1.6187 0.9549
-7.8986 -8.2541 -1.6187 0.9549
-7.2861 -8.7995 -1.6187 0.9549
-6.9655 -9.0553 -1.6187 0.9549
-6.2979 -9.5317 -1.6187 0.9549
-5.5978 -9.9589 -1.6187 0.9549
-1.8343 -0.2310 -0.3046 0.9925
-1.8355 -0.2984 -0.3064 0.9925
-1.8480 -0.4385 -0.3129 0.9923
-1.8571 -0.5117 -0.3173 0.9922
-9.1375 -3.6135 -1.6187 0.9609
-8.8547 -4.2597 -1.6187 0.9609
-8.6961 -4.5748 -1.6187 0.9609
-8.1539 -5.4830 -1.6187 0.9609
-7.9518 -5.7722 -1.6187 0.9609
-6.7934 -7.0992 -1.6187 0.9609
-6.5342 -7.3384 -1.6187 0.9609
-6.2666 -7.5682 -1.6187 0.9609
-5.9909 -7.7883 -1.6187 0.9609
-5.7075 -7.9983 -1.6187 0.9609
-5.4167 -8.1980 -1.6187 0.9609
-4.8146 -8.5654 -1.6187 0.9609
-1.7450 -0.0307 -0.3280 0.9929
-1.7497 -0.0937 -0.3293 0.9929
-1.7537 -0.1572 -0.3309 0.9929
-1.7566 -0.2212 -0.3328 0.9928
-1.7574 -0.3509 -0.3368 0.9927
-1.7645 -0.4187 -0.3409 0.9926
-1.7720 -0.4883 -0.3455 0.9925
-1.7943 -0.7096 -0.3627 0.9922
-7.6217 -4.0096 -1.6187 0.9656
-7.3144 -4.5460 -1.6187 0.9656
-6.9694 -5.0591 -1.6187 0.9656
-6.5885 -5.5460 -1.6187 0.9656
-6.3852 -5.7789 -1.6187 0.9656
-6.1736 -6.0044 -1.6187 0.9656
-5.7269 -6.4318 -1.6187 0.9656
-4.7475 -7.1851 -1.6187 0.9656
-4.4865 -7.3509 -1.6187 0.9656
-1.6772 -0.0898 -0.3550 0.9932
-1.6834 -0.2120 -0.3587 0.9931
-1.6937 -0.4667 -0.3714 0.9928
-1.6992 -0.5346 -0.3765 0.9927
-1.7079 -0.6754 -0.3882 0.9925
-6.7773 -3.5653 -1.6187 0.9692
-6.6449 -3.8063 -1.6187 0.9692
-6.3547 -4.2732 -1.6187 0.9692
-6.0318 -4.7181 -1.6187 0.9692
-5.8585 -4.9315 -1.6187 0.9692
-5.6777 -5.1386 -1.6187 0.9692
-5.4896 -5.3391 -1.6187 0.9692
-4.4481 -6.2334 -1.6187 0.9692
-4.2215 -6.3891 -1.6187 0.9692
-3.9894 -6.5365 -1.6187 0.9692
-1.6099 -0.0862 -0.3789 0.9934
-1.6166 -0.2629 -0.3849 0.9933
-1.6164 -0.3836 -0.3904 0.9932
-1.6257 -0.5114 -0.4005 0.9930
-1.6318 -0.6453 -0.4124 0.9928
-6.2066 -2.9858 -1.6187 0.9721
-6.0954 -3.2067 -1.6187 0.9721
-5.9764 -3.4234 -1.6187 0.9721
-5.7154 -3.8433 -1.6187 0.9721
-5.4250 -4.2434 -1.6187 0.9721
-5.2691 -4.4354 -1.6187 0.9721
-5.1065 -4.6217 -1.6187 0.9721
-4.9373 -4.8020 -1.6187 0.9721
-4.7618 -4.9761 -1.6187 0.9721
-4.3925 -5.3049 -1.6187 0.9721
-3.7968 -5.7463 -1.6187 0.9721
-3.3748 -6.0039 -1.6187 0.9721
-3.1571 -6.1211 -1.6187 0.9721
-1.5437 -0.0271 -0.3997 0.9936
-1.5472 -0.0828 -0.4012 0.9936
-1.5498 -0.1389 -0.4029 0.9936
-1.5528 -0.3101 -0.4100 0.9935
-1.5518 -0.3682 -0.4130 0.9934
-1.5544 -0.4283 -0.4175 0.9934
-1.5576 -0.4900 -0.4228 0.9933
-1.5668 -0.6196 -0.4362 0.9931
-1.5706 -0.6873 -0.4439 0.9929
-5.6338 -2.7102 -1.6187 0.9745
-5.4249 -3.1074 -1.6187 0.9745
-5.1879 -3.4886 -1.6187 0.9745
-5.0594 -3.6726 -1.6187 0.9745
-4.9243 -3.8518 -1.6187 0.9745
-4.7828 -4.0261 -1.6187 0.9745
-4.6352 -4.1952 -1.6187 0.9745
-4.4817 -4.3588 -1.6187 0.9745
-4.1574 -4.6691 -1.6187 0.9745
-3.9871 -4.8153 -1.6187 0.9745
-3.2570 -5.3363 -1.6187 0.9745
-3.0633 -5.4498 -1.6187 0.9745
-2.8657 -5.5562 -1.6187 0.9745
-1.4866 -0.0261 -0.4209 0.9938
-1.4897 -0.0797 -0.4223 0.9938
-1.4921 -0.1337 -0.4241 0.9938
-1.4938 -0.1881 -0.4262 0.9938
-1.4948 -0.2430 -0.4287 0.9937
-1.4950 -0.2985 -0.4316 0.9937
-1.5050 -0.5336 -0.4520 0.9934
-1.5084 -0.5966 -0.4592 0.9933
-1.5129 -0.7278 -0.4753 0.9930
-5.0604 -2.6621 -1.6187 0.9765
-1.6332 -0.9355 -0.5328 0.9922
-4.5037 -3.5229 -1.6187 0.9765
-4.0990 -3.9866 -1.6187 0.9765
-3.9532 -4.1311 -1.6187 0.9765
-3.8024 -4.2704 -1.6187 0.9765
-3.4862 -4.5322 -1.6187 0.9765
-3.1521 -4.7706 -1.6187 0.9765
-2.9788 -4.8806 -1.6187 0.9765
-2.8017 -4.9844 -1.6187 0.9765
-2.6210 -5.0817 -1.6187 0.9765
-1.4369 -0.0253 -0.4420 0.9940
-1.4417 -0.0772 -0.4441 0.9940
-1.4453 -0.1820 -0.4480 0.9939
-1.4458 -0.2887 -0.4535 0.9938
-1.4449 -0.3429 -0.4568 0.9938
-1.4479 -0.4555 -0.4669 0.9937
-1.4536 -0.5748 -0.4808 0.9935
-1.4553 -0.6368 -0.4886 0.9934
-1.4560 -0.7005 -0.4970 0.9933
-4.6575 -2.4502 -1.6187 0.9782
-1.5747 -0.9020 -0.5582 0.9924
-1.5580 -0.9683 -0.5642 0.9924
-4.3672 -2.9367 -1.6187 0.9782
-4.2589 -3.0915 -1.6187 0.9782
-4.0262 -3.3891 -1.6187 0.9782
-3.7726 -3.6692 -1.6187 0.9782
-3.6385 -3.8023 -1.6187 0.9782
-3.2087 -4.1713 -1.6187 0.9782
-2.9011 -4.3908 -1.6187 0.9782
-2.7417 -4.4921 -1.6187 0.9782
-1.3958 -0.0747 -0.4646 0.9941
-1.3980 -0.1253 -0.4666 0.9941
-1.3995 -0.2275 -0.4713 0.9940
-1.3959 -0.3847 -0.4813 0.9939
-1.4027 -0.6138 -0.5089 0.9936
-1.4026 -0.6748 -0.5174 0.9935
-1.5510 -0.9640 -0.6070 0.9923
-3.9408 -2.8607 -1.6187 0.9797
-3.8356 -3.0002 -1.6187 0.9797
-3.7255 -3.1360 -1.6187 0.9797
-2.9690 -3.8598 -1.6187 0.9797
-2.8286 -3.9639 -1.6187 0.9797
-2.5369 -4.1566 -1.6187 0.9797
-2.3861 -4.2450 -1.6187 0.9797
-1.3486 -0.0722 -0.4829 0.9943
-1.3532 -0.3211 -0.4974 0.9941
-1.3515 -0.4252 -0.5066 0.9940
-1.3527 -0.4796 -0.5132 0.9939
-1.3531 -0.5351 -0.5203 0.9938
-1.3531 -0.5921 -0.5282 0.9937
-1.5211 -0.8713 -0.6269 0.9926
-1.5397 -0.9570 -0.6483 0.9923
-3.7562 -2.5258 -1.6187 0.9810
-3.5653 -2.7888 -1.6187 0.9810
-3.3560 -3.0374 -1.6187 0.9810
-3.2448 -3.1559 -1.6187 0.9810
-3.1295 -3.2703 -1.6187 0.9810
-3.0101 -3.3805 -1.6187 0.9810
-2.7598 -3.5878 -1.6187 0.9810
-2.6292 -3.6845 -1.6187 0.9810
-2.4953 -3.7765 -1.6187 0.9810
-2.3581 -3.8637 -1.6187 0.9810
-2.0748 -4.0229 -1.6187 0.9810
-1.2968 -0.0228 -0.4970 0.9945
-1.3037 -0.0698 -0.5003 0.9944
-1.3133 -0.1654 -0.5073 0.9943
-1.3123 -0.2621 -0.5128 0.9943
-1.3082 -0.3605 -0.5200 0.9942
-1.3069 -0.4111 -0.5250 0.9941
-1.3073 -0.5170 -0.5387 0.9940
-1.3063 -0.5716 -0.5464 0.9939
-1.2986 -0.7439 -0.5735 0.9936
-3.5875 -2.2297 -1.6187 0.9821
-3.5052 -2.3570 -1.6187 0.9821
-3.4183 -2.4813 -1.6187 0.9821
-3.1318 -2.8344 -1.6187 0.9821
-2.9203 -3.0518 -1.6187 0.9821
-2.8089 -3.1546 -1.6187 0.9821
-2.6939 -3.2534 -1.6187 0.9821
-2.3285 -3.5241 -1.6187 0.9821
-2.0697 -3.6821 -1.6187 0.9821
-1.2546 -0.0221 -0.5136 0.9946
-1.2668 -0.1135 -0.5206 0.9945
-1.2718 -0.1602 -0.5246 0.9945
-1.2645 -0.3978 -0.5425 0.9943
-1.2646 -0.4483 -0.5491 0.9942
-1.2622 -0.5523 -0.5639 0.9941
-3.2820 -2.2070 -1.6187 0.9831
-2.8352 -2.7575 -1.6187 0.9831
-2.7344 -2.8575 -1.6187 0.9831
-2.5223 -3.0463 -1.6187 0.9831
-2.2973 -3.2194 -1.6187 0.9831
-1.8129 -3.5150 -1.6187 0.9831
-1.2144 -0.0214 -0.5294 0.9947
-1.2204 -0.0653 -0.5327 0.9947
-1.2257 -0.1098 -0.5363 0.9946
-1.2311 -0.2921 -0.5514 0.9945
-1.2245 -0.3852 -0.5594 0.9944
-1.2172 -0.5856 -0.5887 0.9941
-1.2132 -0.6382 -0.5974 0.9940
-1.2082 -0.6921 -0.6068 0.9939
-3.0821 -2.0725 -1.6187 0.9839
-3.0057 -2.1819 -1.6187 0.9839
-2.9255 -2.2883 -1.6187 0.9839
-2.8415 -2.3919 -1.6187 0.9839
-2.6625 -2.5896 -1.6187 0.9839
-2.2645 -2.9439 -1.6187 0.9839
-2.0475 -3.0988 -1.6187 0.9839
-1.9350 -3.1703 -1.6187 0.9839
-1.8199 -3.2377 -1.6187 0.9839
-1.1760 -0.0207 -0.5444 0.9948
-1.1864 -0.1063 -0.5514 0.9948
-1.1938 -0.2833 -0.5679 0.9946
-1.1908 -0.3281 -0.5717 0.9946
-1.1869 -0.3734 -0.5759 0.9945
-1.1845 -0.4199 -0.5817 0.9945
-1.1828 -0.4678 -0.5888 0.9944
-1.1767 -0.5661 -0.6045 0.9943
-1.1602 -0.7211 -0.6323 0.9940
-1.1529 -0.7753 -0.6431 0.9939
-2.6753 -2.2520 -1.6187 0.9847
-2.1321 -2.7718 -1.6187 0.9847
-2.0312 -2.8465 -1.6187 0.9847
-1.9278 -2.9176 -1.6187 0.9847
-1.8218 -2.9849 -1.6187 0.9847
-1.7135 -3.0484 -1.6187 0.9847
-1.1392 -0.0200 -0.5589 0.9949
-1.1444 -0.0613 -0.5622 0.9949
-1.1554 -0.1879 -0.5742 0.9948
-1.1574 -0.2311 -0.5790 0.9948
-1.1548 -0.3182 -0.5876 0.9947
-1.1508 -0.3620 -0.5918 0.9946
-1.1420 -0.4998 -0.6115 0.9945
-1.1205 -0.6964 -0.6471 0.9941
-2.5992 -2.0331 -1.6187 0.9854
-2.4466 -2.2143 -1.6187 0.9854
-2.1046 -2.5417 -1.6187 0.9854
-1.9168 -2.6861 -1.6187 0.9854
-1.8191 -2.7532 -1.6187 0.9854
-1.1087 -0.0594 -0.5760 0.9950
-1.1128 -0.0997 -0.5796 0.9950
-1.1161 -0.1406 -0.5836 0.9949
-1.1203 -0.2237 -0.5927 0.9949
-1.1203 -0.3087 -0.6028 0.9948
-1.1161 -0.3511 -0.6070 0.9947
-1.1111 -0.3939 -0.6116 0.9947
-1.1087 -0.4385 -0.6185 0.9946
-1.1054 -0.4837 -0.6260 0.9946
-1.1012 -0.5298 -0.6339 0.9945
-1.0960 -0.5766 -0.6425 0.9944
-1.0898 -0.6243 -0.6516 0.9944
-1.0681 -0.7183 -0.6678 0.9942
-1.0478 -0.7606 -0.6717 0.9942
-2.3134 -2.0938 -1.6187 0.9860
-2.1572 -2.2543 -1.6187 0.9860
-2.0749 -2.3303 -1.6187 0.9860
-1.8124 -2.5398 -1.6187 0.9860
-1.5289 -2.7199 -1.6187 0.9860
-1.0699 -0.0188 -0.5861 0.9951
-1.0744 -0.0575 -0.5893 0.9951
-1.0852 -0.2575 -0.6109 0.9949
-1.0827 -0.3406 -0.6216 0.9948
-1.0775 -0.3820 -0.6262 0.9948
-1.0739 -0.4247 -0.6325 0.9947
-1.0658 -0.5127 -0.6478 0.9946
-1.0603 -0.5578 -0.6562 0.9946
-1.0367 -0.6443 -0.6685 0.9944
-0.9988 -0.7250 -0.6759 0.9944
-0.9979 -0.8400 -0.7144 0.9941
-1.8848 -2.2763 -1.6187 0.9866
-1.6292 -2.4658 -1.6187 0.9866
-1.5397 -2.5226 -1.6187 0.9866
-1.4481 -2.5763 -1.6187 0.9866
-1.0372 -0.0182 -0.5989 0.9952
-1.0449 -0.0936 -0.6057 0.9952
-1.0475 -0.1319 -0.6096 0.9951
-1.0507 -0.2493 -0.6235 0.9950
-1.0501 -0.2894 -0.6289 0.9950
-1.0452 -0.3706 -0.6403 0.9949
-1.0318 -0.4964 -0.6611 0.9947
-1.0212 -0.5372 -0.6662 0.9947
-0.9897 -0.6151 -0.6728 0.9946
-0.9720 -0.6537 -0.6763 0.9946
-0.9530 -0.6918 -0.6799 0.9946
-0.9327 -0.7296 -0.6837 0.9945
-2.0098 -1.9547 -1.6187 0.9871
-1.8644 -2.0939 -1.6187 0.9871
-1.7094 -2.2223 -1.6187 0.9871
