ply
format ascii 1.0
element vertex 560
property float32 x
property float32 y
property float32 z
property float32 I
end_header
-11.9660 22.2805 4.4594 0.9024
-12.3174 21.0752 4.3043 0.9056
-12.9296 18.8581 4.0317 0.9113
-12.2291 16.5259 3.6251 0.9199
-14.1416 12.3385 3.3092 0.9266
-14.4415 11.7107 3.2784 0.9273
-15.2246 10.6238 3.2735 0.9274
-15.5937 9.2869 3.2003 0.9289
-17.7028 8.8822 3.4924 0.9227
-29.4085 12.1894 5.6133 0.8787
-10.1578 25.0891 4.1466 0.8963
-11.9782 22.3033 3.8783 0.9026
-12.3173 21.0749 3.7395 0.9059
-12.5681 19.8271 3.5962 0.9094
-12.8925 18.8040 3.4927 0.9119
-13.2451 17.8989 3.4111 0.9138
-13.3418 16.7328 3.2785 0.9170
-13.7766 16.0549 3.2409 0.9180
-14.0159 15.1897 3.1662 0.9198
-14.4636 13.5681 3.0381 0.9229
-14.6325 12.7668 2.9749 0.9244
-15.4112 9.9478 2.8100 0.9285
-15.5937 9.2869 2.7804 0.9292
-15.7726 8.6390 2.7550 0.9298
-29.4599 12.2108 4.8854 0.8789
-10.6290 3.9629 1.7378 0.9551
-13.4868 16.9147 2.8171 0.9164
-12.3374 10.0045 2.0684 0.9379
-12.5045 9.4136 2.0382 0.9388
-12.6933 8.8575 2.0156 0.9395
-15.4112 9.9478 2.3886 0.9287
-12.9598 7.7183 1.9643 0.9410
-17.9352 8.9988 2.6130 0.9222
-22.3218 10.2098 3.1964 0.9057
-29.4599 12.2108 4.1528 0.8793
-11.2293 25.0951 2.9522 0.8953
-11.6265 23.6565 2.8305 0.8994
-10.5305 16.6127 2.1121 0.9239
-14.7032 14.8248 2.2421 0.9194
-14.4635 13.5680 2.1295 0.9233
-14.6325 12.7668 2.0853 0.9249
-15.0328 11.3170 2.0205 0.9271
-15.4112 9.9477 1.9697 0.9289
-22.3379 10.2172 2.6377 0.9059
-10.6265 3.9620 1.2179 0.9554
-8.9669 22.1477 2.0227 0.9085
-12.0515 24.5212 2.3129 0.8961
-11.9784 22.3035 2.1431 0.9034
-12.7812 20.1634 2.0209 0.9086
-12.9296 18.8581 1.9356 0.9123
-13.2614 17.9209 1.8873 0.9144
-13.6749 17.1505 1.8569 0.9157
-14.0158 15.1897 1.7496 0.9204
-15.0252 12.1841 1.6376 0.9253
-15.4112 9.9477 1.5528 0.9290
-12.9598 7.7183 1.2769 0.9412
-16.1787 8.1175 1.5323 0.9299
-20.4405 9.3494 1.9028 0.9137
-29.2387 12.1191 2.6793 0.8807
-10.6253 3.9616 0.9599 0.9555
-12.9296 18.8580 1.4179 0.9124
-13.2614 17.9209 1.3825 0.9145
-13.6979 17.1794 1.3625 0.9157
-13.7766 16.0549 1.3119 0.9187
-14.4635 13.5680 1.2298 0.9236
-14.6325 12.7668 1.2042 0.9251
-15.2243 10.6236 1.1512 0.9283
-12.7670 7.6034 0.9214 0.9422
-16.1787 8.1175 1.1224 0.9300
-20.4406 9.3494 1.3938 0.9139
-26.8384 11.1242 1.8016 0.8901
-10.6242 3.9612 0.7031 0.9556
-9.5499 19.4313 0.8537 0.9170
-10.3967 16.4017 0.7657 0.9252
-10.6425 15.5223 0.7421 0.9274
-11.0926 13.9119 0.7016 0.9313
-11.8690 11.1341 0.6417 0.9369
-12.2129 9.9035 0.6200 0.9390
-10.6230 3.9607 0.4471 0.9556
-8.8626 21.8903 0.3989 0.9098
-9.2212 20.6074 0.3814 0.9136
-10.3967 16.4016 0.3280 0.9253
-10.8739 14.6945 0.3088 0.9295
-11.0926 13.9119 0.3006 0.9313
-11.2332 13.0909 0.2914 0.9333
-11.6873 11.7840 0.2804 0.9358
-11.8690 11.1341 0.2749 0.9370
-12.5359 8.7477 0.2582 0.9407
-12.6912 8.1921 0.2552 0.9414
-12.7669 7.6034 0.2510 0.9423
-12.9180 7.0754 0.2488 0.9428
-15.1662 7.6095 0.2866 0.9344
-18.4078 8.4196 0.3419 0.9222
-24.1142 9.9950 0.4410 0.9008
-10.6219 3.9603 0.1915 0.9557
-10.8738 14.6945 -0.1029 0.9295
-11.2332 13.0909 -0.0971 0.9333
-11.4981 12.4611 -0.0955 0.9344
-11.6873 11.7840 -0.0934 0.9358
-11.8689 11.1341 -0.0916 0.9370
-12.0439 10.5082 -0.0900 0.9381
-12.7669 7.6034 -0.0837 0.9423
-15.1662 7.6095 -0.0955 0.9344
-24.1142 9.9950 -0.1469 0.9009
-10.6207 3.9599 -0.0638 0.9557
-9.5499 19.4312 -0.6096 0.9170
-10.3967 16.4016 -0.5468 0.9252
-11.0925 13.9119 -0.5010 0.9313
-12.0439 10.5082 -0.4501 0.9380
-12.2129 9.9035 -0.4427 0.9390
-12.3767 9.3174 -0.4362 0.9399
-12.5359 8.7476 -0.4304 0.9407
-12.6912 8.1921 -0.4253 0.9413
-15.1663 7.6095 -0.4778 0.9344
-24.1142 9.9950 -0.7350 0.9008
-9.2212 20.6073 -1.1449 0.9135
-9.8423 18.3263 -1.0550 0.9201
-10.1344 17.3400 -1.0186 0.9227
-11.0925 13.9119 -0.9023 0.9312
-11.2332 13.0909 -0.8748 0.9332
-11.4980 12.4611 -0.8599 0.9343
-11.6873 11.7840 -0.8417 0.9357
-12.0438 10.5082 -0.8106 0.9380
-12.3767 9.3174 -0.7857 0.9398
-12.6912 8.1921 -0.7661 0.9413
-24.1143 9.9951 -1.3238 0.9007
-10.6184 3.9590 -0.5747 0.9556
-27.4523 9.1226 -1.4671 0.8906
-28.2770 6.1059 -1.4671 0.8906
-31.4390 5.6110 -1.6196 0.8799
-31.6210 4.4741 -1.6196 0.8799
-3.0620 0.3212 -0.1561 0.9877
-2.9554 0.0958 -0.1500 0.9882
-2.9369 -0.0108 -0.1489 0.9883
-8.1691 18.2561 -1.4665 0.9229
-8.8219 17.9500 -1.4665 0.9229
-10.3966 16.4016 -1.4239 0.9251
-11.0925 13.9119 -1.3046 0.9311
-11.4980 12.4610 -1.2432 0.9343
-11.6873 11.7840 -1.2169 0.9356
-11.8689 11.1341 -1.1932 0.9368
-12.0438 10.5082 -1.1720 0.9379
-12.5359 8.7476 -1.1208 0.9405
-12.6912 8.1921 -1.1076 0.9412
-18.1920 8.3209 -1.4668 0.9229
-10.5257 3.9244 -0.8237 0.9559
-18.9842 6.3086 -1.4668 0.9229
-2.5684 0.6523 -0.1943 0.9894
-2.4648 0.4399 -0.1836 0.9900
-2.4087 0.1651 -0.1770 0.9904
-2.4057 0.0780 -0.1765 0.9904
-6.2386 13.9421 -1.4664 0.9405
-6.7373 13.7084 -1.4664 0.9405
-7.2271 13.4568 -1.4664 0.9405
-7.7075 13.1877 -1.4665 0.9405
-8.1780 12.9014 -1.4665 0.9405
-8.6378 12.5984 -1.4665 0.9405
-9.5231 11.9436 -1.4665 0.9405
-9.9475 11.5926 -1.4665 0.9405
-10.3590 11.2266 -1.4665 0.9405
-11.5107 10.0430 -1.4666 0.9405
-11.8653 9.6217 -1.4666 0.9405
-12.2045 9.1878 -1.4666 0.9405
-12.5278 8.7419 -1.4666 0.9405
-12.7669 7.6034 -1.4266 0.9420
-12.9179 7.0754 -1.4140 0.9425
-13.8925 6.3544 -1.4666 0.9405
-14.4975 4.8176 -1.4667 0.9405
-2.2652 0.6631 -0.2266 0.9906
-2.2057 0.4763 -0.2166 0.9910
-2.1790 0.3889 -0.2125 0.9911
-2.1564 0.3051 -0.2091 0.9913
-2.1568 0.2262 -0.2082 0.9913
-2.1558 0.1478 -0.2075 0.9914
-2.1535 0.0698 -0.2069 0.9914
-2.1508 -0.0079 -0.2065 0.9914
-4.6326 11.4423 -1.4664 0.9515
-5.4450 11.0790 -1.4664 0.9515
-6.2291 10.6581 -1.4664 0.9515
-6.6094 10.4268 -1.4664 0.9515
-6.9809 10.1818 -1.4664 0.9515
-7.3435 9.9237 -1.4664 0.9515
-7.6965 9.6526 -1.4665 0.9515
-8.0394 9.3690 -1.4665 0.9515
-8.3720 9.0731 -1.4665 0.9515
-9.0040 8.4465 -1.4665 0.9515
-9.3027 8.1166 -1.4665 0.9515
-10.3728 6.6955 -1.4665 0.9515
-10.6074 6.3173 -1.4665 0.9515
-10.8283 5.9309 -1.4665 0.9515
-11.0351 5.5367 -1.4666 0.9515
-11.4054 4.7274 -1.4666 0.9515
-10.4654 3.9020 -1.3268 0.9560
-11.7164 3.8934 -1.4666 0.9515
-2.0512 0.5209 -0.2514 0.9915
-2.0344 0.4393 -0.2472 0.9917
-2.0084 0.2106 -0.2399 0.9919
-3.8837 9.5926 -1.4663 0.9591
-4.2270 9.4464 -1.4663 0.9591
-4.5648 9.2880 -1.4664 0.9591
-5.2221 8.9351 -1.4664 0.9591
-5.5408 8.7411 -1.4664 0.9591
-6.1563 8.3193 -1.4664 0.9591
-7.0185 7.6063 -1.4664 0.9591
-8.0389 6.5188 -1.4665 0.9590
-8.8925 5.2960 -1.4665 0.9590
-9.0776 4.9720 -1.4665 0.9590
-9.2510 4.6416 -1.4665 0.9590
-9.4123 4.3051 -1.4665 0.9590
-9.6980 3.6159 -1.4665 0.9590
-1.9732 0.6557 -0.2946 0.9916
-1.9596 0.5736 -0.2893 0.9918
-1.9329 0.4174 -0.2802 0.9920
-1.9213 0.3429 -0.2765 0.9921
-1.9171 0.2011 -0.2731 0.9922
-1.9142 0.1312 -0.2719 0.9923
-3.3403 8.2503 -1.4663 0.9646
-3.6355 8.1246 -1.4663 0.9646
-3.9260 7.9883 -1.4663 0.9646
-4.2114 7.8416 -1.4663 0.9646
-4.4914 7.6848 -1.4664 0.9646
-5.0334 7.3413 -1.4664 0.9646
-5.7966 6.7552 -1.4664 0.9646
-6.0363 6.5419 -1.4664 0.9646
-6.2683 6.3201 -1.4664 0.9646
-6.7073 5.8521 -1.4664 0.9646
-6.9140 5.6066 -1.4664 0.9646
-7.1116 5.3537 -1.4664 0.9646
-7.6480 4.5548 -1.4664 0.9646
-7.8073 4.2762 -1.4665 0.9646
-7.9564 3.9920 -1.4665 0.9646
-8.0951 3.7026 -1.4665 0.9646
-8.2233 3.4085 -1.4665 0.9646
-1.8834 0.7022 -0.3311 0.9919
-1.8727 0.6223 -0.3251 0.9920
-1.8615 0.5449 -0.3195 0.9922
-1.8521 0.4704 -0.3148 0.9923
-1.8358 0.3276 -0.3072 0.9925
-1.8349 0.2596 -0.3053 0.9925
-1.8205 -0.0067 -0.2999 0.9926
-2.9276 7.2309 -1.4663 0.9687
-3.4409 7.0013 -1.4663 0.9687
-3.6911 6.8728 -1.4663 0.9687
-4.1767 6.5891 -1.4663 0.9687
-4.6406 6.2711 -1.4664 0.9687
-5.4937 5.5392 -1.4664 0.9687
-6.0597 4.9138 -1.4664 0.9687
-6.3980 4.4645 -1.4664 0.9687
-6.7030 3.9920 -1.4664 0.9687
-6.9733 3.4988 -1.4664 0.9687
-7.5672 3.1365 -1.5397 0.9672
-1.7817 0.5921 -0.3529 0.9924
-1.7751 0.5196 -0.3477 0.9925
-1.7551 0.1841 -0.3317 0.9928
-1.7470 0.0566 -0.3285 0.9929
-2.6032 6.4298 -1.4663 0.9720
-2.8333 6.3318 -1.4663 0.9720
-3.0597 6.2256 -1.4663 0.9720
-3.2821 6.1113 -1.4663 0.9720
-3.5003 5.9890 -1.4663 0.9720
-4.5175 5.2645 -1.4664 0.9720
-4.7043 5.0983 -1.4664 0.9720
-5.0594 4.7462 -1.4664 0.9720
-5.3882 4.3694 -1.4664 0.9720
-5.6890 3.9698 -1.4664 0.9720
-5.8284 3.7622 -1.4664 0.9720
-5.9603 3.5497 -1.4664 0.9720
-6.1623 3.3752 -1.4852 0.9717
-6.5569 3.2898 -1.5507 0.9705
-6.9349 3.1720 -1.6120 0.9693
-1.7058 0.6360 -0.3848 0.9926
-1.6841 0.3636 -0.3642 0.9930
-1.6844 0.2383 -0.3596 0.9931
-1.6788 0.1151 -0.3557 0.9931
-2.3413 5.7829 -1.4663 0.9747
-2.9519 5.4964 -1.4663 0.9747
-3.1481 5.3865 -1.4663 0.9747
-3.5280 5.1457 -1.4663 0.9747
-3.7112 5.0152 -1.4663 0.9747
-4.0630 4.7349 -1.4663 0.9747
-4.2310 4.5854 -1.4663 0.9747
-4.5504 4.2687 -1.4664 0.9747
-4.7013 4.1019 -1.4664 0.9747
-4.8461 3.9297 -1.4664 0.9747
-4.9846 3.7525 -1.4664 0.9747
-5.1299 3.5797 -1.4702 0.9746
-5.4294 3.5047 -1.5188 0.9738
-5.7628 3.4321 -1.5764 0.9728
-6.2637 2.8650 -1.6188 0.9721
-1.6327 0.6767 -0.4154 0.9928
-1.6273 0.5408 -0.4030 0.9930
-1.6234 0.4752 -0.3976 0.9931
-1.6187 0.4111 -0.3925 0.9932
-1.6159 0.2286 -0.3836 0.9933
-1.6140 0.1693 -0.3814 0.9934
-1.6113 0.1105 -0.3796 0.9934
-1.6044 -0.0059 -0.3771 0.9934
-2.1252 5.2492 -1.4663 0.9769
-2.3131 5.1692 -1.4663 0.9769
-2.4979 5.0825 -1.4663 0.9769
-2.6795 4.9891 -1.4663 0.9769
-3.2024 4.6708 -1.4663 0.9769
-3.5306 4.4280 -1.4663 0.9769
-3.6880 4.2979 -1.4663 0.9769
-3.9880 4.0210 -1.4663 0.9769
-4.1304 3.8747 -1.4663 0.9769
-4.3073 3.7581 -1.4800 0.9767
-4.5567 3.6950 -1.5190 0.9761
-4.8196 3.6283 -1.5620 0.9754
-5.5881 2.8038 -1.6188 0.9745
-1.5720 0.7190 -0.4476 0.9929
-1.5686 0.6502 -0.4396 0.9930
-1.5596 0.5183 -0.4255 0.9932
-1.5559 0.4554 -0.4198 0.9933
-1.5526 0.3352 -0.4113 0.9935
-1.5522 0.2196 -0.4059 0.9935
-1.5507 0.1626 -0.4037 0.9936
-1.5421 -0.0056 -0.3993 0.9936
-1.9437 4.8009 -1.4663 0.9787
-2.1155 4.7277 -1.4663 0.9787
-2.7730 4.3747 -1.4663 0.9787
-2.9289 4.2719 -1.4663 0.9787
-3.2291 4.0498 -1.4663 0.9787
-3.4125 3.9769 -1.4835 0.9785
-3.6159 3.9187 -1.5095 0.9781
-4.0490 3.7983 -1.5716 0.9772
-4.2848 3.7384 -1.6098 0.9766
-4.4258 3.5889 -1.6131 0.9766
-4.5583 3.4315 -1.6152 0.9766
-4.6854 3.2695 -1.6174 0.9765
-5.1109 2.5643 -1.6188 0.9765
-1.5120 0.6916 -0.4707 0.9931
-1.5029 0.4994 -0.4483 0.9934
-1.4984 0.4386 -0.4420 0.9935
-1.4940 0.3794 -0.4364 0.9936
-1.4949 0.3228 -0.4329 0.9937
-1.4930 0.1566 -0.4250 0.9938
-1.4908 0.1022 -0.4230 0.9938
-1.4880 0.0482 -0.4215 0.9938
-1.7951 4.4340 -1.4713 0.9802
-2.6439 4.1710 -1.5189 0.9795
-2.8250 4.1203 -1.5366 0.9793
-3.2005 4.0140 -1.5790 0.9787
-3.5544 3.8521 -1.6121 0.9783
-3.6943 3.7249 -1.6136 0.9783
-3.9613 3.4562 -1.6170 0.9782
-4.0878 3.3148 -1.6187 0.9782
-4.2046 3.1653 -1.6187 0.9782
-4.3159 3.0117 -1.6187 0.9782
-4.4217 2.8542 -1.6187 0.9782
-1.6403 0.8984 -0.5753 0.9922
-1.4561 0.7306 -0.5011 0.9932
-1.4495 0.4817 -0.4698 0.9936
-1.4443 0.3668 -0.4583 0.9938
-1.4460 0.2581 -0.4518 0.9939
-1.4457 0.2045 -0.4491 0.9939
-1.4445 0.1515 -0.4467 0.9939
-1.4401 0.0467 -0.4432 0.9940
-1.4333 -0.0053 -0.4408 0.9940
-2.1185 4.3104 -1.5965 0.9800
-2.4462 4.1854 -1.6114 0.9798
-2.7442 4.0025 -1.6131 0.9798
-3.0294 3.7993 -1.6152 0.9797
-3.3003 3.5767 -1.6177 0.9797
-3.4292 3.4575 -1.6187 0.9797
-3.5516 3.3317 -1.6187 0.9797
-3.7824 3.0672 -1.6187 0.9797
-3.8905 2.9289 -1.6187 0.9797
-3.9936 2.7867 -1.6187 0.9797
-4.0914 2.6410 -1.6187 0.9797
-1.6403 0.8984 -0.6217 0.9921
-1.4028 0.6416 -0.5127 0.9935
-1.4024 0.5813 -0.5046 0.9936
-1.4011 0.5224 -0.4971 0.9937
-1.3993 0.4650 -0.4902 0.9938
-1.3970 0.4089 -0.4838 0.9939
-1.3987 0.3020 -0.4756 0.9940
-1.3994 0.2498 -0.4725 0.9940
-1.3994 0.1980 -0.4698 0.9941
-1.3970 0.0958 -0.4654 0.9941
-1.3911 0.0451 -0.4626 0.9942
-1.3843 -0.0051 -0.4602 0.9942
-2.1384 3.9817 -1.6162 0.9810
-2.2814 3.9034 -1.6168 0.9810
-2.4216 3.8202 -1.6175 0.9810
-2.5590 3.7324 -1.6183 0.9810
-2.8219 3.5391 -1.6187 0.9810
-3.0696 3.3267 -1.6187 0.9810
-3.1875 3.2139 -1.6187 0.9810
-3.4108 2.9759 -1.6187 0.9810
-3.5158 2.8510 -1.6187 0.9810
-3.6163 2.7224 -1.6187 0.9810
-3.7121 2.5903 -1.6187 0.9810
-3.8031 2.4548 -1.6187 0.9810
-1.5061 0.8970 -0.6269 0.9926
-1.3492 0.7390 -0.5501 0.9935
-1.3515 0.6781 -0.5407 0.9936
-1.3521 0.4493 -0.5095 0.9940
-1.3552 0.2418 -0.4923 0.9942
-1.3554 0.1918 -0.4895 0.9942
-1.3548 0.1421 -0.4871 0.9942
-1.3515 0.0927 -0.4844 0.9943
-1.3379 -0.0049 -0.4785 0.9943
-1.5851 3.9151 -1.6187 0.9821
-1.7252 3.8555 -1.6187 0.9821
-1.8631 3.7908 -1.6187 0.9821
-1.9985 3.7212 -1.6187 0.9821
-2.1313 3.6467 -1.6187 0.9821
-2.3885 3.4837 -1.6187 0.9821
-2.6333 3.3026 -1.6187 0.9821
-2.7507 3.2055 -1.6187 0.9821
-2.9745 2.9991 -1.6187 0.9821
-3.0806 2.8899 -1.6187 0.9821
-3.3746 2.5405 -1.6187 0.9821
-3.5489 2.2908 -1.6187 0.9821
-1.3035 0.6540 -0.5589 0.9938
-1.3055 0.5971 -0.5502 0.9939
-1.3075 0.4875 -0.5348 0.9940
-1.3068 0.3825 -0.5218 0.9942
-1.3097 0.3326 -0.5178 0.9942
-1.3129 0.2343 -0.5111 0.9943
-1.3134 0.1858 -0.5083 0.9943
-1.3124 0.1376 -0.5057 0.9944
-1.3064 0.0896 -0.5018 0.9944
-1.2939 -0.0047 -0.4958 0.9945
-1.6154 3.6100 -1.6187 0.9831
-1.7444 3.5494 -1.6187 0.9831
-2.1174 3.3404 -1.6187 0.9831
-2.2365 3.2619 -1.6187 0.9831
-2.3526 3.1792 -1.6187 0.9831
-2.9802 2.6002 -1.6187 0.9831
-3.1598 2.3787 -1.6187 0.9831
-3.3229 2.1449 -1.6187 0.9831
-1.2581 0.6312 -0.5761 0.9939
-1.2632 0.5236 -0.5596 0.9941
-1.2643 0.4714 -0.5523 0.9942
-1.2646 0.4202 -0.5454 0.9943
-1.2712 0.2745 -0.5323 0.9944
-1.2726 0.2271 -0.5291 0.9944
-1.2690 0.1331 -0.5222 0.9945
-1.2636 0.0866 -0.5184 0.9945
-1.2519 -0.0046 -0.5124 0.9946
-1.6382 3.3333 -1.6187 0.9839
-1.9885 3.1370 -1.6187 0.9839
-2.1002 3.0633 -1.6187 0.9839
-2.4187 2.8186 -1.6187 0.9839
-2.5187 2.7296 -1.6187 0.9839
-2.7088 2.5411 -1.6187 0.9839
-2.7986 2.4418 -1.6187 0.9839
-2.8849 2.3394 -1.6187 0.9839
-1.2056 0.7180 -0.6116 0.9939
-1.2110 0.6633 -0.6017 0.9940
-1.2154 0.6098 -0.5927 0.9941
-1.2215 0.5063 -0.5763 0.9942
-1.2267 0.3591 -0.5570 0.9944
-1.2324 0.2661 -0.5495 0.9945
-1.2340 0.2202 -0.5463 0.9945
-1.2319 0.1743 -0.5422 0.9946
-1.2277 0.1288 -0.5380 0.9946
-1.2228 0.0838 -0.5341 0.9947
-1.2170 0.0394 -0.5307 0.9947
-1.2119 -0.0044 -0.5282 0.9947
-1.4283 3.1919 -1.6187 0.9847
-1.6545 3.0807 -1.6187 0.9847
-1.7645 3.0191 -1.6187 0.9847
-1.9774 2.8841 -1.6187 0.9847
-2.0801 2.8110 -1.6187 0.9847
-2.2772 2.6538 -1.6187 0.9847
-2.5504 2.3925 -1.6187 0.9847
-2.6350 2.2990 -1.6187 0.9847
-2.7162 2.2025 -1.6187 0.9847
-2.8678 2.0012 -1.6187 0.9847
-1.1569 0.7467 -0.6374 0.9939
-1.1638 0.6931 -0.6270 0.9940
-1.1748 0.5894 -0.6084 0.9942
-1.1838 0.4414 -0.5848 0.9944
-1.1850 0.3938 -0.5780 0.9945
-1.1892 0.3481 -0.5735 0.9946
-1.1952 0.2581 -0.5660 0.9946
-1.1920 0.1687 -0.5572 0.9947
-1.1837 0.0812 -0.5492 0.9948
-1.1784 0.0382 -0.5458 0.9948
-1.2384 3.0586 -1.6186 0.9854
-1.5613 2.9071 -1.6187 0.9854
-1.7667 2.7871 -1.6187 0.9854
-1.8660 2.7216 -1.6187 0.9854
-1.9629 2.6526 -1.6187 0.9854
-2.1489 2.5043 -1.6187 0.9854
-2.2378 2.4252 -1.6187 0.9854
-2.3238 2.3430 -1.6187 0.9854
-2.4067 2.2577 -1.6187 0.9854
-2.5631 2.0784 -1.6187 0.9854
-2.6364 1.9847 -1.6187 0.9854
-1.1082 0.7733 -0.6628 0.9940
-1.1168 0.7209 -0.6520 0.9941
-1.1243 0.6696 -0.6419 0.9942
-1.1360 0.5700 -0.6235 0.9944
-1.1462 0.4273 -0.6001 0.9946
-1.1531 0.3375 -0.5894 0.9947
-1.1564 0.2064 -0.5762 0.9948
-1.1538 0.1632 -0.5716 0.9948
-1.1370 -0.0042 -0.5577 0.9949
-1.2744 2.8480 -1.6186 0.9860
-1.5744 2.6938 -1.6187 0.9860
-1.6705 2.6353 -1.6187 0.9860
-1.7644 2.5734 -1.6187 0.9860
-1.9452 2.4396 -1.6187 0.9860
-2.0319 2.3679 -1.6187 0.9860
-2.1972 2.2153 -1.6187 0.9860
-2.2756 2.1347 -1.6187 0.9860
-2.3511 2.0513 -1.6187 0.9860
-1.0865 0.6471 -0.6561 0.9943
-1.0933 0.5988 -0.6467 0.9944
-1.0989 0.5514 -0.6378 0.9945
-1.1036 0.5048 -0.6296 0.9945
-1.1073 0.4590 -0.6219 0.9946
-1.1139 0.3702 -0.6090 0.9947
-1.1185 0.3274 -0.6046 0.9948
-1.1213 0.2848 -0.6002 0.9948
-1.1208 0.2420 -0.5948 0.9948
-1.1173 0.1581 -0.5854 0.9949
-1.1143 0.1169 -0.5812 0.9950
-1.1105 0.0761 -0.5775 0.9950
-1.1060 0.0358 -0.5741 0.9950
-1.1018 -0.0040 -0.5716 0.9950
-1.3035 2.6523 -1.6186 0.9866
-1.5822 2.4961 -1.6187 0.9866
-1.6712 2.4375 -1.6187 0.9866
-1.7580 2.3756 -1.6187 0.9866
-1.8424 2.3107 -1.6187 0.9866
-2.1554 2.0220 -1.6187 0.9866
-0.9855 0.7991 -0.6949 0.9942
-1.0281 0.6636 -0.6702 0.9944
-1.0574 0.5792 -0.6603 0.9945
-1.0684 0.4887 -0.6434 0.9947
-1.0755 0.4010 -0.6287 0.9948
-1.0805 0.3591 -0.6236 0.9948
-1.0845 0.3175 -0.6189 0.9949
-1.0852 0.2756 -0.6132 0.9949
-1.0850 0.2343 -0.6080 0.9950
-1.0840 0.1935 -0.6031 0.9950
-1.0795 0.1132 -0.5945 0.9951
-1.0761 0.0738 -0.5908 0.9951
-1.0680 -0.0039 -0.5849 0.9951
-1.1451 2.5590 -1.6186 0.9871
-1.2366 2.5161 -1.6186 0.9871
-1.5010 2.3679 -1.6187 0.9871
-1.5854 2.3123 -1.6187 0.9871
-1.6677 2.2536 -1.6187 0.9871
-1.8257 2.1276 -1.6187 0.9871
-1.9012 2.0604 -1.6187 0.9871
-0.9814 0.6335 -0.6744 0.9946
-1.0287 0.5162 -0.6645 0.9947
-1.0345 0.4732 -0.6568 0.9948
-1.0388 0.4306 -0.6492 0.9948
-1.0426 0.3887 -0.6424 0.9949
-1.0496 0.3072 -0.6314 0.9950
-1.0507 0.2269 -0.6206 0.9950
-1.0461 0.1097 -0.6073 0.9952
-1.0391 0.0337 -0.6002 0.9952
