ply
format ascii 1.0
element vertex 530
property float32 x
property float32 y
property float32 z
property float32 I
end_header
-14.1862 14.3621 3.5595 0.9213
-14.4095 13.5751 3.4907 0.9227
-14.2098 12.4535 3.3316 0.9261
-14.8286 11.2188 3.2787 0.9273
-15.3980 9.9952 3.2369 0.9281
-17.5860 8.8857 3.4742 0.9231
-29.3485 12.2676 5.6088 0.8788
-10.6178 3.9961 2.0004 0.9550
-39.3020 -18.0871 7.6286 0.8388
-13.7638 16.1008 3.2450 0.9179
-14.0031 15.2355 3.1701 0.9197
-14.2316 14.4080 3.1024 0.9213
-14.4508 13.6140 3.0415 0.9228
-14.7802 12.0418 2.9206 0.9258
-15.3980 9.9952 2.8123 0.9284
-17.6589 8.9226 3.0310 0.9231
-21.3870 9.8575 3.6076 0.9091
-29.4045 12.2910 4.8823 0.8790
-38.7776 -9.9626 6.1334 0.8504
-13.4741 16.9606 2.8207 0.9163
-14.0031 15.2355 2.6947 0.9199
-14.4690 14.6483 2.6812 0.9203
-12.1848 10.6788 2.1098 0.9367
-12.4934 9.4521 2.0401 0.9388
-12.6806 8.8953 2.0171 0.9394
-13.1432 7.2456 1.9544 0.9413
-17.6590 8.9226 2.5764 0.9233
-21.8974 10.0927 3.1398 0.9073
-29.4045 12.2910 4.1501 0.8794
-10.6154 3.9952 1.4770 0.9553
-13.7638 16.1008 2.2746 0.9183
-14.0031 15.2355 2.2221 0.9201
-14.6900 14.8721 2.2447 0.9193
-14.6197 12.8128 2.0875 0.9248
-15.2113 10.6706 1.9952 0.9280
-12.9635 7.7670 1.6228 0.9410
-13.1432 7.2456 1.6116 0.9414
-16.0492 8.1093 1.9309 0.9302
-28.5161 11.9197 3.3189 0.8831
-10.6142 3.9947 1.2178 0.9554
-13.7638 16.1008 1.7931 0.9185
-14.4508 13.6140 1.6807 0.9234
-15.0047 11.3520 1.5928 0.9273
-15.2113 10.6705 1.5729 0.9281
-15.3980 9.9951 1.5540 0.9290
-13.1432 7.2456 1.2705 0.9415
-16.0493 8.1093 1.5222 0.9304
-10.6130 3.9943 0.9599 0.9555
-13.7638 16.1008 1.3135 0.9186
-14.7159 14.8983 1.2985 0.9195
-14.4508 13.6140 1.2311 0.9235
-14.6197 12.8128 1.2055 0.9250
-15.2112 10.6705 1.1522 0.9282
-12.9069 7.1153 0.9139 0.9426
-20.0381 9.2358 1.3682 0.9154
-26.3806 11.0270 1.7730 0.8917
-11.8584 11.1717 0.6424 0.9369
-12.6803 8.2311 0.5961 0.9413
-12.7559 7.6427 0.5864 0.9422
-12.9069 7.1153 0.5811 0.9427
-14.9327 7.5451 0.6597 0.9352
-26.3806 11.0271 1.1274 0.8918
-11.2227 13.1283 0.2917 0.9332
-11.4875 12.4986 0.2868 0.9343
-11.8584 11.1717 0.2752 0.9369
-12.0333 10.5460 0.2703 0.9380
-12.5251 8.7863 0.2584 0.9406
-12.6803 8.2311 0.2554 0.9413
-12.9069 7.1153 0.2490 0.9427
-14.9327 7.5451 0.2826 0.9353
-18.1700 8.3747 0.3380 0.9231
-10.6095 3.9929 0.1915 0.9557
-11.2227 13.1283 -0.0972 0.9332
-11.8584 11.1717 -0.0917 0.9369
-12.2022 9.9415 -0.0886 0.9390
-12.5251 8.7863 -0.0861 0.9406
-14.9326 7.5451 -0.0942 0.9353
-23.7139 9.9124 -0.1447 0.9023
-10.6083 3.9925 -0.0638 0.9557
-42.8685 -16.1053 -0.2578 0.8326
-40.3906 -16.8556 -0.2464 0.8394
-11.0820 13.9495 -0.5017 0.9312
-11.2227 13.1283 -0.4863 0.9332
-11.4875 12.4986 -0.4780 0.9343
-11.8584 11.1717 -0.4587 0.9369
-12.5251 8.7863 -0.4308 0.9406
-12.6803 8.2311 -0.4257 0.9413
-12.9069 7.1153 -0.4150 0.9427
-23.7139 9.9124 -0.7237 0.9023
-39.3598 -11.6360 -1.1557 0.8485
-37.2602 -12.4888 -1.1065 0.8545
-42.8685 -16.1054 -1.2895 0.8326
-40.7298 -16.9972 -1.2427 0.8381
-11.0820 13.9495 -0.9035 0.9311
-11.6767 11.8215 -0.8427 0.9356
-12.2022 9.9415 -0.7982 0.9389
-12.5251 8.7862 -0.7759 0.9406
-12.7559 7.6427 -0.7541 0.9422
-14.9326 7.5451 -0.8485 0.9352
-10.6059 3.9916 -0.5747 0.9556
-27.4129 9.2059 -1.4665 0.8906
-27.7263 8.2142 -1.4665 0.8906
-31.4066 5.7190 -1.6190 0.8800
-31.5919 4.5860 -1.6190 0.8800
-3.0946 0.3361 -0.1579 0.9876
-2.9345 0.0008 -0.1488 0.9883
-3.0894 -0.3337 -0.1576 0.9876
-31.4096 -5.7008 -1.6189 0.8800
-30.2675 -10.1450 -1.6189 0.8800
-29.8831 -11.2268 -1.6189 0.8800
-28.9988 -13.3454 -1.6189 0.8800
-11.0820 13.9495 -1.3063 0.9310
-11.4875 12.4986 -1.2447 0.9342
-11.8584 11.1717 -1.1946 0.9367
-12.0333 10.5460 -1.1732 0.9378
-12.2022 9.9415 -1.1540 0.9388
-12.7559 7.6427 -1.0903 0.9421
-12.9069 7.1153 -1.0806 0.9426
-18.4530 7.7133 -1.4665 0.9229
-10.5444 3.9684 -0.8261 0.9558
-18.9596 6.3671 -1.4665 0.9229
-19.1763 5.6812 -1.4665 0.9229
-2.4697 0.4497 -0.1841 0.9900
-2.4307 0.3529 -0.1801 0.9902
-2.4089 0.1743 -0.1771 0.9904
-2.4089 -0.1729 -0.1771 0.9904
-21.3843 -5.4940 -1.6189 0.9153
-20.0566 -9.2302 -1.6189 0.9153
-9.5010 11.9595 -1.4664 0.9405
-9.9250 11.6102 -1.4664 0.9405
-11.4871 10.0673 -1.4664 0.9405
-11.8417 9.6477 -1.4664 0.9405
-12.1810 9.2157 -1.4664 0.9405
-12.5045 8.7717 -1.4664 0.9405
-12.6803 8.2311 -1.4514 0.9411
-12.7559 7.6427 -1.4276 0.9420
-12.9069 7.1153 -1.4149 0.9425
-14.4798 4.8627 -1.4664 0.9405
-2.2686 0.6721 -0.2272 0.9905
-2.2344 0.5754 -0.2215 0.9908
-2.2082 0.4847 -0.2170 0.9910
-2.1569 0.2343 -0.2083 0.9913
-2.1560 0.1560 -0.2075 0.9914
-2.1538 0.0781 -0.2069 0.9914
-2.1504 0.0006 -0.2065 0.9914
-2.1538 -0.0769 -0.2069 0.9914
-2.1812 -0.3959 -0.2128 0.9911
-15.9877 -5.3587 -1.6188 0.9345
-15.7846 -5.9302 -1.6188 0.9345
-15.3176 -7.0493 -1.6188 0.9345
-8.0214 9.3834 -1.4664 0.9515
-8.3537 9.0889 -1.4664 0.9515
-8.6751 8.7827 -1.4664 0.9515
-10.1062 7.0894 -1.4664 0.9515
-10.5896 6.3447 -1.4664 0.9515
-10.8109 5.9598 -1.4664 0.9515
-11.0183 5.5672 -1.4664 0.9515
-11.7026 3.9300 -1.4664 0.9515
-2.0360 0.4470 -0.2476 0.9916
-2.0087 0.2182 -0.2400 0.9919
-2.0053 0.1451 -0.2388 0.9919
-2.0013 0.0726 -0.2379 0.9920
-1.9957 0.0006 -0.2371 0.9920
-2.0013 -0.0714 -0.2379 0.9920
-2.0053 -0.1439 -0.2388 0.9919
-2.0358 -0.4456 -0.2475 0.9916
-12.5767 -5.2484 -1.6188 0.9466
-12.3798 -5.6973 -1.6188 0.9466
-6.4375 8.1033 -1.4664 0.9591
-7.2728 7.3629 -1.4664 0.9591
-8.6808 5.6349 -1.4664 0.9591
-8.8778 5.3191 -1.4664 0.9591
-9.0633 4.9964 -1.4664 0.9591
-9.3990 4.3321 -1.4664 0.9591
-9.5487 3.9913 -1.4664 0.9591
-1.9744 0.6630 -0.2951 0.9916
-1.9608 0.5809 -0.2898 0.9918
-1.9470 0.5014 -0.2849 0.9919
-1.9339 0.4245 -0.2805 0.9920
-1.9224 0.3501 -0.2769 0.9921
-1.9174 0.2083 -0.2733 0.9922
-1.9146 0.1385 -0.2720 0.9923
-1.9103 0.0693 -0.2708 0.9923
-1.9041 0.0006 -0.2698 0.9923
-1.9101 -0.0682 -0.2708 0.9923
-1.9173 -0.2071 -0.2732 0.9922
-1.9195 -0.2775 -0.2748 0.9922
-1.9606 -0.5796 -0.2897 0.9918
-1.9742 -0.6617 -0.2950 0.9916
-10.6950 -4.0180 -1.6188 0.9549
-10.5436 -4.4000 -1.6188 0.9549
-10.3786 -4.7763 -1.6188 0.9549
-5.7838 6.7659 -1.4664 0.9646
-6.6941 5.8668 -1.4664 0.9646
-7.0985 5.3705 -1.4664 0.9646
-7.4661 4.8464 -1.4664 0.9646
-7.7951 4.2973 -1.4664 0.9646
-7.9446 4.0142 -1.4664 0.9646
-8.0838 3.7259 -1.4664 0.9646
-8.2126 3.4329 -1.4664 0.9646
-1.8737 0.6292 -0.3256 0.9920
-1.8334 0.1991 -0.3038 0.9926
-1.8305 0.1324 -0.3023 0.9926
-1.8435 -0.4036 -0.3109 0.9924
-1.8624 -0.5506 -0.3199 0.9922
-9.0683 -3.7843 -1.6188 0.9609
-8.9264 -4.1080 -1.6188 0.9609
-4.8527 6.1084 -1.4664 0.9687
-5.0692 5.9299 -1.4664 0.9687
-5.6784 5.3496 -1.4664 0.9687
-6.2215 4.7070 -1.4664 0.9687
-6.5437 4.2476 -1.4664 0.9687
-6.6922 4.0096 -1.4664 0.9687
-6.9631 3.5183 -1.4664 0.9687
-7.0851 3.2656 -1.4664 0.9687
-1.7906 0.6739 -0.3596 0.9922
-1.7822 0.5985 -0.3534 0.9924
-1.7757 0.5261 -0.3481 0.9925
-1.7686 0.4554 -0.3433 0.9926
-1.7575 0.3200 -0.3358 0.9928
-1.7555 0.1907 -0.3319 0.9928
-1.7519 0.1267 -0.3301 0.9929
-1.7554 -0.1896 -0.3319 0.9928
-1.7575 -0.3190 -0.3357 0.9928
-1.7756 -0.5249 -0.3480 0.9925
-7.9479 -3.3168 -1.6188 0.9656
-4.5076 5.2730 -1.4663 0.9720
-5.2170 4.5722 -1.4664 0.9720
-5.5321 4.1855 -1.4664 0.9720
-6.5248 3.2968 -1.5453 0.9706
-1.7111 0.7152 -0.3920 0.9924
-1.7018 0.5715 -0.3795 0.9927
-1.6909 0.4355 -0.3691 0.9929
-1.6844 0.3698 -0.3645 0.9930
-1.6845 0.2445 -0.3598 0.9931
-1.6822 0.1827 -0.3577 0.9931
-1.6706 0.0005 -0.3531 0.9932
-1.6791 -0.1205 -0.3558 0.9931
-1.6908 -0.4344 -0.3690 0.9929
-1.7017 -0.5704 -0.3794 0.9927
-1.7060 -0.6409 -0.3852 0.9926
-1.7110 -0.7140 -0.3919 0.9924
-6.9567 -3.2015 -1.6188 0.9692
-3.8810 4.8852 -1.4663 0.9747
-4.0541 4.7425 -1.4663 0.9747
-4.3845 4.4389 -1.4663 0.9747
-4.9756 3.7644 -1.4664 0.9747
-6.0076 3.3119 -1.6123 0.9722
-6.2548 2.8829 -1.6187 0.9721
-1.6328 0.6825 -0.4159 0.9928
-1.6306 0.6137 -0.4095 0.9929
-1.6170 0.2945 -0.3863 0.9933
-1.6161 0.2346 -0.3838 0.9933
-1.6116 0.1166 -0.3798 0.9934
-1.6039 0.0005 -0.3770 0.9934
-1.6081 -0.0574 -0.3782 0.9934
-1.6115 -0.1157 -0.3797 0.9934
-1.6142 -0.1744 -0.3816 0.9934
-1.6160 -0.2336 -0.3838 0.9933
-1.6170 -0.2935 -0.3862 0.9933
-1.6162 -0.3538 -0.3888 0.9932
-1.6237 -0.4800 -0.3979 0.9931
-1.6306 -0.6126 -0.4094 0.9929
-1.6328 -0.6814 -0.4158 0.9928
-6.2569 -2.8794 -1.6188 0.9721
-3.5228 4.4344 -1.4663 0.9769
-3.6800 4.3048 -1.4663 0.9769
-3.8324 4.1697 -1.4663 0.9769
-5.0781 3.5623 -1.6061 0.9747
-5.2266 3.3927 -1.6134 0.9746
-5.3540 3.2079 -1.6160 0.9745
-1.5689 0.6558 -0.4403 0.9930
-1.5600 0.5239 -0.4261 0.9932
-1.5523 0.2253 -0.4061 0.9935
-1.5509 0.1684 -0.4039 0.9936
-1.5456 0.0561 -0.4004 0.9936
-1.5523 -0.2244 -0.4061 0.9935
-1.5528 -0.2818 -0.4086 0.9935
-1.5525 -0.3989 -0.4150 0.9934
-1.5562 -0.4600 -0.4202 0.9933
-1.5600 -0.5229 -0.4260 0.9932
-1.5688 -0.6547 -0.4402 0.9930
-3.2220 4.0557 -1.4663 0.9787
-3.4022 3.9799 -1.4822 0.9785
-3.6047 3.9220 -1.5080 0.9781
-3.8144 3.8617 -1.5366 0.9777
-4.0354 3.8017 -1.5695 0.9772
-4.5496 3.4421 -1.6151 0.9766
-4.7962 3.1133 -1.6187 0.9765
-1.6559 0.9921 -0.5465 0.9920
-1.5122 0.6970 -0.4714 0.9931
-1.5070 0.5671 -0.4558 0.9933
-1.5032 0.5048 -0.4489 0.9934
-1.4939 0.3847 -0.4367 0.9936
-1.4944 0.2169 -0.4275 0.9937
-1.4911 0.1079 -0.4232 0.9938
-1.4883 0.0540 -0.4216 0.9938
-1.4911 -0.1070 -0.4232 0.9938
-1.4950 -0.2713 -0.4301 0.9937
-1.4939 -0.3838 -0.4366 0.9936
-1.4987 -0.4431 -0.4424 0.9935
-1.5032 -0.5038 -0.4488 0.9934
-1.5099 -0.6301 -0.4632 0.9932
-1.5121 -0.6959 -0.4712 0.9931
-3.1910 4.0167 -1.5779 0.9788
-3.8221 3.6008 -1.6151 0.9783
-4.0801 3.3242 -1.6187 0.9782
-4.1970 3.1753 -1.6187 0.9782
-4.3085 3.0224 -1.6187 0.9782
-4.4144 2.8655 -1.6187 0.9782
-1.5112 0.9054 -0.5419 0.9927
-1.6307 0.8990 -0.5727 0.9922
-1.4546 0.6080 -0.4849 0.9934
-1.4525 0.5467 -0.4774 0.9935
-1.4454 0.3173 -0.4552 0.9938
-1.4460 0.2633 -0.4521 0.9939
-1.4457 0.2099 -0.4493 0.9939
-1.4447 0.1569 -0.4470 0.9939
-1.4429 0.1044 -0.4450 0.9940
-1.4404 0.0522 -0.4433 0.9940
-1.4429 -0.1036 -0.4449 0.9940
-1.4447 -0.1561 -0.4469 0.9939
-1.4457 -0.2090 -0.4493 0.9939
-1.4454 -0.3164 -0.4551 0.9938
-1.4463 -0.4276 -0.4639 0.9937
-1.4546 -0.6070 -0.4848 0.9934
-3.1597 3.6962 -1.6164 0.9797
-3.2932 3.5831 -1.6177 0.9797
-3.4222 3.4646 -1.6187 0.9797
-3.5446 3.3393 -1.6187 0.9797
-3.7754 3.0759 -1.6187 0.9797
-3.8836 2.9382 -1.6187 0.9797
-1.6307 0.8990 -0.6190 0.9922
-1.4027 0.6465 -0.5134 0.9935
-1.4024 0.5862 -0.5053 0.9936
-1.3972 0.4139 -0.4844 0.9939
-1.3987 0.1519 -0.4677 0.9941
-1.3920 0.0505 -0.4630 0.9941
-1.3835 0.0004 -0.4599 0.9942
-1.3971 -0.1003 -0.4656 0.9941
-1.3994 -0.2023 -0.4700 0.9941
-1.3986 -0.3062 -0.4759 0.9940
-1.4012 -0.5264 -0.4976 0.9937
-1.4024 -0.5853 -0.5051 0.9936
-1.4028 -0.6456 -0.5133 0.9935
-2.9413 3.4407 -1.6187 0.9810
-3.0631 3.3327 -1.6187 0.9810
-3.4042 2.9835 -1.6187 0.9810
-3.5093 2.8592 -1.6187 0.9810
-3.6099 2.7311 -1.6187 0.9810
-3.7057 2.5995 -1.6187 0.9810
-3.7968 2.4646 -1.6187 0.9810
-1.3514 0.6828 -0.5414 0.9936
-1.3532 0.5656 -0.5245 0.9938
-1.3522 0.4541 -0.5101 0.9940
-1.3506 0.4001 -0.5037 0.9940
-1.3521 0.3482 -0.4993 0.9941
-1.3551 0.2467 -0.4926 0.9942
-1.3554 0.1967 -0.4898 0.9942
-1.3371 0.0004 -0.4782 0.9943
-1.3548 -0.1464 -0.4873 0.9942
-1.3554 -0.1960 -0.4897 0.9942
-1.3551 -0.2459 -0.4925 0.9942
-1.3522 -0.3474 -0.4993 0.9941
-1.3506 -0.3993 -0.5036 0.9940
-1.3522 -0.4532 -0.5100 0.9940
-1.3530 -0.5083 -0.5169 0.9939
-2.7447 3.2108 -1.6187 0.9821
-2.8584 3.1100 -1.6187 0.9821
-2.9684 3.0052 -1.6187 0.9821
-3.0746 2.8965 -1.6187 0.9821
-3.2748 2.6681 -1.6187 0.9821
-3.3686 2.5486 -1.6187 0.9821
-3.4581 2.4258 -1.6187 0.9821
-1.3003 0.7168 -0.5690 0.9937
-1.3033 0.6585 -0.5596 0.9938
-1.3054 0.6017 -0.5508 0.9939
-1.3075 0.4921 -0.5354 0.9940
-1.3065 0.3871 -0.5222 0.9942
-1.3129 0.1426 -0.5061 0.9944
-1.3005 0.0472 -0.4987 0.9944
-1.3129 -0.1418 -0.5060 0.9944
-1.3134 -0.1899 -0.5085 0.9943
-1.3116 -0.2871 -0.5145 0.9943
-1.3095 -0.3364 -0.5181 0.9942
-1.3073 -0.4382 -0.5284 0.9941
-1.3054 -0.6008 -0.5507 0.9939
-2.6765 2.9120 -1.6187 0.9831
-2.9745 2.6068 -1.6187 0.9831
-3.0663 2.4982 -1.6187 0.9831
-3.1541 2.3863 -1.6187 0.9831
-3.2379 2.2713 -1.6187 0.9831
-3.3175 2.1535 -1.6187 0.9831
-1.2495 0.7486 -0.5961 0.9937
-1.2542 0.6914 -0.5861 0.9938
-1.2609 0.5812 -0.5682 0.9940
-1.2646 0.4247 -0.5460 0.9943
-1.2655 0.3749 -0.5402 0.9943
-1.2710 0.2790 -0.5326 0.9944
-1.2725 0.2317 -0.5294 0.9944
-1.2732 0.1848 -0.5266 0.9945
-1.2581 0.0456 -0.5152 0.9946
-1.2656 -0.3741 -0.5401 0.9943
-1.2610 -0.5803 -0.5681 0.9940
-2.3104 2.9082 -1.6187 0.9839
-2.5134 2.7346 -1.6187 0.9839
-2.7035 2.5469 -1.6187 0.9839
-2.7933 2.4481 -1.6187 0.9839
-2.8796 2.3460 -1.6187 0.9839
-2.9621 2.2410 -1.6187 0.9839
-1.2504 0.8117 -0.6497 0.9935
-1.2052 0.7221 -0.6123 0.9939
-1.2106 0.6674 -0.6024 0.9940
-1.2213 0.5105 -0.5769 0.9942
-1.2231 0.4603 -0.5695 0.9943
-1.2263 0.3633 -0.5574 0.9944
-1.2297 0.3167 -0.5534 0.9945
-1.2322 0.1789 -0.5427 0.9946
-1.2322 -0.1781 -0.5426 0.9946
-1.2297 -0.3159 -0.5533 0.9945
-1.2264 -0.3625 -0.5573 0.9944
-1.2239 -0.4102 -0.5626 0.9944
-1.2231 -0.4595 -0.5694 0.9943
-1.2188 -0.5609 -0.5847 0.9942
-2.1753 2.7382 -1.6187 0.9847
-2.2724 2.6582 -1.6187 0.9847
-2.4575 2.4880 -1.6187 0.9847
-2.6300 2.3049 -1.6187 0.9847
-2.8629 2.0083 -1.6187 0.9847
-1.1694 0.6447 -0.6181 0.9941
-1.1785 0.5432 -0.6007 0.9943
-1.1816 0.4939 -0.5928 0.9944
-1.1837 0.4455 -0.5854 0.9944
-1.1850 0.3979 -0.5786 0.9945
-1.1888 0.3522 -0.5739 0.9945
-1.1923 0.3071 -0.5699 0.9946
-1.1952 0.2176 -0.5623 0.9947
-1.1842 0.0857 -0.5496 0.9948
-1.1790 0.0428 -0.5461 0.9948
-1.1730 0.0004 -0.5430 0.9948
-1.1842 -0.0850 -0.5495 0.9948
-1.1922 -0.1724 -0.5576 0.9947
-1.1951 -0.2169 -0.5622 0.9947
-1.1950 -0.2616 -0.5663 0.9946
-1.1924 -0.3063 -0.5698 0.9946
-1.1889 -0.3515 -0.5738 0.9946
-1.1837 -0.4447 -0.5853 0.9944
-1.1816 -0.4931 -0.5927 0.9944
-1.1785 -0.5424 -0.6005 0.9943
-2.0527 2.5839 -1.6187 0.9854
-2.3190 2.3478 -1.6187 0.9854
-2.4020 2.2629 -1.6187 0.9854
-1.1075 0.7769 -0.6636 0.9940
-1.1162 0.7246 -0.6528 0.9941
-1.1238 0.6733 -0.6426 0.9942
-1.1356 0.5738 -0.6241 0.9943
-1.1400 0.5255 -0.6158 0.9944
-1.1460 0.4313 -0.6007 0.9946
-1.1482 0.3856 -0.5942 0.9946
-1.1528 0.3415 -0.5898 0.9947
-1.1564 0.2978 -0.5858 0.9947
-1.1541 0.1675 -0.5721 0.9948
-1.1509 0.1250 -0.5678 0.9949
-1.1468 0.0830 -0.5640 0.9949
-1.1420 0.0414 -0.5606 0.9949
-1.1468 -0.0823 -0.5640 0.9949
-1.1508 -0.1243 -0.5678 0.9949
-1.1541 -0.1669 -0.5720 0.9948
-1.1436 -0.4772 -0.6078 0.9945
-1.1401 -0.5247 -0.6156 0.9944
-2.0275 2.3718 -1.6187 0.9860
-2.1115 2.2973 -1.6187 0.9860
-2.1927 2.2199 -1.6187 0.9860
-2.2711 2.1396 -1.6187 0.9860
-1.0985 0.5551 -0.6385 0.9945
-1.1033 0.5085 -0.6302 0.9945
-1.1071 0.4628 -0.6225 0.9946
-1.1181 0.3313 -0.6050 0.9948
-1.1175 0.1622 -0.5858 0.9949
-1.1110 0.0804 -0.5778 0.9950
-1.1064 -0.0395 -0.5744 0.9950
-1.1109 -0.0797 -0.5778 0.9950
-1.1182 -0.3306 -0.6049 0.9948
-1.1136 -0.3733 -0.6093 0.9947
-1.1033 -0.5078 -0.6301 0.9945
-1.8384 2.3141 -1.6187 0.9866
-2.0769 2.1027 -1.6187 0.9866
-0.9991 0.8756 -0.7276 0.9940
-0.9870 0.8042 -0.6973 0.9942
-1.0078 0.7069 -0.6742 0.9944
-1.0629 0.5371 -0.6523 0.9946
-1.0721 0.4481 -0.6364 0.9947
-1.0844 0.3213 -0.6194 0.9949
-1.0852 0.2795 -0.6137 0.9949
-1.0824 0.1571 -0.5990 0.9950
-1.0798 0.1173 -0.5949 0.9951
-1.0765 0.0779 -0.5911 0.9951
-1.0724 0.0389 -0.5877 0.9951
-1.0675 0.0003 -0.5847 0.9951
-1.0764 -0.0772 -0.5911 0.9951
-1.0798 -0.1167 -0.5948 0.9951
-1.0824 -0.1565 -0.5990 0.9950
-1.0841 -0.1968 -0.6035 0.9950
-1.0851 -0.2375 -0.6084 0.9949
-1.0852 -0.2788 -0.6137 0.9949
-1.0753 -0.4040 -0.6291 0.9948
-1.0721 -0.4474 -0.6363 0.9947
-1.0681 -0.4915 -0.6440 0.9947
-1.7440 2.1953 -1.6187 0.9871
-1.8218 2.1312 -1.6187 0.9871
-1.9703 1.9947 -1.6187 0.9871
-0.9267 0.8122 -0.7115 0.9943
-0.9617 0.6746 -0.6782 0.9946
-0.9973 0.5975 -0.6712 0.9946
-1.0276 0.5192 -0.6647 0.9947
-1.0421 0.3922 -0.6429 0.9949
-1.0475 0.3518 -0.6380 0.9949
-1.0505 0.2705 -0.6263 0.9950
-1.0507 0.2306 -0.6211 0.9950
-1.0500 0.1912 -0.6162 0.9951
-1.0486 0.1522 -0.6118 0.9951
-1.0463 0.1137 -0.6077 0.9952
-1.0433 0.0755 -0.6039 0.9952
-1.0500 -0.1906 -0.6161 0.9951
-1.0505 -0.2699 -0.6262 0.9950
-1.0494 -0.3103 -0.6318 0.9950
-1.0475 -0.3511 -0.6379 0.9949
-1.0422 -0.3915 -0.6428 0.9949
-1.0385 -0.4334 -0.6497 0.9948
-1.0342 -0.4759 -0.6573 0.9948
