ply
format ascii 1.0
element vertex 470
property float32 x
property float32 y
property float32 z
property float32 I
end_header
-19.4020 9.4030 3.8017 0.9162
-24.5232 10.8171 4.7261 0.8969
-25.3791 5.1519 4.5663 0.9002
-40.1597 -19.1610 7.8459 0.8347
-35.2443 -18.3949 7.0101 0.8509
-36.5026 -20.7497 7.4036 0.8432
-34.8618 -21.5061 7.2226 0.8467
-15.9565 8.4526 2.7662 0.9295
-19.4058 9.4048 3.3036 0.9164
-24.5236 10.8173 4.1061 0.8972
-25.3776 5.1516 3.9670 0.9005
-36.6025 -19.1038 6.3251 0.8461
-34.1998 -22.8298 6.2993 0.8467
-34.1732 -24.6278 6.4530 0.8433
-14.6869 7.7800 2.1643 0.9352
-24.4126 10.7683 3.4746 0.8980
-34.7610 13.8666 4.8735 0.8599
-36.8194 -17.5672 5.3124 0.8483
-35.7041 -20.2957 5.3481 0.8473
-34.5496 -23.0634 5.4094 0.8457
-37.0092 -26.6716 5.9405 0.8319
-24.5240 10.8175 2.8782 0.8978
-36.3779 -18.9866 4.4064 0.8478
-36.6356 -20.8252 4.5252 0.8441
-35.5011 -23.6985 4.5835 0.8422
-17.6867 8.5717 1.6638 0.9241
-25.3735 5.1507 2.1917 0.9013
-36.7208 -24.5127 3.7375 0.8376
-17.6867 8.5717 1.2188 0.9243
-37.6492 15.0187 2.5135 0.8501
-20.7398 9.1483 0.8938 0.9133
-25.3683 5.1497 1.0207 0.9016
-13.1587 6.9705 0.2515 0.9422
-16.4099 7.9529 0.3080 0.9296
-20.7399 9.1483 0.3829 0.9133
-27.8629 11.1148 0.5067 0.8869
-25.3655 5.1491 0.4372 0.9016
-40.0505 -28.8634 0.8339 0.8208
-13.1587 6.9705 -0.0838 0.9422
-16.4098 7.9529 -0.1027 0.9297
-20.7399 9.1483 -0.1276 0.9133
-27.8629 11.1148 -0.1689 0.8869
-25.3627 5.1486 -0.1457 0.9017
-39.3716 -17.0802 -0.2416 0.8423
-37.1948 -17.7463 -0.2320 0.8480
-33.1858 -18.8642 -0.2149 0.8584
-31.4269 -19.3871 -0.2079 0.8627
-32.3160 -23.2893 -0.2243 0.8527
-32.9576 -25.5957 -0.2349 0.8463
-20.7399 9.1483 -0.6383 0.9133
-27.8629 11.1148 -0.8447 0.8869
-37.6826 -17.9791 -1.1756 0.8461
-32.3373 -23.3046 -1.1224 0.8526
-33.8232 -28.2689 -1.2412 0.8383
-16.4099 7.9529 -0.9248 0.9296
-27.5670 8.7651 -1.4670 0.8906
-28.1245 6.7674 -1.4670 0.8906
-25.2537 5.1264 -1.3068 0.9019
-31.5034 5.2269 -1.6195 0.8799
-31.6707 4.0941 -1.6195 0.8799
-2.9864 0.2776 -0.1521 0.9881
-2.9690 0.1689 -0.1508 0.9882
-2.9483 0.0619 -0.1496 0.9883
-2.9444 -0.0438 -0.1493 0.9883
-2.9657 -0.1506 -0.1506 0.9882
-31.6948 -3.9006 -1.6195 0.8799
-31.5346 -5.0343 -1.6195 0.8799
-30.8113 -8.3909 -1.6195 0.8799
-30.4905 -9.4900 -1.6195 0.8799
-29.7317 -11.6503 -1.6194 0.8799
-27.5446 -14.3763 -1.5757 0.8830
-25.9758 -14.7658 -1.5153 0.8872
-24.0569 -16.0591 -1.4669 0.8906
-13.1587 6.9705 -1.0918 0.9420
-18.3027 8.0733 -1.4667 0.9229
-19.0640 6.0616 -1.4668 0.9229
-2.5499 0.6136 -0.1923 0.9895
-2.4511 0.4067 -0.1822 0.9901
-2.4150 0.3122 -0.1785 0.9903
-2.4097 0.2240 -0.1774 0.9903
-2.4080 0.1370 -0.1769 0.9904
-2.4036 -0.0358 -0.1763 0.9904
-2.4075 -0.1222 -0.1768 0.9904
-2.4895 -0.4896 -0.1860 0.9899
-2.5410 -0.5950 -0.1914 0.9896
-20.5611 -8.0568 -1.6192 0.9152
-19.9307 -9.5093 -1.6192 0.9152
-18.7941 -11.5940 -1.6191 0.9152
-18.3662 -12.2603 -1.6191 0.9152
-17.9147 -12.9107 -1.6191 0.9152
-17.4402 -13.5445 -1.6191 0.9152
-16.9433 -14.1610 -1.6191 0.9152
-13.7471 6.6624 -1.4666 0.9405
-10.7272 3.8394 -1.0939 0.9552
-14.5585 4.6290 -1.4666 0.9405
-2.2518 0.6281 -0.2244 0.9906
-2.1698 0.3600 -0.2112 0.9912
-2.1569 0.2788 -0.2088 0.9913
-2.1566 0.2005 -0.2079 0.9913
-2.1548 -0.1094 -0.2071 0.9914
-2.1652 -0.3457 -0.2105 0.9912
-2.2455 -0.6115 -0.2234 0.9907
-15.9125 -5.5859 -1.6191 0.9345
-15.7019 -6.1528 -1.6191 0.9345
-15.2205 -7.2620 -1.6190 0.9345
-14.9503 -7.8030 -1.6190 0.9345
-14.6609 -8.3339 -1.6190 0.9345
-13.3187 -10.3437 -1.6190 0.9345
-12.9393 -10.8145 -1.6190 0.9345
-10.9099 5.7792 -1.4665 0.9515
-11.1101 5.3844 -1.4665 0.9515
-11.2961 4.9827 -1.4666 0.9515
-10.6842 3.8240 -1.3480 0.9553
-2.0783 0.6608 -0.2591 0.9913
-2.0037 0.1140 -0.2384 0.9919
-1.9995 0.0420 -0.2376 0.9920
-1.9985 -0.0297 -0.2374 0.9920
-2.0030 -0.1017 -0.2382 0.9920
-2.0099 -0.2474 -0.2406 0.9919
-2.0591 -0.5608 -0.2535 0.9914
-2.0756 -0.6460 -0.2582 0.9913
-12.6899 -4.9725 -1.6190 0.9466
-12.5035 -5.4242 -1.6190 0.9466
-11.8486 -6.7353 -1.6190 0.9466
-11.5995 -7.1557 -1.6189 0.9466
-11.0568 -7.9684 -1.6189 0.9466
-10.7640 -8.3596 -1.6189 0.9466
-10.4573 -8.7401 -1.6189 0.9466
-9.4698 4.1771 -1.4665 0.9590
-9.6135 3.8349 -1.4665 0.9590
-1.9683 0.6258 -0.2926 0.9917
-1.9547 0.5452 -0.2875 0.9918
-1.9407 0.4670 -0.2828 0.9920
-1.9289 0.3916 -0.2789 0.9921
-1.9204 0.3186 -0.2758 0.9922
-1.9162 0.1781 -0.2727 0.9923
-1.9077 0.0400 -0.2704 0.9923
-1.9067 -0.0284 -0.2702 0.9923
-1.9126 -0.0971 -0.2713 0.9923
-1.9158 -0.1663 -0.2725 0.9923
-1.9183 -0.2361 -0.2739 0.9922
-1.9202 -0.3065 -0.2755 0.9922
-1.9270 -0.3789 -0.2783 0.9921
-1.9523 -0.5317 -0.2867 0.9919
-10.6383 -4.1686 -1.6189 0.9549
-10.4820 -4.5473 -1.6189 0.9549
-9.9330 -5.6464 -1.6189 0.9549
-9.5028 -6.3436 -1.6189 0.9549
-8.1446 3.5925 -1.4665 0.9646
-8.2682 3.2982 -1.4665 0.9646
-1.8578 0.5182 -0.3177 0.9922
-1.8325 0.1704 -0.3032 0.9926
-1.8285 0.1040 -0.3017 0.9926
-1.8233 0.0383 -0.3004 0.9926
-1.8223 -0.0271 -0.3002 0.9926
-1.8276 -0.0928 -0.3015 0.9926
-1.8321 -0.1591 -0.3030 0.9926
-1.8342 -0.2257 -0.3044 0.9925
-1.8354 -0.2930 -0.3062 0.9925
-1.8473 -0.4326 -0.3126 0.9923
-1.8563 -0.5055 -0.3169 0.9922
-1.8669 -0.5811 -0.3221 0.9921
-1.8778 -0.6592 -0.3278 0.9920
-9.1496 -3.5852 -1.6189 0.9609
-9.0151 -3.9109 -1.6189 0.9609
-8.7117 -4.5468 -1.6189 0.9609
-6.8942 3.6520 -1.4664 0.9687
-7.2418 3.1943 -1.4877 0.9683
-1.7794 0.5658 -0.3510 0.9924
-1.7726 0.4944 -0.3459 0.9925
-1.7652 0.4247 -0.3413 0.9926
-1.7574 0.2916 -0.3348 0.9928
-1.7567 0.2271 -0.3329 0.9928
-1.7501 0.0996 -0.3295 0.9929
-1.7446 -0.0259 -0.3279 0.9929
-1.7493 -0.0888 -0.3292 0.9929
-1.7534 -0.1522 -0.3308 0.9929
-1.7565 -0.2162 -0.3327 0.9928
-1.7573 -0.2805 -0.3345 0.9928
-1.7574 -0.3456 -0.3366 0.9927
-1.7639 -0.4130 -0.3405 0.9927
-1.7783 -0.5535 -0.3501 0.9924
-1.7854 -0.6268 -0.3557 0.9923
-7.9012 -3.4277 -1.6188 0.9656
-7.7732 -3.7088 -1.6188 0.9656
-7.6353 -3.9850 -1.6188 0.9656
-7.4875 -4.2562 -1.6188 0.9656
-7.3300 -4.5219 -1.6188 0.9656
-6.8021 -5.2827 -1.6188 0.9656
-6.7167 3.2552 -1.5777 0.9699
-1.7084 0.6815 -0.3888 0.9925
-1.7042 0.6100 -0.3826 0.9926
-1.6942 0.4725 -0.3718 0.9928
-1.6881 0.4062 -0.3670 0.9929
-1.6845 0.3419 -0.3633 0.9930
-1.6850 0.2796 -0.3610 0.9930
-1.6810 0.1563 -0.3569 0.9931
-1.6769 -0.0851 -0.3549 0.9932
-1.6833 -0.2071 -0.3585 0.9931
-1.6846 -0.3313 -0.3629 0.9930
-1.6870 -0.3951 -0.3663 0.9929
-1.6988 -0.5287 -0.3761 0.9928
-1.7075 -0.6691 -0.3877 0.9925
-6.6578 -3.7846 -1.6188 0.9692
-6.5178 -4.0208 -1.6188 0.9692
-6.2129 -4.4775 -1.6188 0.9692
-5.8761 -4.9112 -1.6188 0.9692
-6.0677 3.2142 -1.6138 0.9722
-1.6294 0.5832 -0.4067 0.9929
-1.6168 0.3282 -0.3877 0.9932
-1.6154 0.2088 -0.3828 0.9933
-1.6065 0.0337 -0.3776 0.9934
-1.6097 -0.0817 -0.3788 0.9934
-1.6150 -0.1988 -0.3824 0.9933
-1.6165 -0.2581 -0.3847 0.9933
-1.6170 -0.3180 -0.3873 0.9933
-1.6210 -0.4415 -0.3949 0.9931
-1.6254 -0.5059 -0.4001 0.9930
-1.6289 -0.5718 -0.4057 0.9929
-1.6316 -0.6393 -0.4118 0.9928
-6.2165 -2.9660 -1.6188 0.9721
-6.1062 -3.1870 -1.6188 0.9721
-5.7287 -3.8241 -1.6188 0.9721
-5.5879 -4.0270 -1.6188 0.9721
-5.5248 2.9266 -1.6188 0.9745
-5.6262 2.7267 -1.6188 0.9745
-1.5627 0.5593 -0.4298 0.9932
-1.5547 0.4336 -0.4179 0.9934
-1.5516 0.3733 -0.4132 0.9934
-1.5527 0.2576 -0.4075 0.9935
-1.5518 0.2006 -0.4051 0.9936
-1.5434 -0.0230 -0.3997 0.9936
-1.5469 -0.0786 -0.4010 0.9936
-1.5496 -0.1345 -0.4027 0.9936
-1.5515 -0.1909 -0.4048 0.9936
-1.5526 -0.2479 -0.4071 0.9935
-1.5528 -0.3054 -0.4098 0.9935
-1.5574 -0.4847 -0.4223 0.9933
-1.5619 -0.5483 -0.4286 0.9932
-1.5664 -0.6138 -0.4356 0.9931
-1.5703 -0.6812 -0.4432 0.9930
-5.6428 -2.6923 -1.6188 0.9745
-5.1999 -3.4712 -1.6188 0.9745
-5.0721 -3.6554 -1.6188 0.9745
-4.9378 -3.8348 -1.6188 0.9745
-4.7972 -4.0094 -1.6188 0.9745
-1.5130 0.7333 -0.4760 0.9930
-1.5054 0.5388 -0.4526 0.9934
-1.5013 0.4774 -0.4460 0.9935
-1.4966 0.4174 -0.4398 0.9936
-1.4944 0.3596 -0.4351 0.9936
-1.4949 0.2480 -0.4290 0.9937
-1.4900 0.0848 -0.4225 0.9938
-1.4869 0.0312 -0.4210 0.9938
-1.4863 -0.0221 -0.4208 0.9938
-1.4938 -0.1838 -0.4261 0.9938
-1.4948 -0.2386 -0.4285 0.9937
-1.4950 -0.2940 -0.4313 0.9937
-1.4946 -0.3500 -0.4345 0.9936
-1.5006 -0.4670 -0.4449 0.9935
-1.5047 -0.5282 -0.4515 0.9934
-1.5082 -0.5910 -0.4586 0.9933
-1.5108 -0.6554 -0.4662 0.9932
-4.7558 -3.1747 -1.6188 0.9765
-4.6390 -3.3432 -1.6188 0.9765
-4.5161 -3.5073 -1.6188 0.9765
-4.6507 2.4636 -1.6188 0.9782
-1.4561 0.7057 -0.4977 0.9933
-1.4514 0.5195 -0.4741 0.9936
-1.4483 0.4605 -0.4674 0.9937
-1.4448 0.4030 -0.4614 0.9937
-1.4458 0.2935 -0.4538 0.9938
-1.4454 0.1868 -0.4483 0.9939
-1.4440 0.1342 -0.4461 0.9939
-1.4377 0.0302 -0.4423 0.9940
-1.4459 -0.2308 -0.4504 0.9939
-1.4458 -0.2843 -0.4532 0.9939
-1.4450 -0.3384 -0.4565 0.9938
-1.4442 -0.3933 -0.4604 0.9938
-1.4476 -0.4506 -0.4663 0.9937
-1.4534 -0.5695 -0.4801 0.9935
-4.2696 -3.0770 -1.6187 0.9782
-4.1566 -3.2281 -1.6187 0.9782
-4.0382 -3.3750 -1.6187 0.9782
-1.4015 0.7424 -0.5272 0.9933
-1.4027 0.6187 -0.5096 0.9936
-1.4020 0.5593 -0.5017 0.9937
-1.3985 0.4447 -0.4878 0.9938
-1.3992 0.1809 -0.4690 0.9941
-1.3981 0.1300 -0.4667 0.9941
-1.3884 0.0291 -0.4616 0.9942
-1.3870 -0.0206 -0.4611 0.9942
-1.3952 -0.0708 -0.4644 0.9941
-1.3979 -0.1213 -0.4664 0.9941
-1.3991 -0.1722 -0.4686 0.9941
-1.3995 -0.2234 -0.4711 0.9940
-1.3992 -0.2751 -0.4740 0.9940
-1.3981 -0.3274 -0.4773 0.9940
-1.3961 -0.3802 -0.4810 0.9939
-1.3982 -0.4352 -0.4868 0.9938
-1.4002 -0.4915 -0.4933 0.9938
-1.4026 -0.6085 -0.5082 0.9936
-4.0503 -2.7037 -1.6187 0.9797
-3.9507 -2.8472 -1.6187 0.9797
-3.8461 -2.9870 -1.6187 0.9797
-1.3502 0.7153 -0.5464 0.9935
-1.3530 0.5968 -0.5288 0.9937
-1.3516 0.4298 -0.5072 0.9940
-1.3507 0.3767 -0.5015 0.9941
-1.3531 0.3256 -0.4977 0.9941
-1.3552 0.1752 -0.4887 0.9942
-1.3544 0.1259 -0.4864 0.9942
-1.3418 0.0282 -0.4799 0.9943
-1.3404 -0.0199 -0.4794 0.9943
-1.3554 -0.2164 -0.4908 0.9942
-1.3547 -0.2664 -0.4938 0.9942
-1.3534 -0.3169 -0.4971 0.9941
-1.3512 -0.3680 -0.5008 0.9941
-1.3526 -0.4748 -0.5126 0.9939
-1.3531 -0.5302 -0.5197 0.9938
-1.3531 -0.5870 -0.5275 0.9938
-1.3506 -0.7049 -0.5448 0.9935
-1.4260 -0.8106 -0.5866 0.9931
-1.5199 -0.9376 -0.6386 0.9924
-3.6723 -2.6465 -1.6187 0.9810
-1.3018 0.6896 -0.5646 0.9937
-1.3079 0.3648 -0.5203 0.9942
-1.3105 0.3153 -0.5165 0.9942
-1.3105 0.1218 -0.5044 0.9944
-1.2975 0.0272 -0.4973 0.9945
-1.2962 -0.0193 -0.4968 0.9945
-1.3095 -0.1137 -0.5037 0.9944
-1.3133 -0.1616 -0.5071 0.9943
-1.3084 -0.3563 -0.5197 0.9942
-1.3075 -0.4590 -0.5310 0.9941
-1.3048 -0.6225 -0.5540 0.9938
-3.5950 -2.2177 -1.6187 0.9821
-3.5132 -2.3452 -1.6187 0.9821
-3.3361 -2.5909 -1.6187 0.9821
-1.2594 0.6104 -0.5728 0.9940
-1.2645 0.4526 -0.5497 0.9942
-1.2645 0.4021 -0.5431 0.9943
-1.2717 0.2582 -0.5311 0.9944
-1.2722 0.1645 -0.5250 0.9945
-1.2673 0.1178 -0.5209 0.9945
-1.2617 0.0718 -0.5172 0.9946
-1.2553 0.0264 -0.5139 0.9946
-1.2606 -0.0640 -0.5166 0.9946
-1.2720 -0.2501 -0.5306 0.9944
-1.2675 -0.3452 -0.5377 0.9943
-1.2644 -0.3935 -0.5420 0.9943
-1.2646 -0.4439 -0.5485 0.9942
-1.2623 -0.5476 -0.5632 0.9941
-1.2599 -0.6011 -0.5713 0.9940
-1.2618 -0.7784 -0.6068 0.9936
-3.2895 -2.1959 -1.6187 0.9831
-3.1237 -2.4259 -1.6187 0.9831
-3.0347 -2.5364 -1.6187 0.9831
-1.2128 0.6425 -0.5981 0.9940
-1.2169 0.5898 -0.5893 0.9941
-1.2200 0.5382 -0.5811 0.9942
-1.2222 0.4876 -0.5735 0.9943
-1.2235 0.4379 -0.5664 0.9943
-1.2241 0.3892 -0.5598 0.9944
-1.2309 0.2962 -0.5518 0.9945
-1.2342 0.2048 -0.5452 0.9946
-1.2210 0.0695 -0.5330 0.9947
-1.2150 0.0255 -0.5297 0.9947
-1.2200 -0.0619 -0.5324 0.9947
-1.2336 -0.1969 -0.5444 0.9946
-1.2313 -0.2883 -0.5511 0.9945
-1.2285 -0.3346 -0.5549 0.9945
-1.2248 -0.3812 -0.5591 0.9944
-1.2237 -0.4296 -0.5652 0.9944
-1.2225 -0.4790 -0.5722 0.9943
-1.2205 -0.5295 -0.5798 0.9942
-1.2175 -0.5809 -0.5879 0.9941
-1.2087 -0.6871 -0.6059 0.9940
-1.1764 0.5702 -0.6051 0.9943
-1.1826 0.4718 -0.5894 0.9944
-1.1936 0.2872 -0.5683 0.9946
-1.1959 0.2428 -0.5649 0.9946
-1.1868 0.1103 -0.5517 0.9948
-1.1821 0.0673 -0.5481 0.9948
-1.1766 0.0247 -0.5447 0.9948
-1.1756 -0.0175 -0.5442 0.9948
-1.1812 -0.0600 -0.5475 0.9948
-1.1861 -0.1030 -0.5511 0.9948
-1.1902 -0.1465 -0.5551 0.9947
-1.1935 -0.1905 -0.5595 0.9947
-1.1960 -0.2352 -0.5642 0.9946
-1.1911 -0.3244 -0.5714 0.9946
-1.1846 -0.4158 -0.5811 0.9945
-1.1805 -0.5121 -0.5956 0.9943
-1.1609 -0.7162 -0.6314 0.9940
-1.1536 -0.7701 -0.6420 0.9939
-2.8370 -2.0446 -1.6187 0.9847
-1.1329 0.6001 -0.6288 0.9943
-1.1378 0.5514 -0.6202 0.9944
-1.1418 0.5036 -0.6121 0.9945
-1.1469 0.4105 -0.5975 0.9946
-1.1504 0.3658 -0.5921 0.9946
-1.1545 0.3220 -0.5879 0.9947
-1.1578 0.2786 -0.5841 0.9947
-1.1576 0.2350 -0.5794 0.9948
-1.1556 0.1917 -0.5746 0.9948
-1.1528 0.1490 -0.5702 0.9948
-1.1492 0.1068 -0.5662 0.9949
-1.1397 0.0239 -0.5592 0.9949
-1.1522 -0.1418 -0.5695 0.9948
-1.1512 -0.3583 -0.5914 0.9946
-1.1472 -0.4027 -0.5964 0.9946
-1.1452 -0.4487 -0.6033 0.9945
-1.1423 -0.4956 -0.6108 0.9945
-1.1280 -0.6412 -0.6365 0.9942
-1.1212 -0.6916 -0.6462 0.9941
-1.1132 -0.7431 -0.6566 0.9941
-2.5320 -2.1162 -1.6187 0.9854
-1.0955 0.5803 -0.6432 0.9944
-1.1085 0.4422 -0.6191 0.9946
-1.1109 0.3976 -0.6121 0.9947
-1.1157 0.3548 -0.6073 0.9947
-1.1199 0.3124 -0.6032 0.9948
-1.1204 0.2274 -0.5931 0.9949
-1.1091 0.0631 -0.5763 0.9950
-1.1044 0.0232 -0.5731 0.9950
-1.1084 -0.0563 -0.5757 0.9950
-1.1159 -0.1373 -0.5833 0.9949
-1.1202 -0.2203 -0.5923 0.9949
-1.1165 -0.3475 -0.6066 0.9947
-1.1058 -0.4797 -0.6253 0.9946
-1.1016 -0.5256 -0.6332 0.9945
-1.0965 -0.5723 -0.6417 0.9944
-1.0833 -0.6683 -0.6603 0.9943
-1.0578 -0.8215 -0.6948 0.9940
-1.0654 0.5163 -0.6484 0.9946
-1.0700 0.4720 -0.6405 0.9947
-1.0823 0.3441 -0.6220 0.9948
-1.0849 0.3026 -0.6169 0.9949
-1.0852 0.2611 -0.6114 0.9949
-1.0848 0.2202 -0.6063 0.9950
-1.0704 0.0225 -0.5864 0.9951
-1.0741 -0.0546 -0.5891 0.9951
-1.0832 -0.1729 -0.6008 0.9950
-1.0846 -0.2133 -0.6054 0.9950
-1.0850 -0.2955 -0.6159 0.9949
-1.0831 -0.3371 -0.6213 0.9948
-1.0742 -0.4209 -0.6319 0.9948
-1.0707 -0.4645 -0.6392 0.9947
-1.0545 -0.5994 -0.6643 0.9945
-0.9799 -0.7610 -0.6795 0.9944
-1.0200 0.5403 -0.6664 0.9947
-1.0362 0.4571 -0.6539 0.9948
-1.0448 0.3739 -0.6407 0.9949
-1.0500 0.2929 -0.6294 0.9950
-1.0505 0.2132 -0.6189 0.9951
-1.0495 0.1741 -0.6142 0.9951
-1.0451 0.0972 -0.6060 0.9952
-1.0377 0.0218 -0.5992 0.9952
-1.0369 -0.0154 -0.5987 0.9952
-1.0493 -0.1675 -0.6135 0.9951
-1.0504 -0.2066 -0.6181 0.9951
-1.0502 -0.2860 -0.6284 0.9950
-1.0488 -0.3264 -0.6342 0.9949
-1.0457 -0.3671 -0.6399 0.9949
-1.0407 -0.4078 -0.6453 0.9949
-1.0369 -0.4499 -0.6526 0.9948
-0.9913 -0.6115 -0.6724 0.9946
-0.9737 -0.6500 -0.6759 0.9946
-0.9347 -0.7259 -0.6833 0.9945
