ply
format ascii 1.0
element vertex 398
property float32 x
property float32 y
property float32 z
property float32 I
end_header
-15.6532 9.0709 3.1900 0.9292
-15.8307 8.4279 3.1623 0.9297
-19.1825 9.3424 3.7622 0.9170
-24.2085 10.7303 4.6691 0.8980
-35.0920 14.0662 6.6662 0.8577
-25.3733 5.1766 4.5662 0.9002
-38.6432 -18.5072 6.5638 0.8408
-14.0738 7.4926 2.0762 0.9377
-19.1862 9.3443 2.7790 0.9175
-34.7522 13.9300 4.8755 0.8598
-25.3706 5.1760 3.3718 0.9008
-36.7376 -17.5946 5.3043 0.8485
-16.1874 9.3805 2.0090 0.9275
-14.3091 7.6178 1.7407 0.9369
-17.1907 8.3724 2.0533 0.9260
-24.2093 10.7306 2.8436 0.8989
-35.3752 14.1797 4.0924 0.8579
-36.2914 -19.0156 4.3996 0.8480
-16.1874 9.3805 1.5838 0.9276
-14.3091 7.6178 1.3723 0.9370
-25.3679 5.1755 2.1917 0.9013
-12.8202 7.4293 0.9188 0.9423
-13.0226 6.9329 0.9148 0.9426
-25.3657 5.1750 1.6053 0.9014
-12.8202 7.4293 0.5843 0.9424
-13.0226 6.9329 0.5817 0.9427
-16.2241 7.9016 0.7116 0.9303
-25.3629 5.1745 1.0207 0.9016
-12.8202 7.4293 0.2503 0.9424
-13.0226 6.9329 0.2492 0.9427
-16.2241 7.9016 0.3048 0.9304
-27.4330 10.9962 0.4992 0.8885
-25.3601 5.1739 0.4372 0.9016
-12.8202 7.4293 -0.0834 0.9425
-13.0226 6.9329 -0.0831 0.9427
-16.2241 7.9016 -0.1016 0.9304
-20.4736 9.0748 -0.1261 0.9143
-27.4330 10.9962 -0.1664 0.8885
-25.3574 5.1733 -0.1457 0.9017
-41.8368 -16.4516 -0.2531 0.8354
-37.1061 -17.7711 -0.2316 0.8483
-34.9506 -18.3131 -0.2222 0.8540
-12.8202 7.4293 -0.4172 0.9424
-13.0226 6.9329 -0.4154 0.9427
-20.4736 9.0748 -0.6306 0.9143
-25.3547 5.1728 -0.7286 0.9016
-47.4680 -14.8225 -1.4003 0.8196
-44.7847 -15.7746 -1.3370 0.8270
-42.0575 -16.5383 -1.2725 0.8346
-37.5574 -17.9872 -1.1726 0.8465
-12.8202 7.4293 -0.7514 0.9424
-13.0226 6.9329 -0.7482 0.9426
-26.8413 10.7590 -1.4665 0.8906
-27.2112 9.7861 -1.4665 0.8906
-27.5458 8.8005 -1.4665 0.8906
-25.2469 5.1508 -1.3068 0.9019
-2.9692 0.1702 -0.1508 0.9882
-2.9657 -0.1505 -0.1506 0.9882
-2.9837 -0.2593 -0.1519 0.9881
-31.6827 -3.9070 -1.6189 0.8800
-31.5216 -5.0446 -1.6189 0.8800
-31.3197 -6.1757 -1.6189 0.8800
-31.0771 -7.2988 -1.6189 0.8800
-30.4715 -9.5151 -1.6189 0.8800
-30.1092 -10.6055 -1.6189 0.8800
-29.7080 -11.6821 -1.6189 0.8800
-13.0226 6.9329 -1.0817 0.9425
-16.2241 7.9016 -1.3232 0.9302
-10.7319 3.8596 -0.8362 0.9553
-19.0515 6.0867 -1.4665 0.9229
-19.2582 5.3972 -1.4665 0.9229
-2.5515 0.6170 -0.1925 0.9895
-2.4157 0.3140 -0.1786 0.9903
-2.4036 -0.0354 -0.1763 0.9904
-2.4095 -0.2094 -0.1773 0.9903
-2.4102 -0.2972 -0.1781 0.9903
-2.4453 -0.3913 -0.1816 0.9901
-2.4902 -0.4910 -0.1861 0.9899
-21.0751 -6.5810 -1.6189 0.9153
-20.2430 -8.8139 -1.6189 0.9153
-19.5565 -10.2471 -1.6188 0.9153
-12.8202 7.4293 -1.4225 0.9422
-13.7324 6.6881 -1.4664 0.9405
-10.7014 3.8486 -1.0918 0.9553
-14.5499 4.6485 -1.4664 0.9405
-2.2237 0.5377 -0.2196 0.9908
-2.1568 0.2804 -0.2088 0.9913
-2.1567 0.2017 -0.2080 0.9913
-2.1552 0.1236 -0.2073 0.9914
-2.1525 0.0458 -0.2067 0.9914
-2.1548 -0.1094 -0.2071 0.9914
-2.1569 -0.2660 -0.2086 0.9913
-2.1655 -0.3466 -0.2105 0.9912
-16.0954 -5.0260 -1.6188 0.9345
-15.9041 -5.6020 -1.6188 0.9345
-15.6922 -6.1707 -1.6188 0.9345
-10.6810 6.1896 -1.4664 0.9515
-10.8968 5.8012 -1.4664 0.9515
-11.2859 5.0024 -1.4664 0.9515
-10.6434 3.8277 -1.3436 0.9555
-2.0790 0.6642 -0.2593 0.9912
-2.0625 0.5780 -0.2544 0.9914
-2.0138 0.3359 -0.2425 0.9918
-2.0038 0.1149 -0.2384 0.9919
-1.9985 -0.0294 -0.2374 0.9920
-2.0260 -0.3995 -0.2453 0.9917
-2.0428 -0.4798 -0.2493 0.9916
-2.0760 -0.6483 -0.2583 0.9913
-12.6825 -4.9872 -1.6188 0.9466
-12.4948 -5.4403 -1.6188 0.9466
-12.0711 -6.3249 -1.6188 0.9466
-9.1354 4.8635 -1.4664 0.9591
-9.3045 4.5315 -1.4664 0.9591
-9.4615 4.1938 -1.4664 0.9591
-9.6063 3.8506 -1.4664 0.9591
-1.9689 0.6290 -0.2929 0.9917
-1.9412 0.4694 -0.2830 0.9920
-1.9292 0.3936 -0.2790 0.9921
-1.9204 0.3203 -0.2759 0.9922
-1.9187 0.2494 -0.2741 0.9922
-1.9163 0.1793 -0.2727 0.9923
-1.9132 0.1097 -0.2715 0.9923
-1.9183 -0.2366 -0.2739 0.9922
-1.9271 -0.3800 -0.2783 0.9921
-1.9664 -0.6140 -0.2919 0.9917
-1.9798 -0.6973 -0.2974 0.9916
-10.6324 -4.1810 -1.6188 0.9549
-10.4750 -4.5609 -1.6188 0.9549
-10.1198 -5.3025 -1.6188 0.9549
-7.8571 4.1829 -1.4664 0.9646
-8.1376 3.6070 -1.4664 0.9646
-1.8800 0.6761 -0.3291 0.9919
-1.8581 0.5207 -0.3179 0.9922
-1.8491 0.4471 -0.3134 0.9923
-1.8396 0.3753 -0.3093 0.9924
-1.8356 0.3061 -0.3066 0.9925
-1.8345 0.2385 -0.3047 0.9925
-1.8326 0.1714 -0.3032 0.9926
-1.8285 0.1048 -0.3017 0.9926
-1.8233 0.0388 -0.3004 0.9926
-1.8223 -0.0268 -0.3002 0.9926
-1.8355 -0.2937 -0.3062 0.9925
-1.8475 -0.4339 -0.3126 0.9923
-1.8565 -0.5072 -0.3171 0.9922
-1.8672 -0.5830 -0.3222 0.9921
-9.1446 -3.5960 -1.6188 0.9609
-9.0093 -3.9227 -1.6188 0.9609
-8.8623 -4.2444 -1.6188 0.9609
-8.7038 -4.5606 -1.6188 0.9609
-6.8864 3.6661 -1.4664 0.9687
-7.0138 3.4160 -1.4664 0.9687
-7.2168 3.1988 -1.4838 0.9684
-1.7796 0.5686 -0.3512 0.9924
-1.7574 0.3585 -0.3371 0.9927
-1.7574 0.2931 -0.3349 0.9928
-1.7567 0.2284 -0.3330 0.9928
-1.7541 0.1641 -0.3311 0.9929
-1.7502 0.1004 -0.3295 0.9929
-1.7445 -0.0257 -0.3279 0.9929
-1.7565 -0.2166 -0.3327 0.9928
-1.7574 -0.2812 -0.3345 0.9928
-1.7716 -0.4840 -0.3452 0.9926
-1.7939 -0.7054 -0.3623 0.9922
-6.0021 3.4782 -1.4664 0.9720
-6.6939 3.2601 -1.5738 0.9700
-6.9768 3.0924 -1.6131 0.9693
-1.7087 0.6849 -0.3891 0.9925
-1.6884 0.4083 -0.3672 0.9929
-1.6850 0.2810 -0.3611 0.9930
-1.6776 0.0962 -0.3552 0.9932
-1.6734 0.0356 -0.3538 0.9932
-1.6726 -0.0246 -0.3536 0.9932
-1.6769 -0.0851 -0.3549 0.9932
-1.6833 -0.2076 -0.3585 0.9931
-1.6846 -0.3322 -0.3629 0.9930
-1.6871 -0.3962 -0.3663 0.9929
-1.6989 -0.5305 -0.3762 0.9928
-1.7036 -0.6001 -0.3818 0.9926
-7.0214 -3.0571 -1.6188 0.9692
-6.9068 -3.3078 -1.6188 0.9692
-6.0602 3.2263 -1.6135 0.9722
-6.1845 3.0121 -1.6167 0.9721
-1.6348 0.7246 -0.4203 0.9927
-1.6262 0.5196 -0.4012 0.9930
-1.6220 0.4546 -0.3959 0.9931
-1.6171 0.3910 -0.3910 0.9932
-1.6168 0.3299 -0.3878 0.9932
-1.6167 0.2696 -0.3852 0.9933
-1.6154 0.2100 -0.3829 0.9933
-1.6132 0.1509 -0.3808 0.9934
-1.6103 0.0923 -0.3791 0.9934
-1.6057 -0.0236 -0.3774 0.9934
-1.6161 -0.3796 -0.3902 0.9932
-1.6254 -0.5076 -0.4002 0.9930
-1.6290 -0.5738 -0.4059 0.9929
-1.5710 0.6963 -0.4449 0.9929
-1.5629 0.5621 -0.4300 0.9932
-1.5527 0.2590 -0.4076 0.9935
-1.5518 0.2017 -0.4052 0.9936
-1.5501 0.1450 -0.4031 0.9936
-1.5475 0.0887 -0.4013 0.9936
-1.5441 0.0329 -0.3999 0.9936
-1.5434 -0.0227 -0.3996 0.9936
-1.5469 -0.0785 -0.4010 0.9936
-1.5515 -0.1913 -0.4048 0.9936
-1.5526 -0.2485 -0.4071 0.9935
-1.5528 -0.3062 -0.4098 0.9935
-1.5575 -0.4863 -0.4225 0.9933
-1.5666 -0.6160 -0.4358 0.9931
-5.6387 -2.7005 -1.6187 0.9745
-5.5378 -2.9017 -1.6187 0.9745
-5.0474 2.6871 -1.6188 0.9765
-1.5113 0.6699 -0.4680 0.9932
-1.5088 0.6048 -0.4602 0.9933
-1.4968 0.4195 -0.4401 0.9936
-1.4943 0.3613 -0.4352 0.9936
-1.4950 0.3050 -0.4319 0.9937
-1.4924 0.1396 -0.4243 0.9938
-1.4900 0.0854 -0.4225 0.9938
-1.4863 -0.0219 -0.4208 0.9938
-1.4895 -0.0756 -0.4222 0.9938
-1.4920 -0.1297 -0.4240 0.9938
-1.4937 -0.1842 -0.4261 0.9938
-1.4948 -0.2392 -0.4285 0.9937
-1.4958 -0.4086 -0.4390 0.9936
-1.5048 -0.5301 -0.4517 0.9934
-1.5110 -0.6579 -0.4665 0.9932
-1.5129 -0.7245 -0.4749 0.9931
-1.5581 0.9029 -0.5539 0.9925
-1.4561 0.7092 -0.4982 0.9932
-1.4554 0.6451 -0.4896 0.9934
-1.4515 0.5220 -0.4744 0.9936
-1.4484 0.4627 -0.4677 0.9937
-1.4448 0.3494 -0.4572 0.9938
-1.4454 0.1879 -0.4483 0.9939
-1.4441 0.1351 -0.4461 0.9939
-1.4378 0.0306 -0.4423 0.9940
-1.4415 -0.0731 -0.4440 0.9940
-1.4452 -0.1782 -0.4479 0.9939
-1.4459 -0.2314 -0.4504 0.9939
-1.4458 -0.2851 -0.4533 0.9939
-1.4450 -0.3394 -0.4565 0.9938
-1.4477 -0.4521 -0.4665 0.9937
-1.4510 -0.5111 -0.4732 0.9936
-1.4535 -0.5715 -0.4804 0.9935
-1.4560 -0.6973 -0.4966 0.9933
-4.6617 -2.4426 -1.6187 0.9782
-1.4014 0.7461 -0.5277 0.9933
-1.4025 0.6831 -0.5186 0.9934
-1.4006 0.5037 -0.4947 0.9937
-1.3987 0.4469 -0.4881 0.9938
-1.3961 0.3912 -0.4819 0.9939
-1.3992 0.1819 -0.4690 0.9941
-1.3963 0.0801 -0.4649 0.9941
-1.3885 0.0296 -0.4617 0.9942
-1.3991 -0.1725 -0.4686 0.9941
-1.3995 -0.2240 -0.4711 0.9940
-1.3961 -0.3814 -0.4811 0.9939
-1.4018 -0.5512 -0.5007 0.9937
-1.4017 -0.7344 -0.5260 0.9934
-1.3501 0.7188 -0.5470 0.9935
-1.3520 0.6585 -0.5378 0.9936
-1.3531 0.5424 -0.5213 0.9938
-1.3528 0.4865 -0.5141 0.9939
-1.3516 0.4318 -0.5074 0.9940
-1.3553 0.2260 -0.4914 0.9942
-1.3553 0.1762 -0.4887 0.9942
-1.3544 0.1267 -0.4865 0.9942
-1.3418 0.0286 -0.4800 0.9943
-1.3480 -0.0684 -0.4827 0.9943
-1.3552 -0.1671 -0.4883 0.9942
-1.3554 -0.2169 -0.4909 0.9942
-1.3534 -0.3178 -0.4971 0.9941
-1.3505 -0.7076 -0.5452 0.9935
-1.3043 0.6352 -0.5560 0.9938
-1.3072 0.5240 -0.5397 0.9940
-1.3078 0.3665 -0.5205 0.9942
-1.3104 0.3168 -0.5166 0.9942
-1.3133 0.1707 -0.5075 0.9943
-1.2975 0.0276 -0.4973 0.9945
-1.3124 -0.2588 -0.5126 0.9943
-1.3083 -0.3574 -0.5197 0.9942
-1.3068 -0.4081 -0.5246 0.9942
-1.3075 -0.4605 -0.5312 0.9941
-1.3074 -0.5141 -0.5383 0.9940
-1.3022 -0.6823 -0.5634 0.9937
-1.2619 0.5593 -0.5649 0.9941
-1.2645 0.4548 -0.5500 0.9942
-1.2645 0.4040 -0.5433 0.9943
-1.2669 0.3550 -0.5385 0.9943
-1.2697 0.3070 -0.5346 0.9944
-1.2717 0.2594 -0.5312 0.9944
-1.2729 0.2123 -0.5282 0.9944
-1.2723 0.1654 -0.5251 0.9945
-1.2674 0.1186 -0.5210 0.9945
-1.2664 -0.1101 -0.5203 0.9945
-1.2714 -0.1568 -0.5243 0.9945
-1.2720 -0.2508 -0.5306 0.9944
-1.2644 -0.3948 -0.5421 0.9943
-1.2646 -0.4454 -0.5487 0.9942
-1.2598 -0.6033 -0.5717 0.9940
-1.2565 -0.6584 -0.5806 0.9939
-1.2125 0.6455 -0.5987 0.9940
-1.2167 0.5926 -0.5898 0.9941
-1.2199 0.5407 -0.5815 0.9942
-1.2222 0.4899 -0.5738 0.9943
-1.2278 0.3441 -0.5557 0.9945
-1.2308 0.2976 -0.5519 0.9945
-1.2343 0.2058 -0.5453 0.9946
-1.2307 0.1600 -0.5409 0.9946
-1.2262 0.1147 -0.5367 0.9946
-1.2211 0.0700 -0.5330 0.9947
-1.2139 -0.0179 -0.5291 0.9947
-1.2200 -0.0619 -0.5324 0.9947
-1.2254 -0.1065 -0.5360 0.9946
-1.2299 -0.1517 -0.5401 0.9946
-1.2337 -0.1974 -0.5445 0.9946
-1.2313 -0.2892 -0.5512 0.9945
-1.2284 -0.3356 -0.5550 0.9945
-1.2204 -0.5314 -0.5801 0.9942
-1.2174 -0.5830 -0.5883 0.9941
-1.2134 -0.6358 -0.5970 0.9940
-1.1659 0.6757 -0.6238 0.9941
-1.1716 0.6237 -0.6144 0.9942
-1.1798 0.5230 -0.5974 0.9943
-1.1825 0.4740 -0.5897 0.9944
-1.1843 0.4259 -0.5826 0.9945
-1.1863 0.3790 -0.5765 0.9945
-1.1958 0.2440 -0.5649 0.9946
-1.1909 0.1548 -0.5559 0.9947
-1.1869 0.1110 -0.5518 0.9948
-1.1821 0.0678 -0.5481 0.9948
-1.1755 -0.0173 -0.5442 0.9948
-1.1812 -0.0599 -0.5475 0.9948
-1.1861 -0.1031 -0.5511 0.9948
-1.1961 -0.2358 -0.5643 0.9946
-1.1940 -0.2804 -0.5677 0.9946
-1.1871 -0.3707 -0.5757 0.9945
-1.1845 -0.4172 -0.5813 0.9945
-1.1804 -0.5140 -0.5959 0.9943
-1.1725 -0.6144 -0.6127 0.9942
-1.1376 0.5540 -0.6207 0.9944
-1.1416 0.5060 -0.6125 0.9945
-1.1446 0.4588 -0.6049 0.9945
-1.1468 0.4124 -0.5978 0.9946
-1.1502 0.3675 -0.5923 0.9946
-1.1544 0.3235 -0.5881 0.9947
-1.1557 0.1927 -0.5747 0.9948
-1.1449 0.0656 -0.5625 0.9949
-1.1398 0.0243 -0.5592 0.9949
-1.1387 -0.0168 -0.5586 0.9949
-1.1440 -0.0581 -0.5619 0.9949
-1.1486 -0.0998 -0.5655 0.9949
-1.1523 -0.1421 -0.5695 0.9948
-1.1552 -0.1849 -0.5739 0.9948
-1.1573 -0.2282 -0.5786 0.9948
-1.1550 -0.3155 -0.5873 0.9947
-1.1471 -0.4041 -0.5966 0.9946
-1.1451 -0.4503 -0.6036 0.9945
-1.1422 -0.4973 -0.6111 0.9945
-1.1384 -0.5452 -0.6191 0.9944
-1.1335 -0.5939 -0.6277 0.9943
-1.0889 0.6310 -0.6529 0.9943
-1.0952 0.5831 -0.6437 0.9944
-1.1006 0.5360 -0.6351 0.9945
-1.1049 0.4898 -0.6270 0.9946
-1.1155 0.3564 -0.6075 0.9947
-1.1212 0.2711 -0.5984 0.9948
-1.1034 -0.0162 -0.5725 0.9950
-1.1202 -0.2209 -0.5923 0.9949
-1.1205 -0.3061 -0.6026 0.9948
-1.1163 -0.3486 -0.6067 0.9947
-1.1056 -0.4814 -0.6256 0.9946
-1.1014 -0.5275 -0.6336 0.9945
-1.0963 -0.5744 -0.6421 0.9944
-1.0513 0.6092 -0.6655 0.9945
-1.0698 0.4742 -0.6409 0.9947
-1.0852 0.2624 -0.6115 0.9949
-1.0785 0.1009 -0.5933 0.9951
-1.0749 0.0616 -0.5897 0.9951
-1.0704 0.0228 -0.5864 0.9951
-1.0779 -0.0937 -0.5926 0.9951
-1.0832 -0.1734 -0.6008 0.9950
-1.0705 -0.4661 -0.6395 0.9947
-1.0606 -0.5557 -0.6558 0.9946
-1.0038 0.5817 -0.6699 0.9947
-1.0500 0.2942 -0.6296 0.9950
-1.0505 0.2143 -0.6190 0.9951
-1.0477 0.1362 -0.6100 0.9951
-1.0452 0.0978 -0.6061 0.9952
-1.0377 0.0221 -0.5993 0.9952
-1.0369 -0.0153 -0.5987 0.9952
-1.0473 -0.1292 -0.6093 0.9951
-1.0507 -0.2468 -0.6231 0.9950
-1.0488 -0.3275 -0.6343 0.9949
-1.0456 -0.3683 -0.6400 0.9949
-1.0368 -0.4514 -0.6529 0.9948
-1.0218 -0.5354 -0.6660 0.9947
