ply
format ascii 1.0
element vertex 396
property float32 x
property float32 y
property float32 z
property float32 I
end_header
17.6978 -44.9551 5.1880 0.8234
21.2770 -40.7675 4.9380 0.8311
18.8278 -43.2752 3.9951 0.8274
13.3793 -30.7519 2.0796 0.8742
21.2771 -40.7675 2.8516 0.8317
28.6734 -19.4155 2.1473 0.8704
15.2052 -38.6234 1.6367 0.8469
18.0326 -37.7441 0.7066 0.8459
19.9797 -38.2817 0.7294 0.8413
22.0594 -38.8559 0.7547 0.8363
24.2916 -39.4721 0.7829 0.8308
14.5773 -37.0283 -0.2240 0.8528
17.1191 -35.8321 -0.2236 0.8531
18.9676 -36.3424 -0.2308 0.8488
20.9419 -36.8875 -0.2388 0.8439
27.8280 -38.7886 -0.2688 0.8262
14.5773 -37.0283 -1.1205 0.8528
15.1723 -34.8731 -1.0709 0.8588
18.1578 -34.7910 -1.1050 0.8547
20.0479 -35.3128 -1.1434 0.8500
22.0766 -35.8728 -1.1861 0.8449
23.9948 -36.0704 -1.2199 0.8408
28.9063 -37.4264 -1.3316 0.8276
17.0054 -19.0671 -0.7194 0.9028
12.8437 -12.5001 -0.5047 0.9308
12.8257 -11.6292 -0.4875 0.9331
15.1035 -10.2270 -0.5136 0.9296
10.8447 -27.5470 -1.5014 0.8882
11.8003 -27.1226 -1.5000 0.8883
13.6715 -26.1946 -1.4985 0.8884
15.4716 -25.1402 -1.4971 0.8885
16.3378 -24.5599 -1.4959 0.8886
17.1973 -23.9708 -1.4962 0.8886
18.0155 -23.3255 -1.4947 0.8887
17.2239 -17.9906 -1.2631 0.9051
12.4671 -12.1335 -0.8823 0.9327
13.8359 -10.8686 -0.8923 0.9320
15.1117 -10.2325 -0.9255 0.9295
15.0795 -9.4516 -0.9025 0.9312
25.7514 -13.7101 -1.4795 0.8897
26.5976 -11.8325 -1.4763 0.8899
27.3020 -9.9019 -1.4728 0.8902
27.8605 -7.9293 -1.4690 0.8905
7.3252 -18.6072 -1.4662 0.9229
8.6205 -18.0436 -1.4662 0.9229
9.2523 -17.7278 -1.4662 0.9229
9.8727 -17.3899 -1.4662 0.9229
10.4807 -17.0303 -1.4662 0.9229
11.0756 -16.6495 -1.4662 0.9229
12.2232 -15.8260 -1.4662 0.9229
12.7745 -15.3843 -1.4662 0.9229
10.4227 -11.6864 -1.1482 0.9391
13.8286 -14.4442 -1.4662 0.9229
14.3301 -13.9467 -1.4662 0.9229
12.8554 -10.8541 -1.2336 0.9347
13.9200 -10.9347 -1.2979 0.9315
15.0169 -10.9613 -1.3632 0.9281
17.3077 -10.0148 -1.4662 0.9229
18.5456 -7.4774 -1.4662 0.9229
18.7980 -6.8177 -1.4662 0.9229
19.0843 -6.1680 -1.4706 0.9227
20.4974 -5.0584 -1.5480 0.9188
21.2327 -4.4507 -1.5907 0.9167
21.6992 -3.7538 -1.6147 0.9155
6.5838 -13.7807 -1.4662 0.9405
7.0664 -13.5395 -1.4662 0.9405
8.0046 -13.0068 -1.4662 0.9405
9.3354 -12.0870 -1.4662 0.9405
9.7565 -11.7498 -1.4662 0.9405
11.6988 -10.6075 -1.5161 0.9385
13.3610 -9.7527 -1.5881 0.9357
14.8818 -7.9231 -1.6186 0.9345
15.1523 -7.3925 -1.6186 0.9345
15.6363 -6.3044 -1.6186 0.9345
15.8492 -5.7482 -1.6186 0.9345
16.2154 -4.6150 -1.6186 0.9345
16.5008 -3.4588 -1.6186 0.9345
16.6126 -2.8739 -1.6186 0.9345
4.9917 -12.6795 -1.6187 0.9466
5.4364 -12.4953 -1.6187 0.9466
6.3049 -12.0803 -1.6187 0.9466
6.7276 -11.8501 -1.6186 0.9466
7.5473 -11.3455 -1.6186 0.9466
7.9433 -11.0719 -1.6186 0.9466
9.0699 -10.1695 -1.6186 0.9466
9.7651 -9.5038 -1.6186 0.9466
10.0946 -9.1530 -1.6186 0.9466
10.4116 -8.7907 -1.6186 0.9466
11.0062 -8.0338 -1.6186 0.9466
11.2830 -7.6401 -1.6186 0.9466
11.5458 -7.2368 -1.6186 0.9466
12.0279 -6.4037 -1.6186 0.9466
12.4499 -5.5386 -1.6186 0.9466
12.6377 -5.0954 -1.6186 0.9466
12.9659 -4.1906 -1.6186 0.9466
13.1058 -3.7300 -1.6186 0.9466
13.2294 -3.2648 -1.6186 0.9466
4.1848 -10.6300 -1.6187 0.9549
4.9248 -10.3080 -1.6187 0.9549
5.6401 -9.9346 -1.6187 0.9549
5.9875 -9.7292 -1.6187 0.9549
6.3274 -9.5117 -1.6187 0.9549
6.6593 -9.2822 -1.6187 0.9549
7.6038 -8.5257 -1.6186 0.9549
8.1867 -7.9676 -1.6186 0.9549
8.4630 -7.6735 -1.6186 0.9549
8.7287 -7.3698 -1.6186 0.9549
8.9836 -7.0569 -1.6186 0.9549
9.2272 -6.7352 -1.6186 0.9549
9.4593 -6.4051 -1.6186 0.9549
9.6796 -6.0670 -1.6186 0.9549
10.0837 -5.3686 -1.6186 0.9549
10.4376 -4.6434 -1.6186 0.9549
10.8701 -3.5132 -1.6186 0.9549
10.9874 -3.1271 -1.6186 0.9549
11.1808 -2.3437 -1.6186 0.9549
11.2566 -1.9473 -1.6186 0.9549
3.9199 -9.0099 -1.6187 0.9610
4.2357 -8.8658 -1.6187 0.9610
4.8510 -8.5446 -1.6187 0.9610
5.1497 -8.3679 -1.6187 0.9610
5.7276 -7.9835 -1.6187 0.9610
7.2789 -6.5999 -1.6186 0.9610
7.5075 -6.3387 -1.6186 0.9610
8.6729 -4.6175 -1.6186 0.9610
8.8306 -4.3083 -1.6186 0.9610
8.9772 -3.9937 -1.6186 0.9610
9.1127 -3.6741 -1.6186 0.9610
9.6165 -2.0158 -1.6186 0.9610
9.6817 -1.6749 -1.6186 0.9610
3.9845 -7.6345 -1.6187 0.9656
4.2517 -7.4890 -1.6187 0.9656
4.7697 -7.1702 -1.6187 0.9656
5.7320 -6.4269 -1.6187 0.9656
6.1714 -6.0063 -1.6187 0.9656
6.3797 -5.7845 -1.6187 0.9656
6.7721 -5.3197 -1.6187 0.9656
6.9557 -5.0772 -1.6187 0.9656
7.2968 -4.5735 -1.6187 0.9656
7.6015 -4.0470 -1.6186 0.9656
7.8681 -3.5003 -1.6186 0.9656
8.1943 -2.6484 -1.6186 0.9656
8.3608 -2.0633 -1.6186 0.9656
8.4856 -1.4679 -1.6186 0.9656
3.0550 -7.0219 -1.6187 0.9692
3.3011 -6.9096 -1.6187 0.9692
4.0135 -6.5216 -1.6187 0.9692
4.8919 -5.8914 -1.6187 0.9692
5.4877 -5.3408 -1.6187 0.9692
5.8510 -4.9401 -1.6187 0.9692
6.1851 -4.5147 -1.6187 0.9692
6.4884 -4.0668 -1.6187 0.9692
7.1020 -2.8635 -1.6187 0.9692
7.1987 -2.6108 -1.6187 0.9692
7.4345 -1.8347 -1.6187 0.9692
7.4947 -1.5710 -1.6187 0.9692
7.5455 -1.3053 -1.6187 0.9692
2.5229 -6.4086 -1.6187 0.9721
2.7477 -6.3155 -1.6187 0.9721
3.4003 -5.9894 -1.6187 0.9721
4.0148 -5.5961 -1.6187 0.9721
4.3998 -5.2987 -1.6187 0.9721
4.7629 -4.9749 -1.6187 0.9721
5.1022 -4.6262 -1.6187 0.9721
5.5629 -4.0606 -1.6187 0.9721
5.8357 -3.6577 -1.6187 0.9721
5.9612 -3.4494 -1.6187 0.9721
6.0793 -3.2366 -1.6187 0.9721
6.1899 -3.0199 -1.6187 0.9721
6.3876 -2.5754 -1.6187 0.9721
6.4746 -2.3482 -1.6187 0.9721
6.7407 -1.4130 -1.6187 0.9721
6.7864 -1.1740 -1.6187 0.9721
2.4941 -5.7327 -1.6187 0.9745
2.6951 -5.6410 -1.6187 0.9745
3.0865 -5.4367 -1.6187 0.9745
3.2766 -5.3243 -1.6187 0.9745
3.6443 -5.0797 -1.6187 0.9745
3.8214 -4.9478 -1.6187 0.9745
3.9938 -4.8097 -1.6187 0.9745
4.1612 -4.6657 -1.6187 0.9745
4.6313 -4.1993 -1.6187 0.9745
4.7768 -4.0331 -1.6187 0.9745
4.9162 -3.8619 -1.6187 0.9745
5.1766 -3.5052 -1.6187 0.9745
5.4111 -3.1310 -1.6187 0.9745
5.5183 -2.9380 -1.6187 0.9745
5.6186 -2.7412 -1.6187 0.9745
5.7119 -2.5411 -1.6187 0.9745
5.7981 -2.3377 -1.6187 0.9745
5.8771 -2.1315 -1.6187 0.9745
6.0129 -1.7113 -1.6187 0.9745
6.0695 -1.4979 -1.6187 0.9745
2.0945 -5.3204 -1.6187 0.9765
2.2811 -5.2431 -1.6187 0.9765
2.4649 -5.1593 -1.6187 0.9765
2.6456 -5.0690 -1.6187 0.9765
2.8229 -4.9724 -1.6187 0.9765
2.9968 -4.8696 -1.6187 0.9765
3.3331 -4.6459 -1.6187 0.9765
3.6527 -4.3990 -1.6187 0.9765
3.9542 -4.1302 -1.6187 0.9765
4.0976 -3.9879 -1.6187 0.9765
4.4964 -3.5321 -1.6187 0.9765
4.9490 -2.8637 -1.6187 0.9765
5.0471 -2.6871 -1.6187 0.9765
5.1388 -2.5071 -1.6187 0.9765
5.2242 -2.3241 -1.6187 0.9765
5.3030 -2.1381 -1.6187 0.9765
5.6341 -0.9747 -1.6187 0.9765
2.5982 -4.5766 -1.6187 0.9782
3.3620 -4.0488 -1.6187 0.9782
3.5029 -3.9275 -1.6187 0.9782
3.7714 -3.6705 -1.6187 0.9782
3.8987 -3.5350 -1.6187 0.9782
4.0211 -3.3951 -1.6187 0.9782
4.1385 -3.2509 -1.6187 0.9782
4.2507 -3.1027 -1.6187 0.9782
4.4591 -2.7949 -1.6187 0.9782
4.5551 -2.6357 -1.6187 0.9782
4.7298 -2.3076 -1.6187 0.9782
4.8808 -1.9679 -1.6187 0.9782
4.9473 -1.7943 -1.6187 0.9782
5.0076 -1.6184 -1.6187 0.9782
5.0616 -1.4406 -1.6187 0.9782
5.1093 -1.2609 -1.6187 0.9782
5.1507 -1.0796 -1.6187 0.9782
1.7838 -4.5311 -1.6187 0.9797
2.0992 -4.3939 -1.6187 0.9797
2.2531 -4.3170 -1.6187 0.9797
2.5522 -4.1472 -1.6187 0.9797
2.6971 -4.0545 -1.6187 0.9797
2.9766 -3.8539 -1.6187 0.9797
3.1109 -3.7464 -1.6187 0.9797
3.3676 -3.5175 -1.6187 0.9797
3.4897 -3.3963 -1.6187 0.9797
3.6075 -3.2709 -1.6187 0.9797
3.7207 -3.1415 -1.6187 0.9797
3.8294 -3.0081 -1.6187 0.9797
4.0322 -2.7303 -1.6187 0.9797
4.5163 -1.8209 -1.6187 0.9797
4.5778 -1.6603 -1.6187 0.9797
1.8058 -4.1506 -1.6187 0.9810
2.0943 -4.0128 -1.6187 0.9810
2.3724 -3.8549 -1.6187 0.9810
2.5071 -3.7687 -1.6187 0.9810
2.6386 -3.6778 -1.6187 0.9810
2.7668 -3.5823 -1.6187 0.9810
2.8916 -3.4824 -1.6187 0.9810
3.0128 -3.3781 -1.6187 0.9810
3.2438 -3.1570 -1.6187 0.9810
3.4585 -2.9201 -1.6187 0.9810
3.6560 -2.6687 -1.6187 0.9810
3.8353 -2.4039 -1.6187 0.9810
3.9178 -2.2670 -1.6187 0.9810
3.9954 -2.1272 -1.6187 0.9810
4.1356 -1.8398 -1.6187 0.9810
4.1980 -1.6926 -1.6187 0.9810
4.3070 -1.3920 -1.6187 0.9810
4.4301 -0.9286 -1.6187 0.9810
1.6851 -3.8732 -1.6187 0.9821
2.2138 -3.5973 -1.6187 0.9821
2.3395 -3.5169 -1.6187 0.9821
2.4622 -3.4320 -1.6187 0.9821
2.5819 -3.3429 -1.6187 0.9821
3.0270 -2.9460 -1.6187 0.9821
3.1292 -2.8372 -1.6187 0.9821
3.4975 -2.3683 -1.6187 0.9821
3.9175 -1.5795 -1.6187 0.9821
3.9708 -1.4401 -1.6187 0.9821
4.0192 -1.2990 -1.6187 0.9821
4.0626 -1.1562 -1.6187 0.9821
4.1341 -0.8666 -1.6187 0.9821
4.1621 -0.7200 -1.6187 0.9821
1.5779 -3.6266 -1.6187 0.9831
1.9526 -3.4394 -1.6187 0.9831
2.0729 -3.3683 -1.6187 0.9831
2.5266 -3.0428 -1.6187 0.9831
2.6325 -2.9516 -1.6187 0.9831
2.7351 -2.8568 -1.6187 0.9831
3.0219 -2.5515 -1.6187 0.9831
3.2749 -2.2175 -1.6187 0.9831
3.3511 -2.1005 -1.6187 0.9831
3.4232 -1.9808 -1.6187 0.9831
3.4911 -1.8586 -1.6187 0.9831
3.5545 -1.7342 -1.6187 0.9831
3.6136 -1.6076 -1.6187 0.9831
3.7180 -1.3484 -1.6187 0.9831
3.7633 -1.2163 -1.6187 0.9831
3.8039 -1.0826 -1.6187 0.9831
3.8398 -0.9476 -1.6187 0.9831
3.8709 -0.8114 -1.6187 0.9831
1.4818 -3.4058 -1.6187 0.9839
1.8337 -3.2299 -1.6187 0.9839
1.9466 -3.1631 -1.6187 0.9839
2.0572 -3.0924 -1.6187 0.9839
2.1651 -3.0178 -1.6187 0.9839
2.4721 -2.7719 -1.6187 0.9839
2.7515 -2.4948 -1.6187 0.9839
2.8379 -2.3961 -1.6187 0.9839
2.9208 -2.2944 -1.6187 0.9839
3.1471 -1.9725 -1.6187 0.9839
3.2148 -1.8602 -1.6187 0.9839
3.2784 -1.7454 -1.6187 0.9839
3.3381 -1.6286 -1.6187 0.9839
3.4916 -1.2663 -1.6187 0.9839
3.6351 -0.7620 -1.6187 0.9839
3.6598 -0.6331 -1.6187 0.9839
1.2810 -3.2539 -1.6187 0.9847
1.3951 -3.2066 -1.6187 0.9847
1.5075 -3.1554 -1.6187 0.9847
1.7265 -3.0410 -1.6187 0.9847
1.9368 -2.9116 -1.6187 0.9847
2.2340 -2.6904 -1.6187 0.9847
2.7500 -2.1602 -1.6187 0.9847
2.8245 -2.0617 -1.6187 0.9847
2.8956 -1.9607 -1.6187 0.9847
3.0867 -1.6434 -1.6187 0.9847
3.1950 -1.4214 -1.6187 0.9847
3.2433 -1.3076 -1.6187 0.9847
3.2874 -1.1923 -1.6187 0.9847
3.3275 -1.0754 -1.6187 0.9847
3.3634 -0.9572 -1.6187 0.9847
3.4226 -0.7174 -1.6187 0.9847
3.4458 -0.5961 -1.6187 0.9847
1.2088 -3.0706 -1.6187 0.9854
1.3165 -3.0259 -1.6187 0.9854
1.4225 -2.9776 -1.6187 0.9854
1.6292 -2.8697 -1.6187 0.9854
1.7296 -2.8104 -1.6187 0.9854
1.8277 -2.7475 -1.6187 0.9854
2.1965 -2.4627 -1.6187 0.9854
2.2820 -2.3836 -1.6187 0.9854
2.3648 -2.3015 -1.6187 0.9854
2.6654 -1.9455 -1.6187 0.9854
2.7961 -1.7525 -1.6187 0.9854
2.9128 -1.5508 -1.6187 0.9854
3.0605 -1.2340 -1.6187 0.9854
3.1022 -1.1251 -1.6187 0.9854
3.1739 -0.9033 -1.6187 0.9854
3.2038 -0.7906 -1.6187 0.9854
1.2448 -2.8611 -1.6187 0.9860
1.3451 -2.8154 -1.6187 0.9860
1.5405 -2.7134 -1.6187 0.9860
1.6353 -2.6573 -1.6187 0.9860
1.7282 -2.5979 -1.6187 0.9860
1.9933 -2.4005 -1.6187 0.9860
2.0768 -2.3286 -1.6187 0.9860
2.1578 -2.2538 -1.6187 0.9860
2.2360 -2.1762 -1.6187 0.9860
2.3841 -2.0129 -1.6187 0.9860
2.5202 -1.8396 -1.6187 0.9860
2.5836 -1.7494 -1.6187 0.9860
2.7007 -1.5627 -1.6187 0.9860
2.7542 -1.4663 -1.6187 0.9860
2.8042 -1.3681 -1.6187 0.9860
2.8508 -1.2682 -1.6187 0.9860
2.9332 -1.0638 -1.6187 0.9860
3.0010 -0.8541 -1.6187 0.9860
3.0293 -0.7476 -1.6187 0.9860
3.0538 -0.6401 -1.6187 0.9860
3.0745 -0.5319 -1.6187 0.9860
1.0826 -2.7500 -1.6187 0.9866
1.1791 -2.7100 -1.6187 0.9866
1.2741 -2.6667 -1.6187 0.9866
1.3674 -2.6200 -1.6187 0.9866
1.4591 -2.5701 -1.6187 0.9866
1.5490 -2.5170 -1.6187 0.9866
1.7228 -2.4013 -1.6187 0.9866
1.8880 -2.2737 -1.6187 0.9866
2.0438 -2.1348 -1.6187 0.9866
2.1180 -2.0613 -1.6187 0.9866
2.3241 -1.8257 -1.6187 0.9866
2.4472 -1.6571 -1.6187 0.9866
2.5042 -1.5696 -1.6187 0.9866
2.6562 -1.2959 -1.6187 0.9866
2.7410 -1.1051 -1.6187 0.9866
2.8122 -0.9089 -1.6187 0.9866
2.8693 -0.7081 -1.6187 0.9866
1.0271 -2.6088 -1.6187 0.9871
1.1185 -2.5709 -1.6187 0.9871
1.2086 -2.5298 -1.6187 0.9871
1.3842 -2.4381 -1.6187 0.9871
1.4694 -2.3877 -1.6187 0.9871
1.5529 -2.3343 -1.6187 0.9871
1.6343 -2.2780 -1.6187 0.9871
1.7138 -2.2189 -1.6187 0.9871
1.9389 -2.0252 -1.6187 0.9871
2.0092 -1.9554 -1.6187 0.9871
2.2646 -1.6530 -1.6187 0.9871
2.3756 -1.4890 -1.6187 0.9871
2.5198 -1.2293 -1.6187 0.9871
2.6003 -1.0484 -1.6187 0.9871
2.6357 -0.9559 -1.6187 0.9871
2.6678 -0.8622 -1.6187 0.9871
2.7220 -0.6717 -1.6187 0.9871
