ply
format ascii 1.0
element vertex 435
property float32 x
property float32 y
property float32 z
property float32 I
end_header
-34.8136 -24.2677 7.4828 0.8417
-35.3877 -26.5949 7.8055 0.8354
-22.4715 -38.0555 7.7927 0.8357
-20.8580 -38.3918 7.7041 0.8374
-19.2905 -38.7444 7.6316 0.8388
-17.8144 -39.2321 7.5974 0.8395
-16.3740 -39.7755 7.5845 0.8397
-15.3151 -41.3390 7.7733 0.8361
-14.0395 -42.4967 7.8916 0.8338
-7.4924 -42.0818 7.5368 0.8406
-6.0087 -42.4914 7.5669 0.8400
-3.0032 -43.4303 7.6762 0.8379
-1.4582 -43.7477 7.7182 0.8371
-34.1602 -23.8122 6.3791 0.8449
-20.8580 -38.3918 6.6934 0.8379
-19.3135 -38.7907 6.6383 0.8392
-14.0395 -42.4967 6.8563 0.8343
-12.5379 -43.0570 6.8700 0.8340
-10.9594 -43.3470 6.8495 0.8345
-9.4177 -43.7726 6.8592 0.8343
-6.0087 -42.4914 6.5742 0.8406
-3.0032 -43.4303 6.6692 0.8385
-1.4581 -43.7478 6.7056 0.8377
0.1091 -45.4403 6.9612 0.8320
-37.0811 -25.8483 5.8861 0.8333
-20.7985 -38.2822 5.6734 0.8388
-17.7635 -39.1201 5.5948 0.8409
-14.7868 -39.9129 5.5427 0.8422
-13.3197 -40.3179 5.5293 0.8426
-11.8579 -40.7215 5.5230 0.8428
-10.3975 -41.1247 5.5238 0.8427
-7.4660 -41.9329 5.5464 0.8421
-2.9889 -43.2252 5.6423 0.8396
-1.4540 -43.6229 5.6838 0.8386
-22.4392 -38.0008 4.7389 0.8373
-20.8580 -38.3918 4.6917 0.8388
-16.3740 -39.7754 4.6189 0.8411
-14.8878 -40.1857 4.6018 0.8416
-13.2017 -39.9606 4.5191 0.8442
-11.8996 -40.8649 4.5704 0.8426
-10.4686 -41.4058 4.5861 0.8421
-8.9756 -41.7178 4.5822 0.8423
-7.4923 -42.0806 4.5897 0.8420
-2.9988 -43.3668 4.6679 0.8396
-1.4581 -43.7465 4.7002 0.8385
-37.4483 -26.1042 3.8643 0.8326
-22.3499 -37.8498 3.7210 0.8382
-20.8045 -38.2933 3.6892 0.8395
-19.3013 -38.7661 3.6659 0.8404
-16.2996 -39.5947 3.6247 0.8421
-13.2693 -40.1653 3.5809 0.8438
-11.7769 -40.4434 3.5658 0.8444
-10.4210 -41.2177 3.5990 0.8431
-8.9550 -41.6224 3.6041 0.8429
-7.4828 -42.0278 3.6137 0.8425
-6.0010 -42.4369 3.6281 0.8419
-16.3740 -39.7754 2.6673 0.8417
-13.4107 -40.5935 2.6510 0.8425
-11.7851 -40.4716 2.6139 0.8446
-6.0086 -42.4903 2.6610 0.8420
-4.5111 -42.9037 2.6751 0.8412
-22.4900 -38.0869 1.7441 0.8377
-20.8580 -38.3917 1.7228 0.8395
-14.7483 -39.8090 1.6740 0.8437
-6.0086 -42.4903 1.6921 0.8422
-4.5111 -42.9037 1.7011 0.8414
-1.4581 -43.7465 1.7259 0.8393
-22.4392 -38.0008 0.7455 0.8382
-20.8580 -38.3917 0.7380 0.8396
-11.8046 -40.5384 0.7132 0.8446
-10.4599 -41.3715 0.7208 0.8431
-8.9756 -41.7178 0.7208 0.8431
-4.5079 -42.8736 0.7282 0.8416
-3.0031 -43.4291 0.7354 0.8402
-32.0519 -22.3425 -0.2200 0.8553
-32.6656 -24.5492 -0.2301 0.8492
-19.3013 -38.7661 -0.2438 0.8409
-17.8143 -39.2320 -0.2426 0.8417
-16.3740 -39.7754 -0.2422 0.8419
-14.7483 -39.8090 -0.2390 0.8438
-11.8046 -40.5384 -0.2377 0.8446
-6.0086 -42.4902 -0.2416 0.8423
-1.4581 -43.7465 -0.2464 0.8394
-32.8905 -24.7182 -1.1585 0.8482
-33.4991 -27.1004 -1.2133 0.8416
-24.0157 -20.8906 -0.8963 0.8804
-35.1133 -32.8190 -1.3533 0.8250
-26.2426 -28.2988 -1.0867 0.8569
-26.3474 -30.5297 -1.1355 0.8510
-22.4160 -37.9616 -1.2414 0.8383
-6.3900 -14.0726 -0.4352 0.9400
-5.9803 -14.5272 -0.4424 0.9391
-13.4108 -40.5935 -1.2038 0.8428
-11.8046 -40.5384 -1.1889 0.8445
-10.4341 -41.2695 -1.1986 0.8434
-8.9663 -41.6747 -1.2003 0.8432
-7.4923 -42.0806 -1.2035 0.8428
-21.1251 -19.7448 -1.4664 0.8906
-19.6617 -21.2022 -1.4664 0.8906
-18.8918 -21.8907 -1.4664 0.8906
-17.3724 -23.3058 -1.4742 0.8901
-8.2175 -13.9164 -0.8196 0.9373
-6.8787 -13.8157 -0.7827 0.9401
-5.7159 -13.8850 -0.7615 0.9416
-9.4869 -28.7162 -1.5337 0.8859
-3.4890 -13.8000 -0.7219 0.9446
-2.3623 -13.2680 -0.6835 0.9475
-1.8615 -13.1638 -0.6742 0.9481
-0.8945 -12.9357 -0.6576 0.9494
0.0719 -29.7463 -1.5086 0.8877
-16.6578 -14.4901 -1.6188 0.9153
-16.1296 -15.0757 -1.6188 0.9153
-14.9468 -16.1179 -1.6117 0.9156
-13.9658 -16.1827 -1.5673 0.9178
-12.0699 -16.1923 -1.4808 0.9222
-9.7132 -14.0513 -1.2525 0.9338
-5.7024 -13.8521 -1.0984 0.9417
-5.3633 -14.4768 -1.1320 0.9400
-3.9670 -13.6232 -1.0404 0.9447
-2.8703 -13.3412 -1.0006 0.9467
-2.3534 -13.2183 -0.9844 0.9476
-1.3650 -12.9825 -0.9572 0.9490
-0.4226 -12.6800 -0.9302 0.9504
0.0303 -12.6045 -0.9242 0.9507
-13.1090 -10.6051 -1.6188 0.9345
-11.8995 -11.9462 -1.6188 0.9345
-10.5534 -13.1503 -1.6188 0.9345
-8.5733 -14.5189 -1.6188 0.9345
-7.5150 -15.0937 -1.6188 0.9345
-6.3149 -15.3400 -1.5926 0.9355
-4.0029 -13.7463 -1.3745 0.9441
-2.3655 -13.2861 -1.2956 0.9472
-1.3667 -12.9986 -1.2548 0.9488
0.0311 -12.9679 -1.2450 0.9492
-11.1796 -7.7930 -1.6188 0.9466
-10.2820 -8.9440 -1.6188 0.9466
-9.9560 -9.3054 -1.6188 0.9466
-9.6173 -9.6551 -1.6188 0.9466
-9.2663 -9.9923 -1.6188 0.9466
-8.9035 -10.3169 -1.6188 0.9466
-8.5294 -10.6282 -1.6188 0.9466
-7.7490 -11.2099 -1.6188 0.9466
-7.3437 -11.4795 -1.6188 0.9466
-6.5055 -11.9743 -1.6187 0.9466
-6.0738 -12.1990 -1.6187 0.9466
-4.2748 -12.9394 -1.6187 0.9466
-2.3887 -13.4162 -1.6187 0.9466
-1.9080 -13.4929 -1.6187 0.9466
-1.4250 -13.5524 -1.6187 0.9466
-0.8871 -12.8286 -1.5275 0.9495
-0.4540 -13.6194 -1.6187 0.9466
-9.3724 -6.5333 -1.6188 0.9549
-8.6199 -7.4982 -1.6188 0.9549
-8.3466 -7.8012 -1.6188 0.9549
-8.0626 -8.0943 -1.6188 0.9549
-7.4643 -8.6491 -1.6188 0.9549
-6.4964 -9.3978 -1.6187 0.9549
-6.1566 -9.6238 -1.6187 0.9549
-5.8090 -9.8375 -1.6187 0.9549
-5.0919 -10.2271 -1.6187 0.9549
-4.7235 -10.4024 -1.6187 0.9549
-3.9689 -10.7129 -1.6187 0.9549
-3.5838 -10.8478 -1.6187 0.9549
-3.1941 -10.9688 -1.6187 0.9549
-2.8003 -11.0759 -1.6187 0.9549
-2.0026 -11.2475 -1.6187 0.9549
-1.5996 -11.3118 -1.6187 0.9549
-1.1946 -11.3617 -1.6187 0.9549
-8.0610 -5.6191 -1.6188 0.9609
-7.8552 -5.9034 -1.6188 0.9609
-7.6393 -6.1802 -1.6188 0.9609
-6.9345 -6.9617 -1.6188 0.9609
-6.6815 -7.2050 -1.6188 0.9609
-5.5874 -8.0829 -1.6187 0.9609
-4.9962 -8.4611 -1.6187 0.9609
-3.7404 -9.0862 -1.6187 0.9609
-3.0823 -9.3300 -1.6187 0.9609
-2.7472 -9.4341 -1.6187 0.9609
-2.4085 -9.5262 -1.6187 0.9609
-2.0667 -9.6061 -1.6187 0.9609
-1.7224 -9.6738 -1.6187 0.9609
-1.3758 -9.7291 -1.6187 0.9609
-1.0275 -9.7720 -1.6187 0.9609
0.0236 -9.8258 -1.6187 0.9609
-6.8847 -5.1741 -1.6188 0.9656
-6.6955 -5.4166 -1.6188 0.9656
-6.0778 -6.1016 -1.6187 0.9656
-5.6267 -6.5199 -1.6187 0.9656
-4.8971 -7.0843 -1.6187 0.9656
-4.6410 -7.2546 -1.6187 0.9656
-4.3789 -7.4157 -1.6187 0.9656
-3.8384 -7.7094 -1.6187 0.9656
-3.5606 -7.8415 -1.6187 0.9656
-2.7015 -8.1773 -1.6187 0.9656
-2.4078 -8.2686 -1.6187 0.9656
-2.1109 -8.3493 -1.6187 0.9656
-1.8114 -8.4193 -1.6187 0.9656
-1.5096 -8.4786 -1.6187 0.9656
0.0207 -8.6119 -1.6187 0.9656
-6.1219 -4.6008 -1.6188 0.9692
-5.7779 -5.0260 -1.6187 0.9692
-5.5947 -5.2292 -1.6187 0.9692
-4.7931 -5.9725 -1.6187 0.9692
-4.5767 -6.1399 -1.6187 0.9692
-4.3545 -6.2994 -1.6187 0.9692
-4.1268 -6.4509 -1.6187 0.9692
-3.8938 -6.5941 -1.6187 0.9692
-3.6558 -6.7290 -1.6187 0.9692
-3.4131 -6.8552 -1.6187 0.9692
-2.4022 -7.2713 -1.6187 0.9692
-2.1410 -7.3525 -1.6187 0.9692
-1.3423 -7.5393 -1.6187 0.9692
-1.0722 -7.5824 -1.6187 0.9692
-0.5283 -7.6396 -1.6187 0.9692
-5.6503 -3.9387 -1.6187 0.9721
-5.3548 -4.3319 -1.6187 0.9721
-4.8607 -4.8798 -1.6187 0.9721
-4.6833 -5.0503 -1.6187 0.9721
-3.5021 -5.9308 -1.6187 0.9721
-2.8476 -6.2713 -1.6187 0.9721
-2.6219 -6.3690 -1.6187 0.9721
-2.3927 -6.4585 -1.6187 0.9721
-2.1605 -6.5399 -1.6187 0.9721
-1.9256 -6.6128 -1.6187 0.9721
-1.4487 -6.7334 -1.6187 0.9721
-0.9644 -6.8196 -1.6187 0.9721
-0.4751 -6.8710 -1.6187 0.9721
0.0165 -6.8874 -1.6187 0.9721
-5.1288 -3.5752 -1.6187 0.9745
-4.9979 -3.7561 -1.6187 0.9745
-4.5675 -4.2691 -1.6187 0.9745
-4.4121 -4.4294 -1.6187 0.9745
-4.2511 -4.5842 -1.6187 0.9745
-4.0847 -4.7331 -1.6187 0.9745
-3.7364 -5.0125 -1.6187 0.9745
-3.5550 -5.1428 -1.6187 0.9745
-2.7865 -5.5966 -1.6187 0.9745
-2.3799 -5.7812 -1.6187 0.9745
-2.1719 -5.8625 -1.6187 0.9745
-1.7479 -6.0025 -1.6187 0.9745
-1.3150 -6.1120 -1.6187 0.9745
-0.8754 -6.1902 -1.6187 0.9745
-0.6537 -6.2175 -1.6187 0.9745
-0.4313 -6.2369 -1.6187 0.9745
-4.6908 -3.2699 -1.6187 0.9765
-4.5711 -3.4353 -1.6187 0.9765
-4.3142 -3.7528 -1.6187 0.9765
-4.1774 -3.9045 -1.6187 0.9765
-4.0353 -4.0512 -1.6187 0.9765
-3.8881 -4.1927 -1.6187 0.9765
-3.7358 -4.3289 -1.6187 0.9765
-3.5789 -4.4595 -1.6187 0.9765
-3.4173 -4.5845 -1.6187 0.9765
-3.2514 -4.7036 -1.6187 0.9765
-3.0814 -4.8167 -1.6187 0.9765
-2.7297 -5.0244 -1.6187 0.9765
-2.5485 -5.1186 -1.6187 0.9765
-2.3641 -5.2064 -1.6187 0.9765
-1.7937 -5.4294 -1.6187 0.9765
-1.5986 -5.4899 -1.6187 0.9765
-1.4016 -5.5435 -1.6187 0.9765
-1.0023 -5.6294 -1.6187 0.9765
0.0137 -5.7179 -1.6187 0.9765
-4.3174 -3.0096 -1.6187 0.9782
-3.9708 -3.4541 -1.6187 0.9782
-3.8449 -3.5937 -1.6187 0.9782
-3.7141 -3.7287 -1.6187 0.9782
-3.5786 -3.8589 -1.6187 0.9782
-3.4384 -3.9843 -1.6187 0.9782
-3.1453 -4.2195 -1.6187 0.9782
-2.8361 -4.4333 -1.6187 0.9782
-2.5124 -4.6244 -1.6187 0.9782
-2.0034 -4.8666 -1.6187 0.9782
-1.8283 -4.9350 -1.6187 0.9782
-1.6509 -4.9971 -1.6187 0.9782
-1.2900 -5.1022 -1.6187 0.9782
-1.1070 -5.1450 -1.6187 0.9782
-0.9225 -5.1813 -1.6187 0.9782
-0.5503 -5.2339 -1.6187 0.9782
-0.1753 -5.2598 -1.6187 0.9782
0.0127 -5.2627 -1.6187 0.9782
-3.9949 -2.7848 -1.6187 0.9797
-3.8929 -2.9257 -1.6187 0.9797
-3.6742 -3.1961 -1.6187 0.9797
-3.1816 -3.6867 -1.6187 0.9797
-3.0479 -3.7979 -1.6187 0.9797
-2.7691 -4.0058 -1.6187 0.9797
-2.4761 -4.1932 -1.6187 0.9797
-2.1705 -4.3593 -1.6187 0.9797
-2.0134 -4.4340 -1.6187 0.9797
-1.8537 -4.5031 -1.6187 0.9797
-1.3615 -4.6755 -1.6187 0.9797
-0.8536 -4.7943 -1.6187 0.9797
-0.5092 -4.8430 -1.6187 0.9797
-0.3359 -4.8581 -1.6187 0.9797
-0.1622 -4.8670 -1.6187 0.9797
0.0117 -4.8697 -1.6187 0.9797
-3.4152 -2.9708 -1.6187 0.9810
-3.1945 -3.2070 -1.6187 0.9810
-2.9574 -3.4268 -1.6187 0.9810
-2.8331 -3.5303 -1.6187 0.9810
-2.4393 -3.8131 -1.6187 0.9810
-2.1609 -3.9774 -1.6187 0.9810
-1.8715 -4.1215 -1.6187 0.9810
-1.7231 -4.1857 -1.6187 0.9810
-1.2655 -4.3460 -1.6187 0.9810
-1.1095 -4.3884 -1.6187 0.9810
-0.9521 -4.4253 -1.6187 0.9810
-0.7934 -4.4564 -1.6187 0.9810
-0.4733 -4.5017 -1.6187 0.9810
-0.3123 -4.5157 -1.6187 0.9810
-3.4652 -2.4155 -1.6187 0.9821
-2.9810 -2.9927 -1.6187 0.9821
-2.7597 -3.1978 -1.6187 0.9821
-2.6438 -3.2943 -1.6187 0.9821
-2.5245 -3.3867 -1.6187 0.9821
-2.4019 -3.4746 -1.6187 0.9821
-2.2763 -3.5582 -1.6187 0.9821
-1.8826 -3.7812 -1.6187 0.9821
-1.6079 -3.9060 -1.6187 0.9821
-1.1809 -4.0555 -1.6187 0.9821
-0.8885 -4.1295 -1.6187 0.9821
-0.7404 -4.1586 -1.6187 0.9821
-0.5914 -4.1824 -1.6187 0.9821
-0.1407 -4.2216 -1.6187 0.9821
0.0101 -4.2240 -1.6187 0.9821
-3.2446 -2.2617 -1.6187 0.9831
-3.0749 -2.4876 -1.6187 0.9831
-2.9841 -2.5958 -1.6187 0.9831
-2.6893 -2.9001 -1.6187 0.9831
-2.4755 -3.0846 -1.6187 0.9831
-2.3637 -3.1710 -1.6187 0.9831
-2.1314 -3.3317 -1.6187 0.9831
-2.0110 -3.4057 -1.6187 0.9831
-1.7628 -3.5405 -1.6187 0.9831
-1.3740 -3.7087 -1.6187 0.9831
-1.2407 -3.7555 -1.6187 0.9831
-1.1058 -3.7974 -1.6187 0.9831
-0.9694 -3.8344 -1.6187 0.9831
-0.8319 -3.8666 -1.6187 0.9831
-0.6933 -3.8938 -1.6187 0.9831
-0.4136 -3.9334 -1.6187 0.9831
-2.8876 -2.3361 -1.6187 0.9839
-2.8024 -2.4377 -1.6187 0.9839
-2.7135 -2.5362 -1.6187 0.9839
-2.6212 -2.6315 -1.6187 0.9839
-2.4267 -2.8119 -1.6187 0.9839
-2.2198 -2.9779 -1.6187 0.9839
-2.0016 -3.1288 -1.6187 0.9839
-1.8885 -3.1983 -1.6187 0.9839
-1.4139 -3.4346 -1.6187 0.9839
-1.2903 -3.4829 -1.6187 0.9839
-0.5200 -3.6776 -1.6187 0.9839
-0.3884 -3.6938 -1.6187 0.9839
0.0089 -3.7142 -1.6187 0.9839
-2.8688 -1.9998 -1.6187 0.9847
-2.7956 -2.1010 -1.6187 0.9847
-2.4679 -2.4776 -1.6187 0.9847
-2.1888 -2.7273 -1.6187 0.9847
-2.0900 -2.8038 -1.6187 0.9847
-1.8845 -2.9458 -1.6187 0.9847
-1.7781 -3.0112 -1.6187 0.9847
-1.6694 -3.0728 -1.6187 0.9847
-1.5586 -3.1305 -1.6187 0.9847
-1.4458 -3.1841 -1.6187 0.9847
-1.3312 -3.2337 -1.6187 0.9847
-0.9777 -3.3575 -1.6187 0.9847
-0.6130 -3.4429 -1.6187 0.9847
-0.2412 -3.4887 -1.6187 0.9847
-0.1165 -3.4950 -1.6187 0.9847
-1.1083 -0.7725 -0.6627 0.9940
-2.6380 -1.9826 -1.6187 0.9854
-2.4109 -2.2533 -1.6187 0.9854
-1.7783 -2.7798 -1.6187 0.9854
-1.6779 -2.8416 -1.6187 0.9854
-1.5754 -2.8997 -1.6187 0.9854
-1.4708 -2.9541 -1.6187 0.9854
-1.3644 -3.0047 -1.6187 0.9854
-1.1464 -3.0944 -1.6187 0.9854
-1.0352 -3.1334 -1.6187 0.9854
-0.5784 -3.2489 -1.6187 0.9854
-0.3451 -3.2819 -1.6187 0.9854
-0.2276 -3.2921 -1.6187 0.9854
-1.0588 -0.7381 -0.6696 0.9942
-2.2796 -2.1306 -1.6187 0.9860
-2.2020 -2.2107 -1.6187 0.9860
-1.9530 -2.4335 -1.6187 0.9860
-1.8648 -2.5017 -1.6187 0.9860
-1.5865 -2.6868 -1.6187 0.9860
-1.3907 -2.7932 -1.6187 0.9860
-1.2901 -2.8410 -1.6187 0.9860
-1.0840 -2.9259 -1.6187 0.9860
-0.9788 -2.9627 -1.6187 0.9860
-0.7648 -3.0250 -1.6187 0.9860
-0.5470 -3.0719 -1.6187 0.9860
-0.3263 -3.1031 -1.6187 0.9860
-0.2152 -3.1128 -1.6187 0.9860
-1.0094 -0.7036 -0.6739 0.9944
-0.9892 -0.7434 -0.6777 0.9944
-0.9999 -0.8698 -0.7259 0.9940
-2.1592 -2.0181 -1.6187 0.9866
-2.0857 -2.0939 -1.6187 0.9866
-1.9309 -2.2375 -1.6187 0.9866
-1.8498 -2.3050 -1.6187 0.9866
-1.5028 -2.5449 -1.6187 0.9866
-1.4109 -2.5970 -1.6187 0.9866
-1.2219 -2.6910 -1.6187 0.9866
-1.1250 -2.7329 -1.6187 0.9866
-0.9271 -2.8063 -1.6187 0.9866
-0.8263 -2.8376 -1.6187 0.9866
-0.6216 -2.8893 -1.6187 0.9866
-0.5180 -2.9097 -1.6187 0.9866
-0.3090 -2.9392 -1.6187 0.9866
-0.0984 -2.9538 -1.6187 0.9866
-0.9633 -0.6715 -0.6779 0.9946
-0.9438 -0.7093 -0.6816 0.9946
-0.9230 -0.7467 -0.6854 0.9945
-0.9249 -0.8045 -0.7077 0.9944
-0.9221 -0.8619 -0.7287 0.9942
-1.9064 -2.0558 -1.6187 0.9871
-1.8318 -2.1226 -1.6187 0.9871
-1.7548 -2.1866 -1.6187 0.9871
-1.6756 -2.2479 -1.6187 0.9871
-1.5109 -2.3618 -1.6187 0.9871
-1.3384 -2.4636 -1.6187 0.9871
-1.2496 -2.5098 -1.6187 0.9871
-1.1592 -2.5528 -1.6187 0.9871
-0.9740 -2.6291 -1.6187 0.9871
-0.8795 -2.6622 -1.6187 0.9871
-0.7839 -2.6919 -1.6187 0.9871
-0.4914 -2.7603 -1.6187 0.9871
-0.3925 -2.7761 -1.6187 0.9871
-0.2932 -2.7883 -1.6187 0.9871
-0.1934 -2.7970 -1.6187 0.9871
-0.0934 -2.8021 -1.6187 0.9871
