ply
format ascii 1.0
element vertex 568
property float32 x
property float32 y
property float32 z
property float32 I
end_header
-7.4117 38.8945 6.9816 0.8514
-8.2591 31.1598 5.6840 0.8773
-9.1016 30.0066 5.5290 0.8804
-10.0810 29.4415 5.4872 0.8813
-10.6496 25.1401 4.8142 0.8950
-11.4022 24.4675 4.7597 0.8962
-11.7790 23.1032 4.5726 0.9000
-12.2678 22.0930 4.4559 0.9025
-13.0246 18.5135 3.9913 0.9122
-12.3076 16.2410 3.5931 0.9206
-12.5951 15.4521 3.5151 0.9222
-13.3386 15.2303 3.5698 0.9211
-14.2577 14.1248 3.5388 0.9217
-5.4264 45.9675 7.0909 0.8292
-6.0835 39.4760 6.1189 0.8508
-7.4116 38.8940 6.0656 0.8520
-8.2646 36.3265 5.7072 0.8601
-8.2591 31.1598 4.9384 0.8777
-9.7627 25.5260 4.1867 0.8953
-11.4023 24.4676 4.1353 0.8965
-11.7789 23.1030 3.9727 0.9004
-12.4370 20.6408 3.6917 0.9071
-13.5220 16.5893 3.2787 0.9170
-13.8446 15.8081 3.2192 0.9185
-14.6572 12.5962 2.9606 0.9248
-5.4563 46.2205 6.0607 0.8288
-8.2591 31.1598 4.1978 0.8781
-9.0600 29.8695 4.0646 0.8817
-9.7401 25.4669 3.5506 0.8958
-11.3697 24.3978 3.5051 0.8971
-11.7791 23.1034 3.3770 0.9007
-12.4372 20.6412 3.1381 0.9074
-13.0246 18.5135 2.9477 0.9127
-13.5628 16.6393 2.7954 0.9171
-13.8446 15.8081 2.7364 0.9187
-4.0504 49.2203 5.3032 0.8198
-6.0755 39.4241 4.2834 0.8517
-7.4116 38.8940 4.2517 0.8528
-8.2630 31.1742 3.4631 0.8783
-10.5451 27.5717 3.1699 0.8880
-10.9929 25.9504 3.0263 0.8928
-11.4024 24.4679 2.8987 0.8971
-11.7791 23.1035 2.7847 0.9009
-10.3276 17.1401 2.1488 0.9227
-10.5931 16.2504 2.0830 0.9249
-10.8459 15.4166 2.0241 0.9270
-13.3466 17.6120 2.3729 0.9149
-13.8446 15.8081 2.2565 0.9189
-11.6623 12.4018 1.8281 0.9338
-14.7592 14.6217 2.2309 0.9198
-14.6737 12.6105 2.0776 0.9251
-4.0360 49.0452 4.1658 0.8207
-8.1881 35.9904 3.1245 0.8623
-9.5051 31.3369 2.7721 0.8768
-10.0811 29.4416 2.6344 0.8826
-8.7439 22.8624 2.0721 0.9064
-9.4506 20.2797 1.8940 0.9141
-11.7792 23.1036 2.1953 0.9011
-10.3276 17.1401 1.6940 0.9228
-12.8931 19.7788 1.9987 0.9096
-13.3466 17.6120 1.8706 0.9151
-13.7518 16.8713 1.8425 0.9163
-13.8446 15.8081 1.7789 0.9191
-11.6623 12.4018 1.4411 0.9339
-14.7852 14.6475 1.7618 0.9198
-14.5118 13.3929 1.6717 0.9238
-5.4420 46.0994 2.8785 0.8302
-6.1375 32.2076 2.0331 0.8769
-8.2466 36.2477 2.3052 0.8616
-8.8776 33.4931 2.1486 0.8703
-10.0811 29.4416 1.9297 0.8827
-10.9849 25.9315 1.7463 0.8933
-9.4506 20.2797 1.3874 0.9142
-11.7792 23.1037 1.6081 0.9013
-12.1802 21.9351 1.5558 0.9043
-10.3276 17.1401 1.2409 0.9229
-12.8931 19.7788 1.4641 0.9097
-13.7751 16.8998 1.3520 0.9163
-13.8446 15.8081 1.3031 0.9192
-11.6623 12.4018 1.0557 0.9340
-14.7852 14.6475 1.2906 0.9200
-14.5118 13.3929 1.2245 0.9239
-5.4258 45.9625 1.8249 0.8309
-6.5017 42.1894 1.6832 0.8429
-7.4117 38.8945 1.5612 0.8534
-8.2747 36.3710 1.4708 0.8613
-8.8776 33.4931 1.3663 0.8705
-10.0811 29.4416 1.2271 0.8829
-10.5451 27.5717 1.1640 0.8885
-10.9817 25.9239 1.1101 0.8934
-9.6189 18.8665 0.8350 0.9187
-10.2338 16.9843 0.7819 0.9237
-10.4852 16.0849 0.7571 0.9260
-10.7214 15.2397 0.7347 0.9281
-11.1556 13.6862 0.6962 0.9318
-11.7323 11.6230 0.6512 0.9360
-12.0794 10.3810 0.6280 0.9382
-5.4152 45.8721 0.7802 0.8313
-5.3243 34.5496 0.5905 0.8695
-6.0732 31.8703 0.5480 0.8783
-6.7223 29.5477 0.5119 0.8858
-7.2918 27.5103 0.4807 0.8924
-7.7966 25.7043 0.4537 0.8981
-9.0257 21.3066 0.3909 0.9116
-9.6189 18.8665 0.3577 0.9188
-9.9650 17.9459 0.3467 0.9212
-10.2338 16.9843 0.3350 0.9237
-11.9090 10.9907 0.2737 0.9372
-12.0794 10.3810 0.2690 0.9383
-3.8463 46.7394 -0.2640 0.8290
-7.2918 27.5103 -0.1602 0.8924
-7.7966 25.7043 -0.1512 0.8981
-8.2036 23.9585 -0.1426 0.9037
-9.0257 21.3066 -0.1303 0.9116
-9.6189 18.8665 -0.1192 0.9188
-10.2338 16.9843 -0.1116 0.9237
-10.4852 16.0849 -0.1081 0.9261
-10.7214 15.2397 -0.1049 0.9282
-11.1556 13.6862 -0.0994 0.9318
-11.2892 12.8903 -0.0965 0.9338
-11.5484 12.2807 -0.0949 0.9348
-11.7323 11.6230 -0.0930 0.9361
-11.9090 10.9907 -0.0912 0.9372
-12.0794 10.3810 -0.0897 0.9383
-4.6245 39.1744 -1.1107 0.8540
-5.3243 34.5496 -0.9843 0.8695
-6.0732 31.8703 -0.9135 0.8782
-8.2036 23.9585 -0.7131 0.9036
-9.0257 21.3066 -0.6516 0.9116
-9.6189 18.8665 -0.5963 0.9187
-9.9650 17.9459 -0.5780 0.9211
-10.2338 16.9843 -0.5583 0.9237
-10.7214 15.2397 -0.5247 0.9281
-10.9444 14.4420 -0.5102 0.9301
-11.7323 11.6230 -0.4650 0.9361
8.7450 27.5583 -1.4663 0.8907
6.7738 28.1082 -1.4663 0.8907
5.7748 28.3304 -1.4663 0.8907
3.7563 28.6682 -1.4663 0.8907
2.7394 28.7834 -1.4663 0.8907
1.7189 28.8624 -1.4663 0.8907
-0.3270 28.9120 -1.4663 0.8906
-1.3500 28.8825 -1.4664 0.8906
-4.4039 28.5771 -1.4664 0.8906
-5.4126 28.4035 -1.4664 0.8906
-7.7966 25.7043 -1.3622 0.8980
-8.2036 23.9585 -1.2843 0.9035
-8.6555 22.6312 -1.2288 0.9075
-9.3644 20.0947 -1.1243 0.9150
-9.6189 18.8664 -1.0740 0.9187
-9.9650 17.9459 -1.0410 0.9211
-10.7214 15.2397 -0.9450 0.9281
-11.1556 13.6862 -0.8954 0.9317
-11.9090 10.9907 -0.8219 0.9372
-12.0794 10.3809 -0.8077 0.9382
5.3703 19.2634 -1.4663 0.9229
3.2982 19.7243 -1.4663 0.9229
0.4817 19.9926 -1.4663 0.9229
-0.2262 19.9972 -1.4663 0.9229
-0.9337 19.9768 -1.4663 0.9229
-1.6402 19.9313 -1.4663 0.9229
-2.3445 19.8608 -1.4663 0.9229
-4.4365 19.5006 -1.4664 0.9229
-5.1240 19.3315 -1.4664 0.9229
-5.8049 19.1380 -1.4664 0.9229
-7.8008 18.4151 -1.4664 0.9229
-8.4477 18.1275 -1.4664 0.9229
-10.2338 16.9843 -1.4539 0.9236
-10.4852 16.0849 -1.4078 0.9259
-11.1556 13.6862 -1.2946 0.9316
-11.2892 12.8903 -1.2564 0.9336
-11.5484 12.2807 -1.2360 0.9346
-11.7322 11.6230 -1.2109 0.9359
-11.9090 10.9907 -1.1882 0.9371
5.1319 14.3851 -1.4663 0.9405
4.6196 14.5577 -1.4663 0.9405
2.5190 15.0641 -1.4663 0.9405
1.4471 15.2046 -1.4663 0.9405
0.9080 15.2464 -1.4663 0.9405
0.3679 15.2690 -1.4663 0.9405
-0.1727 15.2725 -1.4663 0.9405
-0.7131 15.2569 -1.4663 0.9405
-1.7906 15.1683 -1.4663 0.9405
-2.3263 15.0954 -1.4663 0.9405
-2.8591 15.0037 -1.4663 0.9405
-5.9577 14.0641 -1.4664 0.9405
-6.9376 13.6074 -1.4664 0.9405
-7.4149 13.3534 -1.4664 0.9405
-11.2246 10.3591 -1.4664 0.9405
3.7336 11.7658 -1.4663 0.9515
3.3149 11.8906 -1.4663 0.9515
2.8920 12.0005 -1.4663 0.9515
2.4655 12.0954 -1.4663 0.9515
1.1695 12.2887 -1.4663 0.9515
0.2973 12.3407 -1.4663 0.9515
-0.5764 12.3308 -1.4663 0.9515
-1.4472 12.2592 -1.4663 0.9515
-2.3108 12.1262 -1.4663 0.9515
-2.7385 12.0368 -1.4663 0.9515
-3.9989 11.6788 -1.4664 0.9515
-4.4098 11.5300 -1.4664 0.9515
-5.9928 10.7924 -1.4664 0.9515
-6.7413 10.3415 -1.4664 0.9515
-8.1332 9.2867 -1.4664 0.9515
-9.0718 8.3723 -1.4664 0.9515
3.1301 9.8640 -1.4663 0.9591
2.7791 9.9686 -1.4663 0.9591
1.7068 10.2071 -1.4663 0.9591
1.3445 10.2611 -1.4663 0.9591
0.2493 10.3458 -1.4663 0.9591
-0.1170 10.3482 -1.4663 0.9591
-0.4832 10.3376 -1.4663 0.9591
-0.8488 10.3141 -1.4663 0.9591
-1.2132 10.2776 -1.4663 0.9591
-1.5762 10.2282 -1.4663 0.9591
-1.9372 10.1660 -1.4663 0.9591
-3.3525 9.7910 -1.4663 0.9591
-3.6969 9.6662 -1.4663 0.9591
-4.0367 9.5293 -1.4664 0.9591
-4.3714 9.3805 -1.4664 0.9591
-4.7007 9.2199 -1.4664 0.9591
-5.9548 8.4643 -1.4664 0.9591
-6.2507 8.2483 -1.4664 0.9591
-6.5387 8.0219 -1.4664 0.9591
-6.8185 7.7855 -1.4664 0.9591
-7.3522 7.2837 -1.4664 0.9591
-7.8490 6.7454 -1.4664 0.9591
2.9907 8.3832 -1.4663 0.9646
2.6922 8.4838 -1.4663 0.9646
2.0853 8.6531 -1.4663 0.9646
1.7778 8.7214 -1.4663 0.9646
1.1564 8.8254 -1.4663 0.9646
0.8433 8.8608 -1.4663 0.9646
-0.1007 8.9003 -1.4663 0.9646
-0.4156 8.8912 -1.4663 0.9646
-0.7300 8.8709 -1.4663 0.9646
-1.3557 8.7971 -1.4663 0.9646
-3.1796 8.3137 -1.4663 0.9646
-4.0430 7.9299 -1.4663 0.9646
-4.3211 7.7818 -1.4664 0.9646
-4.8608 7.4567 -1.4664 0.9646
-5.1216 7.2800 -1.4664 0.9646
-5.6238 6.8995 -1.4664 0.9646
-6.0977 6.4844 -1.4664 0.9646
-6.5412 6.0368 -1.4664 0.9646
-6.7508 5.8015 -1.4664 0.9646
2.3596 7.4357 -1.4663 0.9687
1.5581 7.6440 -1.4663 0.9687
0.7391 7.7661 -1.4663 0.9687
0.1879 7.7989 -1.4663 0.9687
-0.0882 7.8007 -1.4663 0.9687
-0.9146 7.7474 -1.4663 0.9687
-1.1882 7.7102 -1.4663 0.9687
-1.4603 7.6634 -1.4663 0.9687
-1.7306 7.6069 -1.4663 0.9687
-2.2644 7.4654 -1.4663 0.9687
-2.5272 7.3806 -1.4663 0.9687
-3.5435 6.9502 -1.4663 0.9687
-4.2602 6.5354 -1.4663 0.9687
-4.9290 6.0471 -1.4664 0.9687
-5.1399 5.8688 -1.4664 0.9687
-5.3444 5.6833 -1.4664 0.9687
-5.5422 5.4906 -1.4664 0.9687
-5.9167 5.0848 -1.4664 0.9687
1.8628 6.6820 -1.4663 0.9720
1.3855 6.7971 -1.4663 0.9720
1.1441 6.8419 -1.4663 0.9720
0.6572 6.9057 -1.4663 0.9720
0.4124 6.9246 -1.4663 0.9720
-0.0785 6.9364 -1.4663 0.9720
-0.3239 6.9293 -1.4663 0.9720
-0.5689 6.9135 -1.4663 0.9720
-0.8132 6.8891 -1.4663 0.9720
-1.0565 6.8560 -1.4663 0.9720
-1.2985 6.8143 -1.4663 0.9720
-1.5389 6.7641 -1.4663 0.9720
-1.7773 6.7054 -1.4663 0.9720
-2.2472 6.5629 -1.4663 0.9720
-2.4780 6.4793 -1.4663 0.9720
-2.9302 6.2877 -1.4663 0.9720
-3.1509 6.1801 -1.4663 0.9720
-3.3676 6.0647 -1.4663 0.9720
-3.5801 5.9417 -1.4663 0.9720
-3.7882 5.8113 -1.4663 0.9720
-4.1898 5.5288 -1.4663 0.9720
-4.3828 5.3771 -1.4663 0.9720
-4.9281 4.8822 -1.4664 0.9720
-5.2612 4.5214 -1.4664 0.9720
2.0963 5.8762 -1.4663 0.9747
1.8871 5.9467 -1.4663 0.9747
1.6754 6.0098 -1.4663 0.9747
1.4617 6.0653 -1.4663 0.9747
1.0290 6.1536 -1.4663 0.9747
0.8105 6.1861 -1.4663 0.9747
0.3709 6.2280 -1.4663 0.9747
-0.0706 6.2386 -1.4663 0.9747
-0.2913 6.2322 -1.4663 0.9747
-0.5117 6.2180 -1.4663 0.9747
-0.9503 6.1663 -1.4663 0.9747
-1.1679 6.1288 -1.4663 0.9747
-1.8109 5.9705 -1.4663 0.9747
-2.2288 5.8275 -1.4663 0.9747
-2.8339 5.5584 -1.4663 0.9747
-3.0288 5.4546 -1.4663 0.9747
-3.2200 5.3440 -1.4663 0.9747
-3.5900 5.1029 -1.4663 0.9747
-3.7683 4.9726 -1.4663 0.9747
-4.1106 4.6936 -1.4663 0.9747
-4.7319 4.0665 -1.4664 0.9747
2.0702 5.8029 -1.5952 0.9749
1.8093 5.7017 -1.5488 0.9756
1.5628 5.6057 -1.5068 0.9762
1.3311 5.5235 -1.4711 0.9768
0.7358 5.6152 -1.4663 0.9769
0.1364 5.6616 -1.4663 0.9769
-0.0640 5.6629 -1.4663 0.9769
-0.2644 5.6571 -1.4663 0.9769
-0.4645 5.6442 -1.4663 0.9769
-1.2563 5.5222 -1.4663 0.9769
-1.4510 5.4743 -1.4663 0.9769
-1.6438 5.4195 -1.4663 0.9769
-1.8346 5.3579 -1.4663 0.9769
-2.0231 5.2896 -1.4663 0.9769
-2.2090 5.2147 -1.4663 0.9769
-2.7493 4.9512 -1.4663 0.9769
-3.2586 4.6319 -1.4663 0.9769
-3.4205 4.5137 -1.4663 0.9769
-3.5781 4.3898 -1.4663 0.9769
-3.7313 4.2604 -1.4663 0.9769
-4.0233 3.9858 -1.4663 0.9769
-4.1618 3.8409 -1.4663 0.9769
-4.3580 3.7453 -1.4878 0.9765
1.9189 5.3787 -1.6167 0.9765
1.3237 5.4927 -1.5995 0.9768
1.1039 5.4158 -1.5647 0.9773
0.6905 5.2699 -1.5046 0.9781
0.1247 5.1781 -1.4663 0.9787
-0.0586 5.1793 -1.4663 0.9787
-0.2418 5.1740 -1.4663 0.9787
-0.4248 5.1622 -1.4663 0.9787
-0.6072 5.1439 -1.4663 0.9787
-0.7889 5.1192 -1.4663 0.9787
-1.5034 4.9567 -1.4663 0.9787
-1.8503 4.8379 -1.4663 0.9787
-2.0204 4.7694 -1.4663 0.9787
-2.1879 4.6949 -1.4663 0.9787
-2.3527 4.6145 -1.4663 0.9787
-2.5145 4.5284 -1.4663 0.9787
-4.1013 3.7851 -1.5799 0.9771
-4.3172 3.7102 -1.6115 0.9766
1.5918 5.0162 -1.6187 0.9782
1.4129 5.0682 -1.6183 0.9782
1.2313 5.1095 -1.6166 0.9782
0.8651 5.1735 -1.6133 0.9783
0.6808 5.1961 -1.6119 0.9783
0.1216 5.0448 -1.5521 0.9791
-0.2305 4.9315 -1.5185 0.9796
-0.4013 4.8760 -1.5048 0.9797
-0.7346 4.7667 -1.4834 0.9800
-0.8980 4.7125 -1.4756 0.9801
-1.0605 4.6613 -1.4704 0.9802
-1.3839 4.5627 -1.4665 0.9802
-1.7067 4.4625 -1.4695 0.9802
-1.8682 4.4102 -1.4732 0.9802
-2.5324 4.2029 -1.5093 0.9797
-3.2584 3.9975 -1.5863 0.9786
-3.5915 3.8193 -1.6125 0.9783
-3.8600 3.5624 -1.6156 0.9783
-3.9880 3.4273 -1.6174 0.9782
1.6362 4.5866 -1.6187 0.9797
1.4729 4.6416 -1.6187 0.9797
1.1409 4.7342 -1.6187 0.9797
0.9726 4.7716 -1.6187 0.9797
0.6322 4.8247 -1.6175 0.9797
-0.3976 4.8317 -1.6115 0.9798
-0.7313 4.7457 -1.5961 0.9800
-0.8941 4.6919 -1.5877 0.9801
-1.5371 4.4890 -1.5772 0.9802
-1.6981 4.4400 -1.5801 0.9802
-1.8598 4.3904 -1.5849 0.9801
-2.0226 4.3402 -1.5917 0.9800
-2.1868 4.2892 -1.6004 0.9799
-2.3528 4.2372 -1.6110 0.9798
-2.6492 4.0640 -1.6126 0.9798
-2.7929 3.9700 -1.6135 0.9797
-3.2046 3.6591 -1.6168 0.9797
-3.4595 3.4273 -1.6187 0.9797
-3.5787 3.3027 -1.6187 0.9797
-3.6933 3.1740 -1.6187 0.9797
1.5209 4.2633 -1.6187 0.9810
1.3691 4.3145 -1.6187 0.9810
1.2156 4.3602 -1.6187 0.9810
1.0605 4.4005 -1.6187 0.9810
0.4289 4.5062 -1.6187 0.9810
0.2691 4.5185 -1.6187 0.9810
-0.0512 4.5251 -1.6183 0.9810
-0.2112 4.5183 -1.6175 0.9810
-0.3708 4.5061 -1.6169 0.9810
-0.5299 4.4885 -1.6163 0.9810
-0.6882 4.4656 -1.6158 0.9810
-1.1570 4.3650 -1.6149 0.9810
-1.3107 4.3212 -1.6148 0.9810
-2.0526 4.0259 -1.6160 0.9810
-2.4705 3.7899 -1.6178 0.9810
-2.6045 3.7021 -1.6187 0.9810
-2.8599 3.5087 -1.6187 0.9810
-2.9823 3.4053 -1.6187 0.9810
-3.1010 3.2976 -1.6187 0.9810
-3.3265 3.0700 -1.6187 0.9810
-3.4330 2.9503 -1.6187 0.9810
1.4193 3.9784 -1.6187 0.9821
1.2776 4.0261 -1.6187 0.9821
1.1343 4.0688 -1.6187 0.9821
0.6966 4.1662 -1.6187 0.9821
0.2511 4.2165 -1.6187 0.9821
0.1018 4.2228 -1.6187 0.9821
-0.1972 4.2194 -1.6187 0.9821
-1.0822 4.0830 -1.6187 0.9821
-1.5089 3.9453 -1.6187 0.9821
-1.6476 3.8895 -1.6187 0.9821
-2.3067 3.5386 -1.6187 0.9821
-2.6688 3.2742 -1.6187 0.9821
-2.7830 3.1777 -1.6187 0.9821
-3.0008 2.9728 -1.6187 0.9821
-3.1041 2.8648 -1.6187 0.9821
-3.2036 2.7532 -1.6187 0.9821
1.3289 3.7251 -1.6187 0.9831
1.1963 3.7698 -1.6187 0.9831
0.6523 3.9009 -1.6187 0.9831
0.5138 3.9216 -1.6187 0.9831
0.0953 3.9539 -1.6187 0.9831
-0.0447 3.9548 -1.6187 0.9831
-0.1847 3.9508 -1.6187 0.9831
-0.4637 3.9278 -1.6187 0.9831
-0.6024 3.9090 -1.6187 0.9831
-0.7404 3.8852 -1.6187 0.9831
-0.8774 3.8566 -1.6187 0.9831
-1.0133 3.8231 -1.6187 0.9831
-1.1480 3.7848 -1.6187 0.9831
-1.4129 3.6941 -1.6187 0.9831
-1.5427 3.6418 -1.6187 0.9831
-2.4989 3.0657 -1.6187 0.9831
-2.8097 2.7836 -1.6187 0.9831
-2.9065 2.6824 -1.6187 0.9831
-2.9996 2.5778 -1.6187 0.9831
1.2480 3.4982 -1.6187 0.9839
1.1234 3.5402 -1.6187 0.9839
0.8702 3.6108 -1.6187 0.9839
0.7418 3.6394 -1.6187 0.9839
0.6126 3.6633 -1.6187 0.9839
0.4825 3.6827 -1.6187 0.9839
0.3519 3.6975 -1.6187 0.9839
0.2208 3.7076 -1.6187 0.9839
0.0895 3.7131 -1.6187 0.9839
-0.0420 3.7140 -1.6187 0.9839
-0.3046 3.7017 -1.6187 0.9839
-0.6953 3.6486 -1.6187 0.9839
-1.0781 3.5543 -1.6187 0.9839
-1.4488 3.4200 -1.6187 0.9839
-1.6871 3.3090 -1.6187 0.9839
-1.8031 3.2472 -1.6187 0.9839
-1.9169 3.1813 -1.6187 0.9839
-2.0283 3.1115 -1.6187 0.9839
-2.1371 3.0378 -1.6187 0.9839
-2.5445 2.7058 -1.6187 0.9839
-2.6386 2.6141 -1.6187 0.9839
-2.8169 2.4209 -1.6187 0.9839
1.1750 3.2937 -1.6187 0.9847
1.0577 3.3332 -1.6187 0.9847
0.6985 3.4266 -1.6187 0.9847
0.5767 3.4491 -1.6187 0.9847
0.3313 3.4813 -1.6187 0.9847
0.2079 3.4908 -1.6187 0.9847
-0.0396 3.4968 -1.6187 0.9847
-0.2868 3.4853 -1.6187 0.9847
-0.6546 3.4352 -1.6187 0.9847
-0.8960 3.3803 -1.6187 0.9847
-1.0151 3.3465 -1.6187 0.9847
-1.1329 3.3085 -1.6187 0.9847
-1.9097 2.9296 -1.6187 0.9847
-2.2095 2.7107 -1.6187 0.9847
-2.3040 2.6308 -1.6187 0.9847
-2.6522 2.2793 -1.6187 0.9847
1.1088 3.1081 -1.6187 0.9854
0.8862 3.1788 -1.6187 0.9854
0.7731 3.2081 -1.6187 0.9854
0.6591 3.2335 -1.6187 0.9854
0.5443 3.2548 -1.6187 0.9854
0.4287 3.2720 -1.6187 0.9854
0.3127 3.2851 -1.6187 0.9854
-0.0373 3.2998 -1.6187 0.9854
-0.1541 3.2964 -1.6187 0.9854
-0.2706 3.2889 -1.6187 0.9854
-0.3869 3.2772 -1.6187 0.9854
-0.6177 3.2417 -1.6187 0.9854
-0.8455 3.1898 -1.6187 0.9854
-0.9578 3.1579 -1.6187 0.9854
-1.0690 3.1220 -1.6187 0.9854
-1.1788 3.0823 -1.6187 0.9854
-1.2872 3.0386 -1.6187 0.9854
-1.3939 2.9912 -1.6187 0.9854
-1.6020 2.8851 -1.6187 0.9854
-1.7031 2.8266 -1.6187 0.9854
-2.3443 2.3225 -1.6187 0.9854
-2.4251 2.2381 -1.6187 0.9854
0.9438 2.9741 -1.6187 0.9860
0.7310 3.0334 -1.6187 0.9860
0.6232 3.0574 -1.6187 0.9860
0.5146 3.0775 -1.6187 0.9860
0.4054 3.0938 -1.6187 0.9860
0.2956 3.1062 -1.6187 0.9860
-0.1457 3.1168 -1.6187 0.9860
-0.4752 3.0839 -1.6187 0.9860
-0.6922 3.0425 -1.6187 0.9860
-1.1146 2.9144 -1.6187 0.9860
-1.2171 2.8731 -1.6187 0.9860
-1.3180 2.8282 -1.6187 0.9860
-1.5147 2.7279 -1.6187 0.9860
-1.7039 2.6139 -1.6187 0.9860
-1.8846 2.4869 -1.6187 0.9860
-2.0558 2.3473 -1.6187 0.9860
-2.2930 2.1162 -1.6187 0.9860
-2.3665 2.0337 -1.6187 0.9860
0.9930 2.7836 -1.6187 0.9866
0.8939 2.8170 -1.6187 0.9866
0.7937 2.8469 -1.6187 0.9866
0.6924 2.8732 -1.6187 0.9866
0.5903 2.8959 -1.6187 0.9866
0.4874 2.9150 -1.6187 0.9866
0.2800 2.9422 -1.6187 0.9866
-0.1380 2.9522 -1.6187 0.9866
-0.2424 2.9455 -1.6187 0.9866
-0.4501 2.9210 -1.6187 0.9866
-0.5532 2.9032 -1.6187 0.9866
-0.7572 2.8568 -1.6187 0.9866
-0.9574 2.7961 -1.6187 0.9866
-1.1528 2.7214 -1.6187 0.9866
-1.2484 2.6789 -1.6187 0.9866
-1.3424 2.6330 -1.6187 0.9866
-1.4348 2.5839 -1.6187 0.9866
-1.5253 2.5315 -1.6187 0.9866
-1.6139 2.4759 -1.6187 0.9866
-1.7005 2.4172 -1.6187 0.9866
-1.9472 2.2233 -1.6187 0.9866
-2.0247 2.1530 -1.6187 0.9866
-2.1719 2.0045 -1.6187 0.9866
-1.0012 0.8605 -0.7231 0.9940
0.9421 2.6407 -1.6187 0.9871
0.8480 2.6724 -1.6187 0.9871
0.7529 2.7007 -1.6187 0.9871
0.6568 2.7257 -1.6187 0.9871
0.5600 2.7472 -1.6187 0.9871
0.4624 2.7653 -1.6187 0.9871
0.3642 2.7799 -1.6187 0.9871
0.2656 2.7911 -1.6187 0.9871
-0.5248 2.7541 -1.6187 0.9871
-0.6220 2.7338 -1.6187 0.9871
-0.7183 2.7101 -1.6187 0.9871
-0.8138 2.6830 -1.6187 0.9871
-0.9082 2.6525 -1.6187 0.9871
-1.0936 2.5816 -1.6187 0.9871
-1.1843 2.5413 -1.6187 0.9871
-1.2735 2.4978 -1.6187 0.9871
-1.4470 2.4015 -1.6187 0.9871
-1.6133 2.2931 -1.6187 0.9871
-1.7714 2.1732 -1.6187 0.9871
-1.9918 1.9732 -1.6187 0.9871
-0.9218 0.7922 -0.7017 0.9944
