ply
format ascii 1.0
element vertex 479
property float32 x
property float32 y
property float32 z
property float32 I
end_header
-41.0388 -19.9560 8.0464 0.8308
-34.5310 -19.9282 7.0300 0.8505
-34.3082 -23.1822 7.3010 0.8452
-34.1578 -24.8861 7.4519 0.8423
-35.9266 -28.1745 8.0505 0.8307
-38.3775 -18.6619 6.5375 0.8414
-36.8227 -19.5469 6.3865 0.8448
-35.5668 -20.5260 6.2909 0.8469
-35.0844 -21.9387 6.3390 0.8458
-36.4620 -24.6375 6.7414 0.8369
-33.9521 -24.7363 6.4353 0.8437
-35.5581 -18.8755 5.2424 0.8501
-34.9706 -20.1819 5.2578 0.8497
-34.4098 -21.5170 5.2848 0.8490
-36.9274 -26.9040 5.9496 0.8317
-23.2250 -37.7384 5.7704 0.8363
-37.0732 -21.3954 4.5964 0.8418
-35.0735 -25.5533 4.6598 0.8398
-36.4394 -24.6222 3.7229 0.8382
-25.2940 -22.9043 2.1160 0.8722
-23.9764 -23.3082 2.0735 0.8746
-39.4529 -22.7687 1.7961 0.8333
-23.2249 -37.7383 1.7473 0.8375
-31.3008 -19.5729 0.6236 0.8627
-39.7328 -28.9479 0.8304 0.8215
-32.9136 -18.9948 -0.2140 0.8590
-31.2045 -19.5126 -0.2072 0.8631
-31.8165 -21.4984 -0.2162 0.8576
-33.7537 -28.4565 -0.2486 0.8381
-46.7895 -15.0384 -1.3839 0.8215
-44.2260 -15.9628 -1.3240 0.8285
-41.5617 -16.6867 -1.2611 0.8359
-37.2737 -18.1252 -1.1671 0.8472
-34.8764 -18.5137 -1.1118 0.8538
-31.9883 -21.6145 -1.0871 0.8569
-32.3302 -23.5546 -1.1263 0.8521
-23.6945 -21.4560 -0.9001 0.8799
-35.5858 -34.5940 -1.3975 0.8199
-25.4544 -26.5613 -1.0359 0.8631
-31.3452 5.8568 -1.6172 0.8801
-31.5679 4.7488 -1.6190 0.8800
-2.9616 0.1277 -0.1503 0.9882
-2.9721 -0.1879 -0.1510 0.9881
-3.0105 -0.2976 -0.1534 0.9880
-31.4661 -5.3803 -1.6189 0.8800
-31.0065 -7.5932 -1.6189 0.8800
-30.3913 -9.7680 -1.6189 0.8800
-30.0264 -10.8376 -1.6189 0.8800
-29.6239 -11.8937 -1.6189 0.8800
-29.1843 -12.9349 -1.6189 0.8800
-28.6224 -13.9183 -1.6141 0.8803
-27.2353 -14.4575 -1.5638 0.8838
-23.9594 -16.1894 -1.4665 0.8906
-23.3713 -17.0275 -1.4665 0.8906
-22.7538 -17.8440 -1.4665 0.8906
-19.6359 -16.5543 -1.3025 0.9022
-21.4340 -19.4091 -1.4664 0.8906
-20.7335 -20.1556 -1.4664 0.8906
-20.0069 -20.8768 -1.4664 0.8906
-19.2552 -21.5719 -1.4664 0.8906
-18.4886 -22.2509 -1.4671 0.8906
-17.7452 -22.9638 -1.4718 0.8903
-16.9782 -23.6570 -1.4767 0.8899
-2.4762 0.4627 -0.1847 0.9899
-2.4102 0.2757 -0.1779 0.9903
-2.4068 0.1038 -0.1766 0.9904
-2.4027 0.0185 -0.1762 0.9904
-2.4052 -0.0667 -0.1764 0.9904
-2.4085 -0.1522 -0.1769 0.9904
-2.4099 -0.2382 -0.1776 0.9903
-2.4561 -0.4200 -0.1827 0.9901
-2.5046 -0.5201 -0.1876 0.9898
-2.5558 -0.6259 -0.1929 0.9895
-21.0197 -6.7559 -1.6189 0.9153
-20.7673 -7.4957 -1.6189 0.9153
-20.1848 -8.9462 -1.6189 0.9153
-19.1225 -11.0358 -1.6188 0.9153
-18.2936 -12.3611 -1.6188 0.9153
-17.8446 -13.0009 -1.6188 0.9153
-17.3731 -13.6244 -1.6188 0.9153
-16.3655 -14.8194 -1.6188 0.9153
-15.2418 -15.9046 -1.6152 0.9154
-12.5161 -16.1968 -1.5009 0.9212
-9.3172 -14.0035 -1.2333 0.9348
-2.1543 0.0929 -0.2070 0.9914
-2.1568 -0.2132 -0.2081 0.9913
-2.1567 -0.2906 -0.2089 0.9913
-2.1998 -0.4568 -0.2157 0.9910
-2.2258 -0.5451 -0.2200 0.9908
-15.6478 -6.2824 -1.6188 0.9345
-15.1640 -7.3738 -1.6188 0.9345
-14.8934 -7.9060 -1.6188 0.9345
-14.6042 -8.4283 -1.6188 0.9345
-12.8915 -10.8684 -1.6188 0.9345
-12.0901 -11.7532 -1.6188 0.9345
-11.6665 -12.1738 -1.6188 0.9345
-11.2282 -12.5792 -1.6188 0.9345
-10.3100 -13.3420 -1.6188 0.9345
-9.3401 -14.0380 -1.6188 0.9345
-8.8373 -14.3598 -1.6188 0.9345
-2.0213 0.3777 -0.2443 0.9918
-2.0092 0.2298 -0.2402 0.9919
-2.0021 0.0863 -0.2380 0.9920
-1.9971 0.0154 -0.2372 0.9920
-2.0003 -0.0555 -0.2377 0.9920
-2.0044 -0.1267 -0.2386 0.9919
-2.0079 -0.1985 -0.2397 0.9919
-2.0108 -0.2709 -0.2410 0.9919
-2.0307 -0.4217 -0.2464 0.9917
-2.0472 -0.5013 -0.2504 0.9915
-2.0798 -0.6685 -0.2595 0.9912
-12.8185 -4.6266 -1.6188 0.9466
-12.6466 -5.0775 -1.6188 0.9466
-12.4590 -5.5220 -1.6188 0.9466
-12.2556 -5.9596 -1.6188 0.9466
-12.0370 -6.3897 -1.6188 0.9466
-11.8032 -6.8118 -1.6188 0.9466
-11.5547 -7.2253 -1.6188 0.9466
-10.7235 -8.4096 -1.6188 0.9466
-10.4190 -8.7839 -1.6188 0.9466
-10.1016 -9.1472 -1.6188 0.9466
-9.4290 -9.8390 -1.6188 0.9466
-9.0748 -10.1666 -1.6188 0.9466
-8.7092 -10.4814 -1.6188 0.9466
-8.3327 -10.7832 -1.6188 0.9466
-7.9457 -11.0713 -1.6188 0.9466
-7.5488 -11.3457 -1.6188 0.9466
-1.9239 0.3595 -0.2773 0.9921
-1.9198 0.2888 -0.2751 0.9922
-1.9151 0.1506 -0.2722 0.9923
-1.9114 0.0824 -0.2711 0.9923
-1.9167 -0.1895 -0.2729 0.9922
-1.9190 -0.2586 -0.2744 0.9922
-1.9206 -0.3284 -0.2761 0.9922
-1.9561 -0.5531 -0.2880 0.9918
-1.9695 -0.6330 -0.2931 0.9917
-10.6023 -4.2568 -1.6188 0.9549
-10.4450 -4.6293 -1.6188 0.9549
-10.2745 -4.9962 -1.6188 0.9549
-10.0912 -5.3568 -1.6188 0.9549
-9.8952 -5.7106 -1.6188 0.9549
-9.6869 -6.0573 -1.6188 0.9549
-9.4664 -6.3964 -1.6188 0.9549
-9.2340 -6.7275 -1.6188 0.9549
-8.9900 -7.0502 -1.6188 0.9549
-8.7348 -7.3640 -1.6188 0.9549
-7.9048 -8.2485 -1.6188 0.9549
-7.6078 -8.5232 -1.6188 0.9549
-7.3013 -8.7871 -1.6188 0.9549
-6.9857 -9.0401 -1.6188 0.9549
-6.3285 -9.5117 -1.6187 0.9549
-1.8359 0.3430 -0.3077 0.9925
-1.8313 0.1441 -0.3026 0.9926
-1.8266 0.0787 -0.3012 0.9926
-1.8212 0.0140 -0.3000 0.9926
-1.8243 -0.0506 -0.3006 0.9926
-1.8293 -0.1156 -0.3020 0.9926
-1.8346 -0.2472 -0.3050 0.9925
-1.8406 -0.3822 -0.3097 0.9924
-1.8499 -0.4530 -0.3138 0.9923
-9.1188 -3.6611 -1.6188 0.9609
-8.9835 -3.9816 -1.6188 0.9609
-8.8369 -4.2971 -1.6188 0.9609
-8.3315 -5.2098 -1.6188 0.9609
-8.1418 -5.5014 -1.6188 0.9609
-7.5126 -6.3336 -1.6188 0.9609
-7.2837 -6.5956 -1.6188 0.9609
-7.0456 -6.8493 -1.6188 0.9609
-6.7987 -7.0944 -1.6188 0.9609
-5.7293 -7.9830 -1.6187 0.9609
-1.7572 0.2643 -0.3340 0.9928
-1.7484 0.0754 -0.3289 0.9929
-1.7464 -0.0484 -0.3284 0.9929
-1.7508 -0.1107 -0.3297 0.9929
-1.7574 -0.3005 -0.3351 0.9928
-1.7733 -0.5014 -0.3464 0.9925
-1.7799 -0.5721 -0.3514 0.9924
-1.7875 -0.6452 -0.3572 0.9923
-7.9922 -3.2088 -1.6188 0.9656
-7.8736 -3.4897 -1.6188 0.9656
-7.6069 -4.0380 -1.6188 0.9656
-7.4592 -4.3048 -1.6188 0.9656
-7.3021 -4.5661 -1.6188 0.9656
-6.7768 -5.3146 -1.6188 0.9656
-6.1752 -6.0030 -1.6188 0.9656
-5.0214 -6.9967 -1.6187 0.9656
-4.7706 -7.1701 -1.6187 0.9656
-4.5138 -7.3344 -1.6187 0.9656
-1.6848 0.3148 -0.3623 0.9930
-1.6848 0.2535 -0.3601 0.9931
-1.6761 0.0723 -0.3546 0.9932
-1.6717 0.0129 -0.3534 0.9932
-1.6815 -0.1662 -0.3572 0.9931
-1.6850 -0.2881 -0.3613 0.9930
-1.7000 -0.5464 -0.3775 0.9927
-1.7046 -0.6152 -0.3831 0.9926
-1.7088 -0.6861 -0.3892 0.9925
-7.0012 -3.1030 -1.6188 0.9692
-6.8870 -3.3489 -1.6188 0.9692
-6.6327 -3.8278 -1.6188 0.9692
-6.3453 -4.2875 -1.6188 0.9692
-6.1895 -4.5094 -1.6188 0.9692
-5.4910 -5.3379 -1.6187 0.9692
-4.8941 -5.8900 -1.6187 0.9692
-4.4651 -6.2215 -1.6187 0.9692
-1.6171 0.3022 -0.3866 0.9933
-1.6146 0.1847 -0.3819 0.9933
-1.6121 0.1268 -0.3801 0.9934
-1.6089 0.0694 -0.3785 0.9934
-1.6072 -0.0446 -0.3779 0.9934
-1.6156 -0.2177 -0.3831 0.9933
-1.6168 -0.2765 -0.3855 0.9933
-1.6166 -0.3357 -0.3881 0.9932
-1.6223 -0.4587 -0.3962 0.9931
-1.6263 -0.5227 -0.4015 0.9930
-1.6321 -0.6553 -0.4133 0.9928
-1.6348 -0.7246 -0.4203 0.9927
-6.1941 -3.0120 -1.6188 0.9721
-6.0836 -3.2294 -1.6188 0.9721
-5.7069 -3.8562 -1.6187 0.9721
-5.4198 -4.2503 -1.6187 0.9721
-5.1054 -4.6231 -1.6187 0.9721
-4.9386 -4.8009 -1.6187 0.9721
-4.7655 -4.9728 -1.6187 0.9721
-4.5865 -5.1383 -1.6187 0.9721
-4.4017 -5.2975 -1.6187 0.9721
-4.0159 -5.5956 -1.6187 0.9721
-3.6099 -5.8657 -1.6187 0.9721
-1.5528 0.2901 -0.4090 0.9935
-1.5524 0.2335 -0.4065 0.9935
-1.5512 0.1775 -0.4042 0.9936
-1.5426 0.0119 -0.3994 0.9936
-1.5448 -0.0428 -0.4001 0.9936
-1.5479 -0.0979 -0.4016 0.9936
-1.5503 -0.1533 -0.4034 0.9936
-1.5528 -0.2655 -0.4079 0.9935
-1.5513 -0.3799 -0.4135 0.9934
-1.5551 -0.4397 -0.4184 0.9933
-1.5582 -0.5008 -0.4238 0.9933
-1.5674 -0.6293 -0.4373 0.9930
-1.5710 -0.6963 -0.4449 0.9929
-5.4149 -3.1250 -1.6187 0.9745
-5.3009 -3.3147 -1.6187 0.9745
-5.0531 -3.6815 -1.6187 0.9745
-4.9196 -3.8581 -1.6187 0.9745
-4.7799 -4.0298 -1.6187 0.9745
-4.6343 -4.1965 -1.6187 0.9745
-4.4828 -4.3579 -1.6187 0.9745
-4.3257 -4.5138 -1.6187 0.9745
-3.8228 -4.9470 -1.6187 0.9745
-3.6453 -5.0792 -1.6187 0.9745
-3.4632 -5.2051 -1.6187 0.9745
-1.4946 0.2248 -0.4279 0.9937
-1.4934 0.1708 -0.4255 0.9938
-1.4856 0.0114 -0.4206 0.9938
-1.4905 -0.0942 -0.4228 0.9938
-1.4942 -0.2013 -0.4268 0.9938
-1.4949 -0.2556 -0.4293 0.9937
-1.4971 -0.4233 -0.4404 0.9936
-1.5017 -0.4827 -0.4465 0.9935
-1.5131 -0.7358 -0.4763 0.9930
-5.0506 -2.6810 -1.6187 0.9765
-4.7378 -3.2014 -1.6187 0.9765
-4.4995 -3.5286 -1.6187 0.9765
-4.1000 -3.9857 -1.6187 0.9765
-3.9563 -4.1284 -1.6187 0.9765
-3.3340 -4.6455 -1.6187 0.9765
-3.1674 -4.7606 -1.6187 0.9765
-2.9969 -4.8697 -1.6187 0.9765
-1.4459 0.2702 -0.4524 0.9939
-1.4394 -0.0399 -0.4429 0.9940
-1.4424 -0.0912 -0.4445 0.9940
-1.4443 -0.1428 -0.4464 0.9939
-1.4452 -0.4086 -0.4619 0.9937
-1.4486 -0.4656 -0.4680 0.9937
-1.4516 -0.5239 -0.4747 0.9936
-1.4554 -0.6451 -0.4896 0.9934
-1.4561 -0.7081 -0.4980 0.9932
-4.6485 -2.4676 -1.6187 0.9782
-1.5640 -0.9026 -0.5554 0.9925
-1.5815 -0.9889 -0.5737 0.9922
-4.3607 -2.9465 -1.6187 0.9782
-4.1413 -3.2477 -1.6187 0.9782
-3.9011 -3.5325 -1.6187 0.9782
-3.5046 -3.9262 -1.6187 0.9782
-3.3634 -4.0478 -1.6187 0.9782
-3.2180 -4.1643 -1.6187 0.9782
-2.9153 -4.3816 -1.6187 0.9782
-2.7583 -4.4821 -1.6187 0.9782
-1.3993 0.2615 -0.4732 0.9940
-1.3975 0.1099 -0.4660 0.9941
-1.3853 0.0106 -0.4605 0.9942
-1.3967 -0.0883 -0.4652 0.9941
-1.3983 -0.1382 -0.4671 0.9941
-1.3993 -0.1886 -0.4693 0.9941
-1.3987 -0.4496 -0.4884 0.9938
-1.4006 -0.5055 -0.4950 0.9937
-1.4027 -0.6217 -0.5100 0.9936
-1.4025 -0.6820 -0.5184 0.9934
-1.4015 -0.7440 -0.5274 0.9933
-4.0350 -2.7264 -1.6187 0.9797
-3.6097 -3.2687 -1.6187 0.9797
-3.3694 -3.5159 -1.6187 0.9797
-2.9776 -3.8533 -1.6187 0.9797
-2.8394 -3.9563 -1.6187 0.9797
-2.6975 -4.0543 -1.6187 0.9797
-2.5523 -4.1473 -1.6187 0.9797
-1.3550 0.2532 -0.4929 0.9942
-1.3465 0.0580 -0.4820 0.9943
-1.3388 0.0103 -0.4788 0.9943
-1.3432 -0.0372 -0.4805 0.9943
-1.3505 -0.0854 -0.4839 0.9943
-1.3553 -0.1826 -0.4890 0.9942
-1.3553 -0.2317 -0.4917 0.9942
-1.3529 -0.3313 -0.4981 0.9941
-1.3505 -0.3819 -0.5019 0.9941
-1.3517 -0.4344 -0.5077 0.9940
-1.3528 -0.4883 -0.5143 0.9939
-1.3531 -0.5433 -0.5214 0.9938
-1.3530 -0.5997 -0.5292 0.9937
-1.3502 -0.7167 -0.5466 0.9935
-1.5183 -0.8762 -0.6269 0.9926
-3.8380 -2.3999 -1.6187 0.9810
-3.5619 -2.7933 -1.6187 0.9810
-3.3553 -3.0383 -1.6187 0.9810
-3.2457 -3.1552 -1.6187 0.9810
-3.1319 -3.2681 -1.6187 0.9810
-2.8929 -3.4815 -1.6187 0.9810
-2.7678 -3.5817 -1.6187 0.9810
-2.6393 -3.6775 -1.6187 0.9810
-2.5074 -3.7686 -1.6187 0.9810
-1.3127 0.2453 -0.5118 0.9943
-1.3133 0.1976 -0.5090 0.9943
-1.3055 -0.0825 -0.5013 0.9944
-1.3115 -0.1296 -0.5050 0.9944
-1.3131 -0.2245 -0.5105 0.9943
-1.3121 -0.2725 -0.5135 0.9943
-1.3102 -0.3209 -0.5169 0.9942
-1.3076 -0.3697 -0.5207 0.9942
-1.3071 -0.4201 -0.5261 0.9941
-1.3076 -0.4719 -0.5327 0.9941
-1.3043 -0.6343 -0.5558 0.9938
-3.5000 -2.3649 -1.6187 0.9821
-3.4140 -2.4874 -1.6187 0.9821
-3.3238 -2.6066 -1.6187 0.9821
-3.0288 -2.9443 -1.6187 0.9821
-2.9226 -3.0497 -1.6187 0.9821
-2.8128 -3.1512 -1.6187 0.9821
-2.6995 -3.2489 -1.6187 0.9821
-2.5828 -3.3424 -1.6187 0.9821
-1.2732 0.1915 -0.5269 0.9945
-1.2627 -0.0798 -0.5178 0.9945
-1.2682 -0.1254 -0.5216 0.9945
-1.2729 -0.1715 -0.5257 0.9945
-1.2728 -0.2176 -0.5285 0.9944
-1.2716 -0.2641 -0.5315 0.9944
-1.2696 -0.3109 -0.5349 0.9944
-1.2667 -0.3582 -0.5388 0.9943
-1.2636 -0.5073 -0.5573 0.9941
-1.2619 -0.5593 -0.5649 0.9941
-1.2559 -0.6667 -0.5820 0.9939
-3.1967 -2.3290 -1.6187 0.9831
-3.0239 -2.5493 -1.6187 0.9831
-2.7366 -2.8555 -1.6187 0.9831
-2.6338 -2.9506 -1.6187 0.9831
-2.5276 -3.0420 -1.6187 0.9831
-2.4184 -3.1296 -1.6187 0.9831
-2.1909 -3.2928 -1.6187 0.9831
-2.0729 -3.3683 -1.6187 0.9831
-1.2337 0.2305 -0.5470 0.9945
-1.2289 0.1406 -0.5391 0.9946
-1.2188 0.0525 -0.5317 0.9947
-1.2126 0.0093 -0.5285 0.9947
-1.2312 -0.1659 -0.5414 0.9946
-1.2328 -0.2560 -0.5487 0.9945
-1.2306 -0.3014 -0.5522 0.9945
-1.2276 -0.3471 -0.5560 0.9944
-1.2240 -0.3934 -0.5603 0.9944
-1.2127 -0.6437 -0.5984 0.9940
-1.2077 -0.6970 -0.6077 0.9939
-3.0775 -2.0795 -1.6187 0.9839
-2.6632 -2.5890 -1.6187 0.9839
-2.5699 -2.6817 -1.6187 0.9839
-2.4733 -2.7709 -1.6187 0.9839
-2.3737 -2.8567 -1.6187 0.9839
-2.2711 -2.9390 -1.6187 0.9839
-2.1656 -3.0175 -1.6187 0.9839
-2.0575 -3.0923 -1.6187 0.9839
-1.9467 -3.1632 -1.6187 0.9839
-1.1893 0.1360 -0.5541 0.9947
-1.1801 0.0509 -0.5467 0.9948
-1.1777 -0.0327 -0.5453 0.9948
-1.1830 -0.0748 -0.5487 0.9948
-1.1876 -0.1174 -0.5524 0.9948
-1.1914 -0.1605 -0.5564 0.9947
-1.1944 -0.2042 -0.5609 0.9947
-1.1956 -0.2483 -0.5653 0.9946
-1.1933 -0.2922 -0.5687 0.9946
-1.1901 -0.3365 -0.5725 0.9946
-1.1861 -0.3812 -0.5767 0.9945
-1.1825 -0.4748 -0.5898 0.9944
-1.1798 -0.5229 -0.5974 0.9943
-1.1597 -0.7252 -0.6331 0.9940
-1.1679 -0.7892 -0.6524 0.9938
-2.5922 -2.3473 -1.6187 0.9847
-2.5075 -2.4376 -1.6187 0.9847
-2.3287 -2.6089 -1.6187 0.9847
-2.1383 -2.7671 -1.6187 0.9847
-2.0390 -2.8411 -1.6187 0.9847
-1.1376 0.0087 -0.5581 0.9949
-1.1408 -0.0316 -0.5598 0.9949
-1.1533 -0.1554 -0.5708 0.9948
-1.1578 -0.2404 -0.5800 0.9947
-1.1575 -0.2834 -0.5845 0.9947
-1.1500 -0.3696 -0.5925 0.9946
-1.1416 -0.5060 -0.6125 0.9945
-1.1376 -0.5532 -0.6205 0.9944
-1.1327 -0.6013 -0.6291 0.9943
-1.1268 -0.6503 -0.6382 0.9942
-1.1199 -0.7003 -0.6479 0.9941
-1.1453 -0.8344 -0.6951 0.9937
-2.5230 -2.1270 -1.6187 0.9854
-2.3662 -2.3002 -1.6187 0.9854
-2.1090 -2.5381 -1.6187 0.9854
-2.0178 -2.6112 -1.6187 0.9854
-1.7296 -2.8104 -1.6187 0.9854
-1.1117 0.0874 -0.5785 0.9950
-1.1206 -0.2327 -0.5937 0.9949
-1.1212 -0.2746 -0.5989 0.9948
-1.1083 -0.4450 -0.6196 0.9946
-1.1049 -0.4897 -0.6270 0.9946
-1.0954 -0.5815 -0.6434 0.9944
-1.0669 -0.7209 -0.6680 0.9942
-2.3856 -2.0112 -1.6187 0.9860
-2.3129 -2.0944 -1.6187 0.9860
-1.9079 -2.4690 -1.6187 0.9860
-1.6354 -2.6573 -1.6187 0.9860
-1.0843 0.2026 -0.6042 0.9950
-1.0827 0.1629 -0.5997 0.9950
-1.0803 0.1236 -0.5955 0.9951
-1.0732 0.0463 -0.5883 0.9951
-1.0713 -0.0297 -0.5870 0.9951
-1.0817 -0.1458 -0.5978 0.9950
-1.0837 -0.1853 -0.6022 0.9950
-1.0849 -0.2253 -0.6069 0.9950
-1.0847 -0.3067 -0.6174 0.9949
-1.0818 -0.3477 -0.6224 0.9948
-1.0767 -0.3886 -0.6269 0.9948
-1.0652 -0.5180 -0.6487 0.9946
-1.0353 -0.6474 -0.6688 0.9944
-1.0172 -0.6873 -0.6724 0.9944
-0.9978 -0.7269 -0.6761 0.9944
-0.9770 -0.7662 -0.6800 0.9944
-2.1908 -1.9838 -1.6187 0.9866
-2.1192 -2.0601 -1.6187 0.9866
-2.0449 -2.1338 -1.6187 0.9866
-1.6372 -2.4606 -1.6187 0.9866
-1.5490 -2.5170 -1.6187 0.9866
-1.0502 0.1962 -0.6168 0.9951
-1.0468 0.1197 -0.6083 0.9951
-1.0424 -0.0659 -0.6030 0.9952
-1.0456 -0.1034 -0.6066 0.9952
-1.0480 -0.1412 -0.6106 0.9951
-1.0497 -0.1795 -0.6148 0.9951
-1.0506 -0.2573 -0.6245 0.9950
-1.0499 -0.2969 -0.6299 0.9950
-1.0443 -0.3769 -0.6410 0.9949
-1.0360 -0.4592 -0.6543 0.9948
-1.0197 -0.5413 -0.6665 0.9947
-1.0046 -0.5798 -0.6697 0.9947
-0.9884 -0.6181 -0.6730 0.9946
-0.9521 -0.6936 -0.6801 0.9946
-0.9320 -0.7309 -0.6838 0.9945
-0.9169 -0.7730 -0.6924 0.9945
-1.9399 -2.0242 -1.6187 0.9871
-1.8670 -2.0916 -1.6187 0.9871
-1.7918 -2.1564 -1.6187 0.9871
-1.5531 -2.3342 -1.6187 0.9871
-1.4695 -2.3877 -1.6187 0.9871
