ply
format ascii 1.0
element vertex 488
property float32 x
property float32 y
property float32 z
property float32 I
end_header
-21.5004 -38.2145 7.7315 0.8369
-19.9526 -38.6418 7.6683 0.8381
-18.4889 -39.1916 7.6409 0.8386
-15.4312 -39.8901 7.5416 0.8405
-14.6990 -42.4604 7.9228 0.8332
-13.1360 -42.8553 7.9036 0.8336
-8.0587 -41.9254 7.5279 0.8408
-6.5958 -42.4751 7.5793 0.8398
-5.0824 -42.7928 7.5986 0.8394
-2.0297 -43.5900 7.6944 0.8376
-32.7640 -36.7930 7.5474 0.8193
-23.0759 -37.7795 6.7818 0.8360
-19.9526 -38.6418 6.6623 0.8386
-18.4889 -39.1916 6.6385 0.8392
-16.9223 -39.4784 6.5801 0.8405
-15.4312 -39.8901 6.5522 0.8411
-14.6991 -42.4604 6.8834 0.8337
-8.0587 -41.9254 6.5403 0.8413
-3.5638 -43.1665 6.6354 0.8392
-0.4704 -44.0205 6.7441 0.8368
1.1430 -45.4264 6.9613 0.8320
2.7311 -44.7176 6.8633 0.8342
4.3891 -45.1810 6.9541 0.8322
-19.9075 -38.5543 5.6504 0.8394
-18.3863 -38.9742 5.6117 0.8404
-16.8629 -39.3397 5.5737 0.8414
-15.3770 -39.7500 5.5501 0.8420
-12.4333 -40.5627 5.5247 0.8427
-8.0304 -41.7782 5.5400 0.8423
-5.0627 -42.6266 5.5899 0.8410
-3.5557 -43.0687 5.6275 0.8400
-2.0239 -43.4656 5.6663 0.8390
-0.4704 -44.0205 5.7327 0.8373
2.7311 -44.7176 5.8340 0.8347
4.3891 -45.1810 5.9112 0.8327
-23.0758 -37.7794 4.7537 0.8369
-21.5003 -38.2144 4.7084 0.8383
-19.9526 -38.6417 4.6699 0.8395
-18.4471 -39.1030 4.6427 0.8403
-16.9223 -39.4783 4.6123 0.8413
-15.4311 -39.8900 4.5928 0.8419
-13.9507 -40.2987 4.5793 0.8423
-12.4899 -40.7476 4.5765 0.8424
-11.0427 -41.2473 4.5852 0.8422
-9.5348 -41.5178 4.5743 0.8425
-3.5637 -43.1653 4.6509 0.8401
-1.0223 -21.9548 2.3601 0.9154
4.3891 -45.1810 4.8744 0.8331
-19.9053 -38.5502 3.6727 0.8402
-16.9010 -39.4287 3.6315 0.8418
-15.2471 -39.4142 3.5775 0.8440
-12.3933 -40.4323 3.5799 0.8439
-9.5229 -41.4657 3.6016 0.8430
-6.5657 -42.2810 3.6221 0.8422
-3.5592 -43.1110 3.6619 0.8406
-2.0245 -43.4795 3.6846 0.8397
4.3891 -45.1810 3.8427 0.8334
-23.9781 -23.3240 2.0743 0.8745
-23.0758 -37.7795 2.7452 0.8374
-21.5003 -38.2144 2.7190 0.8388
-19.9526 -38.6417 2.6968 0.8401
-15.2826 -39.5061 2.6267 0.8439
-12.4009 -40.4571 2.6240 0.8440
-8.0587 -41.9253 2.6474 0.8427
-6.5808 -42.3779 2.6594 0.8421
-5.0938 -42.8886 2.6782 0.8411
-0.4704 -44.0192 2.7298 0.8383
2.7311 -44.7176 2.7781 0.8356
4.3891 -45.1810 2.8149 0.8337
-23.0758 -37.7794 1.7456 0.8376
-21.5003 -38.2144 1.7290 0.8390
-19.9526 -38.6417 1.7148 0.8402
-16.5194 -35.0168 1.5267 0.8564
-13.9507 -40.2987 1.6815 0.8431
-11.0427 -41.2472 1.6837 0.8429
-9.5349 -41.5178 1.6797 0.8432
-6.5957 -42.4739 1.6949 0.8419
-3.5636 -43.1653 1.7078 0.8408
-2.0296 -43.5888 1.7206 0.8397
-0.4704 -44.0192 1.7358 0.8384
2.7311 -44.7176 1.7665 0.8358
-16.5194 -35.0168 0.6540 0.8565
-16.9222 -39.4783 0.7255 0.8421
-11.6655 -38.0581 0.6724 0.8528
-8.0587 -41.9253 0.7212 0.8430
-6.5808 -42.3779 0.7244 0.8423
-5.0870 -42.8312 0.7286 0.8415
-3.5636 -43.1653 0.7316 0.8409
-2.0296 -43.5888 0.7371 0.8398
2.7311 -44.7176 0.7568 0.8359
-35.4267 -34.4604 -0.2783 0.8206
-23.0758 -37.7794 -0.2492 0.8377
-21.5003 -38.2144 -0.2469 0.8391
-19.9526 -38.6417 -0.2448 0.8403
-16.5194 -35.0168 -0.2180 0.8565
-13.9967 -40.4317 -0.2409 0.8427
-9.5348 -41.5178 -0.2398 0.8433
-8.0587 -41.9253 -0.2404 0.8430
-6.5957 -42.4739 -0.2420 0.8420
-5.0870 -42.8312 -0.2428 0.8415
-3.5637 -43.1652 -0.2439 0.8409
-2.0296 -43.5887 -0.2457 0.8398
-0.4704 -44.0192 -0.2478 0.8385
2.7311 -44.7176 -0.2522 0.8359
-33.9611 -28.5984 -1.2502 0.8372
-35.5939 -34.6230 -1.3982 0.8198
-25.4398 -26.5854 -1.0361 0.8631
-29.1261 -37.8516 -1.3448 0.8260
-23.0758 -37.7794 -1.2465 0.8377
-7.9147 -14.0675 -0.4545 0.9375
-6.6184 -14.0293 -0.4368 0.9398
-6.1134 -14.2622 -0.4369 0.9398
-7.9362 -25.8913 -0.7625 0.8973
-11.0064 -41.1115 -1.1984 0.8434
-9.5348 -41.5178 -1.1995 0.8433
-2.0769 -13.3748 -0.3811 0.9473
-1.5735 -13.2483 -0.3757 0.9480
-1.1087 -13.4295 -0.3794 0.9475
-0.4704 -44.0192 -1.2396 0.8385
-19.6378 -16.5369 -1.3020 0.9023
-20.7295 -20.1640 -1.4666 0.8906
-19.2317 -21.5966 -1.4666 0.8906
-18.4571 -22.2860 -1.4675 0.8906
-17.7034 -23.0068 -1.4722 0.8902
-16.9251 -23.7072 -1.4772 0.8899
-6.5068 -13.7927 -0.7734 0.9407
-9.8907 -28.5710 -1.5333 0.8860
-7.9372 -25.8944 -1.3735 0.8972
-3.1457 -13.6974 -0.7127 0.9453
-2.0522 -13.2155 -0.6782 0.9478
-1.5548 -13.0911 -0.6686 0.9486
-1.0704 -12.9652 -0.6598 0.9492
-0.6167 -13.2455 -0.6725 0.9483
1.8101 -29.6296 -1.5054 0.8879
-17.3881 -13.6080 -1.6189 0.9153
-16.3685 -14.8183 -1.6189 0.9153
-15.2294 -15.9152 -1.6151 0.9154
-14.4007 -16.1716 -1.5877 0.9168
-13.4090 -16.1907 -1.5414 0.9191
-11.6209 -16.2775 -1.4664 0.9229
-7.8040 -13.8707 -1.1669 0.9382
-7.1319 -13.8122 -1.1398 0.9396
-6.5894 -13.9679 -1.1324 0.9399
-5.4481 -14.0836 -1.1072 0.9412
-6.5423 -18.8985 -1.4664 0.9229
-4.2086 -13.7302 -1.0530 0.9440
-3.0757 -13.3925 -1.0075 0.9464
-2.5497 -13.2647 -0.9904 0.9473
-2.0412 -13.1445 -0.9753 0.9480
-0.5921 -12.7168 -0.9334 0.9502
-0.1347 -12.6081 -0.9245 0.9507
0.3471 -13.7961 -1.0119 0.9462
1.2191 -19.9599 -1.4662 0.9229
-13.2793 -10.3925 -1.6189 0.9345
-12.0871 -11.7574 -1.6189 0.9345
-11.6580 -12.1830 -1.6189 0.9345
-11.2139 -12.5929 -1.6188 0.9345
-10.7554 -12.9866 -1.6188 0.9345
-10.2830 -13.3636 -1.6188 0.9345
-9.2994 -14.0656 -1.6188 0.9345
-8.7893 -14.3897 -1.6188 0.9345
-8.2680 -14.6954 -1.6188 0.9345
-6.0597 -15.6646 -1.6125 0.9347
-3.6432 -13.6082 -1.3525 0.9450
-2.5638 -13.3383 -1.3040 0.9469
-1.5526 -13.0725 -1.2638 0.9485
-0.5943 -12.7630 -1.2266 0.9500
-0.1353 -12.6588 -1.2154 0.9504
0.3842 -15.2679 -1.4663 0.9405
1.4767 -15.2009 -1.4662 0.9405
-10.1031 -9.1462 -1.6188 0.9466
-9.7688 -9.5024 -1.6188 0.9466
-9.4220 -9.8463 -1.6188 0.9466
-7.9184 -11.0913 -1.6188 0.9466
-7.5158 -11.3679 -1.6188 0.9466
-6.6822 -11.8769 -1.6188 0.9466
-6.2523 -12.1087 -1.6188 0.9466
-4.9166 -12.7096 -1.6187 0.9466
-4.4580 -12.8775 -1.6187 0.9466
-3.0502 -13.2814 -1.6187 0.9466
-2.5722 -13.3821 -1.6187 0.9466
-1.6071 -13.5318 -1.6187 0.9466
-1.0651 -12.9011 -1.5377 0.9492
1.3175 -13.5627 -1.6186 0.9466
-8.9973 -7.0414 -1.6188 0.9549
-8.7392 -7.3593 -1.6188 0.9549
-7.8988 -8.2546 -1.6188 0.9549
-7.5980 -8.5323 -1.6188 0.9549
-6.3008 -9.5302 -1.6188 0.9549
-5.6020 -9.9570 -1.6188 0.9549
-5.2416 -10.1513 -1.6188 0.9549
-4.8744 -10.3325 -1.6187 0.9549
-4.5010 -10.5005 -1.6187 0.9549
-4.1218 -10.6551 -1.6187 0.9549
-3.3480 -10.9228 -1.6187 0.9549
-2.9545 -11.0357 -1.6187 0.9549
-2.5571 -11.1345 -1.6187 0.9549
-1.7530 -11.2889 -1.6187 0.9549
-1.3474 -11.3445 -1.6187 0.9549
-0.9400 -11.3854 -1.6187 0.9549
-0.5313 -11.4117 -1.6187 0.9549
-0.1221 -11.4234 -1.6187 0.9549
1.1046 -11.3704 -1.6186 0.9549
-7.7384 -6.0561 -1.6188 0.9609
-7.5163 -6.3295 -1.6188 0.9609
-7.0437 -6.8515 -1.6188 0.9609
-6.7936 -7.0995 -1.6188 0.9609
-6.5348 -7.3384 -1.6188 0.9609
-5.9924 -7.7876 -1.6188 0.9609
-5.4192 -8.1967 -1.6188 0.9609
-4.8182 -8.5638 -1.6187 0.9609
-4.5082 -8.7309 -1.6187 0.9609
-3.8712 -9.0313 -1.6187 0.9609
-2.5411 -9.4916 -1.6187 0.9609
-1.1588 -9.7572 -1.6187 0.9610
-0.8085 -9.7924 -1.6187 0.9610
-0.1050 -9.8251 -1.6187 0.9610
0.5990 -9.8073 -1.6187 0.9610
-6.7823 -5.3079 -1.6188 0.9656
-6.5877 -5.5475 -1.6188 0.9656
-6.3847 -5.7800 -1.6188 0.9656
-5.9542 -6.2224 -1.6188 0.9656
-5.7274 -6.4317 -1.6188 0.9656
-5.2520 -6.8254 -1.6188 0.9656
-5.0041 -7.0092 -1.6187 0.9656
-4.7496 -7.1840 -1.6187 0.9656
-4.2229 -7.5057 -1.6187 0.9656
-3.6744 -7.7888 -1.6187 0.9656
-3.3929 -7.9155 -1.6187 0.9656
-3.1071 -8.0320 -1.6187 0.9656
-2.5238 -8.2338 -1.6187 0.9656
-2.2271 -8.3189 -1.6187 0.9656
-1.9276 -8.3934 -1.6187 0.9656
-1.6256 -8.4570 -1.6187 0.9656
-1.0157 -8.5517 -1.6187 0.9656
-0.7086 -8.5826 -1.6187 0.9656
-0.0920 -8.6112 -1.6187 0.9656
0.2166 -8.6090 -1.6187 0.9656
0.8327 -8.5713 -1.6187 0.9656
-6.0308 -4.7197 -1.6188 0.9692
-5.8578 -4.9328 -1.6188 0.9692
-5.6772 -5.1396 -1.6188 0.9692
-5.4894 -5.3397 -1.6188 0.9692
-5.0928 -5.7191 -1.6188 0.9692
-4.8846 -5.8979 -1.6187 0.9692
-4.6701 -6.0692 -1.6187 0.9692
-4.4496 -6.2326 -1.6187 0.9692
-3.9918 -6.5353 -1.6187 0.9692
-3.7550 -6.6741 -1.6187 0.9692
-3.5134 -6.8043 -1.6187 0.9692
-2.2442 -7.3216 -1.6187 0.9692
-1.1750 -7.5670 -1.6187 0.9692
-0.9031 -7.6042 -1.6187 0.9692
-0.6300 -7.6317 -1.6187 0.9692
-0.3562 -7.6493 -1.6187 0.9692
-0.0818 -7.6572 -1.6187 0.9692
0.4668 -7.6433 -1.6187 0.9692
0.7404 -7.6217 -1.6187 0.9692
-5.4241 -4.2449 -1.6188 0.9721
-5.2685 -4.4366 -1.6188 0.9721
-5.1061 -4.6225 -1.6188 0.9721
-4.9372 -4.8025 -1.6188 0.9721
-3.7985 -5.7454 -1.6187 0.9721
-3.5902 -5.8778 -1.6187 0.9721
-3.3772 -6.0027 -1.6187 0.9721
-3.1600 -6.1198 -1.6187 0.9721
-2.7135 -6.3304 -1.6187 0.9721
-2.4849 -6.4236 -1.6187 0.9721
-2.0184 -6.5850 -1.6187 0.9721
-1.7812 -6.6531 -1.6187 0.9721
-1.5416 -6.7126 -1.6187 0.9721
-0.0736 -6.8869 -1.6187 0.9721
0.1732 -6.8851 -1.6187 0.9721
0.6659 -6.8550 -1.6187 0.9721
-4.7822 -4.0271 -1.6187 0.9745
-4.6349 -4.1959 -1.6187 0.9745
-4.4815 -4.3593 -1.6187 0.9745
-4.3224 -4.5171 -1.6187 0.9745
-4.1577 -4.6690 -1.6187 0.9745
-3.8127 -4.9548 -1.6187 0.9745
-3.4480 -5.2151 -1.6187 0.9745
-3.0655 -5.4487 -1.6187 0.9745
-2.6674 -5.6542 -1.6187 0.9745
-2.4631 -5.7462 -1.6187 0.9745
-2.2556 -5.8307 -1.6187 0.9745
-2.0452 -5.9078 -1.6187 0.9745
-1.1801 -6.1394 -1.6187 0.9745
-0.9593 -6.1777 -1.6187 0.9745
-0.7373 -6.2081 -1.6187 0.9745
-0.5144 -6.2305 -1.6187 0.9745
-0.2908 -6.2449 -1.6187 0.9745
-0.0668 -6.2513 -1.6187 0.9745
0.1573 -6.2497 -1.6187 0.9745
0.3811 -6.2400 -1.6187 0.9745
-4.0988 -3.9870 -1.6187 0.9765
-3.8027 -4.2703 -1.6187 0.9765
-3.4870 -4.5317 -1.6187 0.9765
-3.3224 -4.6537 -1.6187 0.9765
-2.8037 -4.9834 -1.6187 0.9765
-2.4396 -5.1714 -1.6187 0.9765
-2.2527 -5.2555 -1.6187 0.9765
-2.0629 -5.3328 -1.6187 0.9765
-1.8705 -5.4033 -1.6187 0.9765
-1.6757 -5.4668 -1.6187 0.9765
-1.4787 -5.5234 -1.6187 0.9765
-1.2798 -5.5728 -1.6187 0.9765
-1.0793 -5.6151 -1.6187 0.9765
-0.8774 -5.6501 -1.6187 0.9765
-0.6744 -5.6779 -1.6187 0.9765
-0.4704 -5.6984 -1.6187 0.9765
0.1438 -5.7160 -1.6187 0.9765
0.3486 -5.7071 -1.6187 0.9765
0.5528 -5.6910 -1.6187 0.9765
-4.0256 -3.3900 -1.6187 0.9782
-3.9016 -3.5320 -1.6187 0.9782
-3.5000 -3.9303 -1.6187 0.9782
-3.3568 -4.0532 -1.6187 0.9782
-3.2094 -4.1709 -1.6187 0.9782
-3.0579 -4.2832 -1.6187 0.9782
-2.9025 -4.3901 -1.6187 0.9782
-2.4145 -4.6762 -1.6187 0.9782
-1.7216 -4.9732 -1.6187 0.9782
-1.5423 -5.0316 -1.6187 0.9782
-1.1779 -5.1292 -1.6187 0.9782
-0.8075 -5.2003 -1.6187 0.9782
-0.6207 -5.2259 -1.6187 0.9782
-0.4330 -5.2448 -1.6187 0.9782
-0.2448 -5.2569 -1.6187 0.9782
0.1324 -5.2609 -1.6187 0.9782
0.5088 -5.2379 -1.6187 0.9782
-3.4907 -3.3955 -1.6187 0.9797
-3.3668 -3.5184 -1.6187 0.9797
-3.1061 -3.7505 -1.6187 0.9797
-2.9697 -3.8594 -1.6187 0.9797
-2.8295 -3.9633 -1.6187 0.9797
-2.6857 -4.0622 -1.6187 0.9797
-2.0777 -4.4042 -1.6187 0.9797
-1.9185 -4.4758 -1.6187 0.9797
-1.5930 -4.6017 -1.6187 0.9797
-1.0900 -4.7461 -1.6187 0.9797
-0.7472 -4.8119 -1.6187 0.9797
-0.4007 -4.8531 -1.6187 0.9797
-0.2265 -4.8643 -1.6187 0.9797
0.2969 -4.8605 -1.6187 0.9797
-3.5647 -2.7897 -1.6187 0.9810
-3.3557 -3.0379 -1.6187 0.9810
-2.3595 -3.8629 -1.6187 0.9810
-2.2195 -3.9450 -1.6187 0.9810
-1.9312 -4.0938 -1.6187 0.9810
-1.7833 -4.1604 -1.6187 0.9810
-1.6331 -4.2216 -1.6187 0.9810
-1.3265 -4.3277 -1.6187 0.9810
-1.0131 -4.4116 -1.6187 0.9810
-0.8544 -4.4451 -1.6187 0.9810
-0.6946 -4.4728 -1.6187 0.9810
-0.5338 -4.4948 -1.6187 0.9810
-0.2105 -4.5215 -1.6187 0.9810
0.1138 -4.5250 -1.6187 0.9810
0.2759 -4.5179 -1.6187 0.9810
0.4377 -4.5052 -1.6187 0.9810
-3.2310 -2.7208 -1.6187 0.9821
-3.1315 -2.8349 -1.6187 0.9821
-3.0278 -2.9452 -1.6187 0.9821
-2.9204 -3.0519 -1.6187 0.9821
-2.8091 -3.1546 -1.6187 0.9821
-2.6943 -3.2532 -1.6187 0.9821
-2.5759 -3.3476 -1.6187 0.9821
-2.3296 -3.5235 -1.6187 0.9821
-2.2018 -3.6047 -1.6187 0.9821
-2.0712 -3.6813 -1.6187 0.9821
-1.6641 -3.8823 -1.6187 0.9821
-1.5240 -3.9394 -1.6187 0.9821
-1.2379 -4.0385 -1.6187 0.9821
-0.9454 -4.1167 -1.6187 0.9821
-0.6481 -4.1739 -1.6187 0.9821
-0.4982 -4.1944 -1.6187 0.9821
0.1062 -4.2226 -1.6187 0.9821
0.2575 -4.2160 -1.6187 0.9821
0.4084 -4.2041 -1.6187 0.9821
-3.0253 -2.5476 -1.6187 0.9831
-2.9321 -2.6544 -1.6187 0.9831
-2.8351 -2.7577 -1.6187 0.9831
-2.2980 -3.2189 -1.6187 0.9831
-2.0616 -3.3752 -1.6187 0.9831
-1.9393 -3.4469 -1.6187 0.9831
-1.8146 -3.5142 -1.6187 0.9831
-1.0228 -3.8205 -1.6187 0.9831
-0.7466 -3.8839 -1.6187 0.9831
-0.3254 -3.9416 -1.6187 0.9831
-0.1840 -3.9507 -1.6187 0.9831
-0.0423 -3.9548 -1.6187 0.9831
0.0995 -3.9537 -1.6187 0.9831
0.2411 -3.9476 -1.6187 0.9831
0.3824 -3.9364 -1.6187 0.9831
-2.8410 -2.3924 -1.6187 0.9839
-2.7535 -2.4927 -1.6187 0.9839
-2.6624 -2.5898 -1.6187 0.9839
-2.3691 -2.8605 -1.6187 0.9839
-2.2650 -2.9436 -1.6187 0.9839
-2.0484 -3.0983 -1.6187 0.9839
-1.8212 -3.2370 -1.6187 0.9839
-1.0885 -3.5511 -1.6187 0.9839
-0.9605 -3.5878 -1.6187 0.9839
-0.8313 -3.6199 -1.6187 0.9839
-0.7011 -3.6474 -1.6187 0.9839
-0.5699 -3.6701 -1.6187 0.9839
-0.4380 -3.6882 -1.6187 0.9839
-0.3056 -3.7015 -1.6187 0.9839
0.2264 -3.7072 -1.6187 0.9839
0.3591 -3.6967 -1.6187 0.9839
-2.6749 -2.2525 -1.6187 0.9847
-2.5925 -2.3470 -1.6187 0.9847
-2.4177 -2.5266 -1.6187 0.9847
-2.3256 -2.6116 -1.6187 0.9847
-2.1326 -2.7715 -1.6187 0.9847
-1.9286 -2.9171 -1.6187 0.9847
-1.7147 -3.0477 -1.6187 0.9847
-1.6044 -3.1072 -1.6187 0.9847
-1.4920 -3.1627 -1.6187 0.9847
-1.2617 -3.2614 -1.6187 0.9847
-0.9043 -3.3780 -1.6187 0.9847
-0.6601 -3.4341 -1.6187 0.9847
-0.2877 -3.4851 -1.6187 0.9847
-0.1626 -3.4932 -1.6187 0.9847
-0.0373 -3.4967 -1.6187 0.9847
0.0880 -3.4958 -1.6187 0.9847
0.2132 -3.4904 -1.6187 0.9847
0.3381 -3.4805 -1.6187 0.9847
-2.5242 -2.1256 -1.6187 0.9854
-2.4464 -2.2147 -1.6187 0.9854
-2.2815 -2.3842 -1.6187 0.9854
-2.1946 -2.4644 -1.6187 0.9854
-1.8200 -2.7527 -1.6187 0.9854
-1.7201 -2.8162 -1.6187 0.9854
-1.6181 -2.8760 -1.6187 0.9854
-1.5140 -2.9321 -1.6187 0.9854
-1.0795 -3.1184 -1.6187 0.9854
-0.5064 -3.2608 -1.6187 0.9854
-0.2715 -3.2887 -1.6187 0.9854
-0.0353 -3.2997 -1.6187 0.9854
0.0830 -3.2988 -1.6187 0.9854
0.2012 -3.2937 -1.6187 0.9854
0.3191 -3.2844 -1.6187 0.9854
-2.3131 -2.0941 -1.6187 0.9860
-2.1572 -2.2544 -1.6187 0.9860
-1.9902 -2.4031 -1.6187 0.9860
-1.9028 -2.4729 -1.6187 0.9860
-1.8130 -2.5395 -1.6187 0.9860
-1.6264 -2.6628 -1.6187 0.9860
-1.3313 -2.8219 -1.6187 0.9860
-1.1257 -2.9100 -1.6187 0.9860
-1.0207 -2.9485 -1.6187 0.9860
-0.9144 -2.9832 -1.6187 0.9860
-0.8069 -3.0140 -1.6187 0.9860
-0.4788 -3.0832 -1.6187 0.9860
-0.2567 -3.1096 -1.6187 0.9860
-0.1451 -3.1168 -1.6187 0.9860
-0.0333 -3.1200 -1.6187 0.9860
0.1902 -3.1143 -1.6187 0.9860
0.3017 -3.1055 -1.6187 0.9860
-0.9776 -0.7651 -0.6799 0.9944
-2.1185 -2.0607 -1.6187 0.9866
-2.0433 -2.1353 -1.6187 0.9866
-1.4492 -2.5757 -1.6187 0.9866
-1.3559 -2.6260 -1.6187 0.9866
-1.2610 -2.6729 -1.6187 0.9866
-1.1644 -2.7164 -1.6187 0.9866
-1.0663 -2.7563 -1.6187 0.9866
-0.8661 -2.8257 -1.6187 0.9866
-0.5579 -2.9023 -1.6187 0.9866
-0.4535 -2.9204 -1.6187 0.9866
-0.3486 -2.9348 -1.6187 0.9866
-0.2432 -2.9454 -1.6187 0.9866
-0.0316 -2.9552 -1.6187 0.9866
0.1802 -2.9499 -1.6187 0.9866
-0.9326 -0.7298 -0.6837 0.9945
-1.7098 -2.2220 -1.6187 0.9871
-1.5462 -2.3387 -1.6187 0.9871
-1.4614 -2.3926 -1.6187 0.9871
-1.3748 -2.4435 -1.6187 0.9871
-1.2863 -2.4912 -1.6187 0.9871
-1.1962 -2.5357 -1.6187 0.9871
-1.0115 -2.6148 -1.6187 0.9871
-0.8216 -2.6806 -1.6187 0.9871
-0.7250 -2.7083 -1.6187 0.9871
-0.6275 -2.7325 -1.6187 0.9871
-0.5292 -2.7532 -1.6187 0.9871
-0.1304 -2.8006 -1.6187 0.9871
