ply
format ascii 1.0
element vertex 409
property float32 x
property float32 y
property float32 z
property float32 I
end_header
-5.8095 44.7671 7.9598 0.8325
-8.4674 34.9778 6.3457 0.8640
-8.6019 30.6440 5.6122 0.8787
-9.5671 29.8856 5.5331 0.8803
-11.0251 24.8032 4.7861 0.8956
-12.9137 18.9151 4.0384 0.9112
-5.8095 44.7671 6.9156 0.8330
-7.7078 37.7609 5.9040 0.8556
-8.4674 34.9778 5.5132 0.8645
-9.5762 29.9143 4.8118 0.8806
-9.4900 26.3270 4.2872 0.8929
-11.0492 24.8575 4.1673 0.8958
-11.6011 23.7473 4.0489 0.8986
-12.5504 19.8906 3.6030 0.9092
-12.8767 18.8609 3.4985 0.9117
-4.5473 48.8081 6.3834 0.8206
-7.7079 37.7609 5.0186 0.8560
-9.5191 26.4079 3.6555 0.8929
-10.0562 25.0235 3.5119 0.8969
-11.0097 24.7686 3.5297 0.8964
-11.6013 23.7476 3.4417 0.8989
-11.9560 22.3841 3.3046 0.9027
-12.2976 21.1469 3.1855 0.9060
-12.6158 19.9943 3.0786 0.9090
-13.2471 17.9722 2.9074 0.9139
-4.5504 48.8412 5.2674 0.8209
-5.8095 44.7671 4.8475 0.8339
-8.4673 34.9778 3.8644 0.8652
-8.5536 30.4718 3.3986 0.8804
-10.3117 28.6066 3.2653 0.8849
-11.2007 25.1983 2.9611 0.8950
-11.6012 23.7476 2.8381 0.8991
-12.2976 21.1469 2.6268 0.9063
-13.2471 17.9722 2.3975 0.9141
-4.5521 48.8594 4.1540 0.8212
-5.8095 44.7670 3.8214 0.8343
-6.5802 39.4680 3.3872 0.8516
-7.7150 37.7960 3.2655 0.8565
-8.4675 34.9785 3.0465 0.8655
-9.1477 32.5883 2.8653 0.8730
-10.6052 29.4210 2.6474 0.8820
-9.9653 18.6571 1.7906 0.9186
-12.4453 21.4009 2.0957 0.9054
-12.9137 18.9151 1.9388 0.9122
-13.2471 17.9722 1.8900 0.9143
-4.6076 49.4552 3.0800 0.8195
-5.8096 44.7678 2.7993 0.8345
-6.3802 31.2567 1.9782 0.8800
-8.4675 34.9785 2.2317 0.8657
-9.1477 32.5883 2.0989 0.8731
-9.7770 30.5415 1.9886 0.8794
-10.6052 29.4210 1.9393 0.8822
-11.9856 24.5343 1.6932 0.8963
-9.9653 18.6571 1.3116 0.9187
-12.4453 21.4009 1.5352 0.9055
-12.9137 18.9151 1.4202 0.9123
-13.2471 17.9722 1.3845 0.9144
-5.8096 44.7678 1.7801 0.8347
-6.3802 31.2567 1.2579 0.8801
-11.2005 25.1979 1.0873 0.8955
-9.5290 19.5058 0.8560 0.9168
-9.7792 18.3087 0.8185 0.9203
-10.1179 17.3988 0.7936 0.9226
-10.3820 16.4540 0.7672 0.9251
-10.8621 14.7364 0.7219 0.9293
-5.7912 44.6258 0.7601 0.8352
-5.5973 33.5728 0.5749 0.8727
-7.9505 24.8358 0.4405 0.9009
-8.4381 23.4090 0.4203 0.9052
-8.8357 21.9864 0.4003 0.9096
-9.1975 20.6918 0.3825 0.9134
-9.5290 19.5058 0.3667 0.9168
-10.3820 16.4540 0.3286 0.9251
-10.8621 14.7364 0.3092 0.9294
-4.3630 46.8301 -0.2648 0.8285
-5.8096 44.7677 -0.2542 0.8348
-5.5973 33.5728 -0.1916 0.8727
-7.5066 26.7419 -0.1564 0.8948
-7.9505 24.8358 -0.1468 0.9009
-8.4381 23.4090 -0.1401 0.9053
-10.6293 15.5691 -0.1061 0.9274
-2.6326 46.3420 -1.3070 0.8305
-4.3070 46.2291 -1.3073 0.8304
-4.9499 38.1430 -1.0830 0.8573
-6.3230 30.9765 -0.8902 0.8812
-7.5066 26.7419 -0.7821 0.8948
-9.1975 20.6918 -0.6376 0.9134
-9.5290 19.5058 -0.6113 0.9168
-10.6293 15.5691 -0.5308 0.9273
-10.8621 14.7364 -0.5155 0.9294
5.6399 28.3576 -1.4663 0.8907
3.5765 28.6913 -1.4663 0.8907
-7.5065 26.7419 -1.4086 0.8947
-8.4381 23.4090 -1.2619 0.9051
-8.8357 21.9864 -1.2017 0.9095
-9.1975 20.6918 -1.1484 0.9133
-9.5290 19.5058 -1.1010 0.9167
-10.1179 17.3988 -1.0207 0.9226
-10.6293 15.5691 -0.9560 0.9273
-10.8621 14.7364 -0.9284 0.9293
3.1894 19.7422 -1.4663 0.9229
1.0337 19.9717 -1.4663 0.9229
0.3110 19.9961 -1.4663 0.9229
-3.9997 19.5948 -1.4664 0.9229
-4.7054 19.4375 -1.4664 0.9229
-5.4049 19.2548 -1.4664 0.9229
-7.4574 18.5568 -1.4664 0.9229
-10.3820 16.4540 -1.4265 0.9249
-10.8621 14.7364 -1.3423 0.9292
5.1068 14.3940 -1.4663 0.9405
4.5832 14.5692 -1.4663 0.9405
2.9792 14.9798 -1.4663 0.9405
-0.8662 15.2490 -1.4663 0.9405
-1.4168 15.2077 -1.4663 0.9405
-1.9656 15.1466 -1.4663 0.9405
-2.5118 15.0657 -1.4663 0.9405
-3.0547 14.9651 -1.4663 0.9405
-4.1279 14.7054 -1.4664 0.9405
-4.6567 14.5466 -1.4664 0.9405
-5.1795 14.3688 -1.4664 0.9405
-6.2038 13.9571 -1.4664 0.9405
-7.1961 13.4726 -1.4664 0.9405
-7.6784 13.2037 -1.4664 0.9405
-8.1506 12.9176 -1.4664 0.9405
-8.6122 12.6146 -1.4664 0.9405
-9.0626 12.2951 -1.4664 0.9405
4.1274 11.6335 -1.4663 0.9515
3.7042 11.7751 -1.4663 0.9515
1.9687 12.1862 -1.4663 0.9515
1.5270 12.2494 -1.4663 0.9515
1.0832 12.2966 -1.4663 0.9515
0.1921 12.3427 -1.4663 0.9515
-0.2542 12.3417 -1.4663 0.9515
-0.7001 12.3244 -1.4663 0.9515
-1.5886 12.2417 -1.4663 0.9515
-2.0301 12.1763 -1.4663 0.9515
-2.9044 11.9979 -1.4663 0.9515
-3.3362 11.8851 -1.4663 0.9515
-3.7636 11.7568 -1.4664 0.9515
-4.1861 11.6131 -1.4664 0.9515
-4.6031 11.4542 -1.4664 0.9515
-5.0141 11.2804 -1.4664 0.9515
-5.4186 11.0918 -1.4664 0.9515
-5.8160 10.8887 -1.4664 0.9515
-6.2058 10.6714 -1.4664 0.9515
-7.3245 9.9370 -1.4664 0.9515
2.3842 10.0704 -1.4663 0.9591
0.9081 10.3089 -1.4663 0.9591
0.5349 10.3350 -1.4663 0.9591
-0.2131 10.3467 -1.4663 0.9591
-0.5869 10.3322 -1.4663 0.9591
-1.3318 10.2629 -1.4663 0.9591
-1.7019 10.2080 -1.4663 0.9591
-2.0698 10.1399 -1.4663 0.9591
-2.7969 9.9639 -1.4663 0.9591
-4.2036 9.4569 -1.4664 0.9591
-4.8758 9.1285 -1.4664 0.9591
-6.1404 8.3307 -1.4664 0.9591
2.9761 8.3884 -1.4663 0.9646
2.0506 8.6613 -1.4663 0.9646
1.4195 8.7869 -1.4663 0.9646
1.1010 8.8324 -1.4663 0.9646
0.7810 8.8665 -1.4663 0.9646
0.4601 8.8890 -1.4663 0.9646
-0.1833 8.8990 -1.4663 0.9646
-0.5048 8.8866 -1.4663 0.9646
-0.8257 8.8625 -1.4663 0.9646
-1.4638 8.7797 -1.4663 0.9646
-2.4056 8.5697 -1.4663 0.9646
-3.3191 8.2591 -1.4663 0.9646
-3.6154 8.1337 -1.4663 0.9646
-3.9071 7.9977 -1.4663 0.9646
-4.1936 7.8513 -1.4664 0.9646
-4.4746 7.6946 -1.4664 0.9646
-5.2813 7.1650 -1.4664 0.9646
2.6084 7.3521 -1.4663 0.9687
2.3410 7.4416 -1.4663 0.9687
1.5217 7.6513 -1.4663 0.9687
0.9650 7.7413 -1.4663 0.9687
0.6846 7.7711 -1.4663 0.9687
-0.1606 7.7996 -1.4663 0.9687
-0.7237 7.7676 -1.4663 0.9687
-1.5602 7.6436 -1.4663 0.9687
-1.8355 7.5823 -1.4663 0.9687
-2.1083 7.5110 -1.4663 0.9687
-2.9090 7.2387 -1.4663 0.9687
-3.1687 7.1288 -1.4663 0.9687
-3.6755 6.8813 -1.4663 0.9687
-3.9218 6.7439 -1.4663 0.9687
-4.1630 6.5978 -1.4663 0.9687
2.0816 6.6171 -1.4663 0.9720
1.8411 6.6880 -1.4663 0.9720
1.3531 6.8036 -1.4663 0.9720
1.1063 6.8481 -1.4663 0.9720
0.6087 6.9101 -1.4663 0.9720
0.3586 6.9276 -1.4663 0.9720
0.1079 6.9360 -1.4663 0.9720
-0.3934 6.9257 -1.4663 0.9720
-0.6435 6.9070 -1.4663 0.9720
-0.8927 6.8792 -1.4663 0.9720
-1.1408 6.8425 -1.4663 0.9720
-1.6321 6.7422 -1.4663 0.9720
-2.1150 6.6067 -1.4663 0.9720
-2.3523 6.5259 -1.4663 0.9720
-3.0450 6.2330 -1.4663 0.9720
-3.2683 6.1189 -1.4663 0.9720
-3.4873 5.9967 -1.4663 0.9720
-3.7018 5.8668 -1.4663 0.9720
-3.9114 5.7292 -1.4663 0.9720
-4.1159 5.5840 -1.4663 0.9720
2.0861 5.8799 -1.4663 0.9747
1.2170 6.1192 -1.4663 0.9747
0.9950 6.1592 -1.4663 0.9747
0.7718 6.1911 -1.4663 0.9747
-0.8029 6.1872 -1.4663 0.9747
-1.2478 6.1130 -1.4663 0.9747
-1.6862 6.0069 -1.4663 0.9747
-2.3265 5.7891 -1.4663 0.9747
-2.7386 5.6059 -1.4663 0.9747
-2.9395 5.5033 -1.4663 0.9747
-3.5179 5.1528 -1.4663 0.9747
1.5408 5.5971 -1.5031 0.9763
1.3062 5.5173 -1.4680 0.9768
1.1047 5.5544 -1.4663 0.9769
0.9032 5.5907 -1.4663 0.9769
-0.3212 5.6542 -1.4663 0.9769
-0.5254 5.6389 -1.4663 0.9769
-0.7288 5.6162 -1.4663 0.9769
-1.1326 5.5489 -1.4663 0.9769
-1.3325 5.5043 -1.4663 0.9769
-1.5305 5.4526 -1.4663 0.9769
-1.7266 5.3937 -1.4663 0.9769
-1.9204 5.3278 -1.4663 0.9769
-2.8470 4.8957 -1.4663 0.9769
1.9093 5.3816 -1.6165 0.9765
1.7112 5.4397 -1.6143 0.9766
1.0751 5.4056 -1.5603 0.9773
0.0806 5.1790 -1.4663 0.9787
-0.4805 5.1573 -1.4663 0.9787
-0.6666 5.1366 -1.4663 0.9787
-0.8518 5.1092 -1.4663 0.9787
-1.0359 5.0750 -1.4663 0.9787
-1.2187 5.0343 -1.4663 0.9787
-1.5792 4.9331 -1.4663 0.9787
-1.7565 4.8728 -1.4663 0.9787
-1.9314 4.8061 -1.4663 0.9787
-2.1039 4.7332 -1.4663 0.9787
-2.2736 4.6540 -1.4663 0.9787
-2.4403 4.5688 -1.4663 0.9787
-2.7640 4.3806 -1.4663 0.9787
-2.9205 4.2778 -1.4663 0.9787
1.5793 5.0202 -1.6187 0.9782
1.3963 5.0723 -1.6181 0.9782
1.2107 5.1138 -1.6164 0.9782
1.0240 5.1488 -1.6147 0.9783
0.4547 5.1622 -1.5939 0.9785
0.2637 5.0943 -1.5690 0.9789
-0.1024 4.9729 -1.5299 0.9794
-0.4527 4.8592 -1.5011 0.9798
-0.6233 4.8033 -1.4898 0.9799
-0.9580 4.6931 -1.4733 0.9802
-1.1236 4.6414 -1.4688 0.9802
-1.6187 4.4904 -1.4682 0.9802
-1.7835 4.4379 -1.4711 0.9802
-1.9490 4.3847 -1.4759 0.9801
-2.1167 4.3329 -1.4832 0.9800
-2.2862 4.2802 -1.4925 0.9799
-2.6336 4.1739 -1.5180 0.9796
-2.8150 4.1231 -1.5356 0.9793
-3.0006 4.0708 -1.5555 0.9791
1.6283 4.5894 -1.6187 0.9797
0.9499 4.7762 -1.6187 0.9797
0.6018 4.8279 -1.6172 0.9797
0.4266 4.8425 -1.6159 0.9797
0.2511 4.8512 -1.6147 0.9797
-0.0999 4.8509 -1.6128 0.9798
-0.4497 4.8265 -1.6113 0.9798
-0.6206 4.7821 -1.6029 0.9799
-0.9537 4.6721 -1.5851 0.9801
-1.4458 4.5165 -1.5764 0.9802
-1.6101 4.4668 -1.5783 0.9802
-2.1074 4.3139 -1.5959 0.9800
-2.4371 4.1908 -1.6115 0.9798
-2.7362 4.0079 -1.6131 0.9798
-2.8811 3.9088 -1.6141 0.9797
1.5135 4.2660 -1.6187 0.9810
0.8829 4.4396 -1.6187 0.9810
0.3972 4.5090 -1.6187 0.9810
0.0704 4.5260 -1.6187 0.9810
-0.4194 4.5013 -1.6167 0.9810
-1.6841 4.1907 -1.6151 0.9810
-1.9833 4.0598 -1.6158 0.9810
-2.1294 3.9866 -1.6163 0.9810
-2.2729 3.9084 -1.6168 0.9810
-2.6858 3.6437 -1.6187 0.9810
1.1211 4.0725 -1.6187 0.9821
0.8239 4.1429 -1.6187 0.9821
0.5225 4.1915 -1.6187 0.9821
0.0657 4.2235 -1.6187 0.9821
-0.2396 4.2172 -1.6187 0.9821
-0.3918 4.2058 -1.6187 0.9821
-0.5436 4.1889 -1.6187 0.9821
-0.6946 4.1665 -1.6187 0.9821
-0.9938 4.1054 -1.6187 0.9821
-1.1416 4.0668 -1.6187 0.9821
-1.4324 3.9738 -1.6187 0.9821
-1.8541 3.7954 -1.6187 0.9821
-2.1235 3.6515 -1.6187 0.9821
-2.2540 3.5724 -1.6187 0.9821
1.3224 3.7274 -1.6187 0.9831
0.9112 3.8487 -1.6187 0.9831
0.6308 3.9045 -1.6187 0.9831
0.4892 3.9247 -1.6187 0.9831
0.2044 3.9498 -1.6187 0.9831
-0.2243 3.9487 -1.6187 0.9831
-0.3669 3.9380 -1.6187 0.9831
-0.7910 3.8752 -1.6187 0.9831
-0.9306 3.8441 -1.6187 0.9831
-1.4748 3.6699 -1.6187 0.9831
-1.6065 3.6142 -1.6187 0.9831
-1.8634 3.4886 -1.6187 0.9831
-1.9883 3.4190 -1.6187 0.9831
-2.3467 3.1837 -1.6187 0.9831
1.1146 3.5430 -1.6187 0.9839
0.9858 3.5810 -1.6187 0.9839
0.8557 3.6143 -1.6187 0.9839
0.1920 3.7092 -1.6187 0.9839
-0.3445 3.6982 -1.6187 0.9839
-0.4780 3.6833 -1.6187 0.9839
-0.6108 3.6637 -1.6187 0.9839
-0.7428 3.6392 -1.6187 0.9839
-1.1324 3.5374 -1.6187 0.9839
-1.2595 3.4942 -1.6187 0.9839
-1.5087 3.3941 -1.6187 0.9839
-1.6304 3.3373 -1.6187 0.9839
-1.7499 3.2762 -1.6187 0.9839
-1.8672 3.2108 -1.6187 0.9839
-2.0943 3.0675 -1.6187 0.9839
1.1693 3.2957 -1.6187 0.9847
0.9281 3.3716 -1.6187 0.9847
0.8057 3.4029 -1.6187 0.9847
0.6821 3.4298 -1.6187 0.9847
0.5577 3.4522 -1.6187 0.9847
0.0544 3.4966 -1.6187 0.9847
-0.0720 3.4963 -1.6187 0.9847
-0.1983 3.4914 -1.6187 0.9847
-0.6994 3.4264 -1.6187 0.9847
-0.8228 3.3989 -1.6187 0.9847
-0.9451 3.3669 -1.6187 0.9847
-1.3040 3.2448 -1.6187 0.9847
-1.4204 3.1956 -1.6187 0.9847
-1.7580 3.0230 -1.6187 0.9847
1.1034 3.1100 -1.6187 0.9854
0.6437 3.2366 -1.6187 0.9854
0.2896 3.2873 -1.6187 0.9854
0.0513 3.2996 -1.6187 0.9854
-0.1871 3.2947 -1.6187 0.9854
-0.3061 3.2858 -1.6187 0.9854
-0.5427 3.2551 -1.6187 0.9854
-0.7764 3.2073 -1.6187 0.9854
-0.8918 3.1772 -1.6187 0.9854
-1.0061 3.1429 -1.6187 0.9854
-1.1191 3.1045 -1.6187 0.9854
-1.2305 3.0620 -1.6187 0.9854
-1.4485 2.9651 -1.6187 0.9854
-1.5547 2.9108 -1.6187 0.9854
-1.6589 2.8527 -1.6187 0.9854
-1.7610 2.7909 -1.6187 0.9854
-1.8607 2.7254 -1.6187 0.9854
-1.9580 2.6564 -1.6187 0.9854
0.7189 3.0363 -1.6187 0.9860
0.3860 3.0963 -1.6187 0.9860
0.1613 3.1161 -1.6187 0.9860
0.0485 3.1199 -1.6187 0.9860
-0.1770 3.1152 -1.6187 0.9860
-0.2894 3.1068 -1.6187 0.9860
-0.4016 3.0943 -1.6187 0.9860
-0.6240 3.0572 -1.6187 0.9860
-0.7342 3.0327 -1.6187 0.9860
-1.0581 2.9354 -1.6187 0.9860
-1.2674 2.8513 -1.6187 0.9860
-1.6650 2.6389 -1.6187 0.9860
-1.8513 2.5117 -1.6187 0.9860
0.7844 2.8495 -1.6187 0.9866
0.6809 2.8759 -1.6187 0.9866
0.4713 2.9176 -1.6187 0.9866
0.2593 2.9441 -1.6187 0.9866
-0.0609 2.9548 -1.6187 0.9866
-0.1676 2.9507 -1.6187 0.9866
-0.5911 2.8958 -1.6187 0.9866
-1.0022 2.7804 -1.6187 0.9866
-1.1021 2.7423 -1.6187 0.9866
-1.2973 2.6555 -1.6187 0.9866
-1.3924 2.6069 -1.6187 0.9866
-1.6664 2.4409 -1.6187 0.9866
0.9375 2.6423 -1.6187 0.9871
0.8413 2.6745 -1.6187 0.9871
0.7441 2.7031 -1.6187 0.9871
0.6459 2.7283 -1.6187 0.9871
0.5469 2.7498 -1.6187 0.9871
0.4471 2.7678 -1.6187 0.9871
0.2461 2.7929 -1.6187 0.9871
-0.0577 2.8031 -1.6187 0.9871
-0.5607 2.7471 -1.6187 0.9871
-1.0454 2.6015 -1.6187 0.9871
-1.1388 2.5620 -1.6187 0.9871
-1.2307 2.5192 -1.6187 0.9871
-1.3209 2.4731 -1.6187 0.9871
-1.6635 2.2569 -1.6187 0.9871
