ply
format ascii 1.0
element vertex 435
property float32 x
property float32 y
property float32 z
property float32 I
end_header
-6.0746 43.8080 7.7984 0.8356
-7.0328 40.0305 7.1665 0.8478
2.8437 6.6495 1.1079 0.9712
-6.9318 39.4551 6.1369 0.8504
-7.8971 37.0438 5.8024 0.8579
2.8432 6.6485 0.9416 0.9713
-3.2382 49.3431 6.4393 0.8192
-4.9269 48.2979 6.3220 0.8221
2.8428 6.6475 0.7764 0.9713
-3.2447 49.4427 5.3207 0.8193
-5.6004 40.3878 4.3784 0.8487
-6.8982 39.2643 4.2808 0.8518
-7.8971 37.0437 4.0672 0.8587
2.8424 6.6465 0.6119 0.9714
-3.2483 49.4975 4.1991 0.8194
-7.8972 37.0442 3.2064 0.8589
2.8420 6.6455 0.4482 0.9714
-4.9270 48.2986 3.0105 0.8232
-6.0746 43.8079 2.7425 0.8376
-5.8449 33.2690 2.0946 0.8734
-7.8972 37.0442 2.3487 0.8592
2.8416 6.6446 0.2850 0.9715
18.1698 32.2937 0.6259 0.8622
-4.9382 35.6132 0.6073 0.8660
-5.7821 32.9116 0.5645 0.8749
40.1456 26.8014 -0.2718 0.8244
18.1698 32.2937 -0.2086 0.8622
-4.9382 35.6132 -0.2024 0.8660
-6.4438 30.2266 -0.1740 0.8837
18.1698 32.2937 -1.0434 0.8622
-2.9864 45.5057 -1.2841 0.8332
-4.2399 41.5631 -1.1763 0.8460
-4.9382 35.6132 -1.0124 0.8660
-5.7821 32.9117 -0.9409 0.8748
-6.4438 30.2266 -0.8702 0.8837
25.8860 18.6676 -1.6185 0.8800
25.1949 19.5904 -1.6185 0.8800
23.7151 21.3584 -1.6186 0.8800
15.4070 19.9750 -1.2793 0.9039
16.8191 23.5155 -1.4662 0.8907
15.0778 24.6686 -1.4662 0.8907
2.8399 6.6407 -0.3663 0.9715
10.4009 26.9766 -1.4663 0.8907
3.3206 28.7220 -1.4663 0.8907
-0.8501 28.9015 -1.4663 0.8906
18.3596 12.2569 -1.6186 0.9153
17.9049 12.9121 -1.6186 0.9153
17.4269 13.5504 -1.6186 0.9153
16.4034 14.7732 -1.6186 0.9153
15.8591 15.3561 -1.6186 0.9153
15.2941 15.9189 -1.6186 0.9153
13.3244 14.9112 -1.4662 0.9229
12.7771 15.3828 -1.4662 0.9229
12.2133 15.8343 -1.4662 0.9229
10.4289 17.0626 -1.4663 0.9229
9.1700 17.7711 -1.4663 0.9229
8.5222 18.0908 -1.4663 0.9229
2.8395 6.6397 -0.5295 0.9715
6.5154 18.9066 -1.4663 0.9229
5.8283 19.1298 -1.4663 0.9229
2.2967 19.8659 -1.4663 0.9229
1.5777 19.9360 -1.4663 0.9229
-0.5880 19.9899 -1.4663 0.9229
-1.3096 19.9557 -1.4663 0.9229
-2.0295 19.8954 -1.4663 0.9229
-2.7468 19.8092 -1.4664 0.9229
-4.1697 19.5594 -1.4664 0.9229
14.0221 9.3612 -1.6186 0.9345
13.6748 9.8616 -1.6186 0.9345
13.3098 10.3491 -1.6186 0.9345
12.9273 10.8231 -1.6186 0.9345
12.1123 11.7281 -1.6186 0.9345
10.1764 11.3883 -1.4662 0.9405
9.3278 12.0933 -1.4663 0.9405
8.4304 12.7352 -1.4663 0.9405
7.4892 13.3106 -1.4663 0.9405
6.5087 13.8166 -1.4663 0.9405
4.9761 14.4397 -1.4663 0.9405
4.4513 14.6101 -1.4663 0.9405
3.3850 14.8934 -1.4663 0.9405
2.3010 15.0990 -1.4663 0.9405
1.2050 15.2258 -1.4663 0.9405
0.6542 15.2594 -1.4663 0.9405
-0.4491 15.2669 -1.4663 0.9405
-1.5500 15.1947 -1.4663 0.9405
10.7573 8.3644 -1.6186 0.9466
10.4482 8.7475 -1.6186 0.9466
10.1254 9.1192 -1.6186 0.9466
9.7895 9.4790 -1.6186 0.9466
9.4345 9.8199 -1.6176 0.9466
8.6861 9.7205 -1.5485 0.9488
7.5389 9.7741 -1.4663 0.9515
6.8137 10.2929 -1.4663 0.9515
6.4375 10.5323 -1.4663 0.9515
5.6604 10.9696 -1.4663 0.9515
5.2605 11.1669 -1.4663 0.9515
2.7934 6.5319 -0.8439 0.9718
3.5976 11.8081 -1.4663 0.9515
3.1687 11.9304 -1.4663 0.9515
2.7358 12.0371 -1.4663 0.9515
0.9739 12.3057 -1.4663 0.9515
0.5288 12.3329 -1.4663 0.9515
-0.3629 12.3389 -1.4663 0.9515
-0.8084 12.3178 -1.4663 0.9515
-1.6955 12.2274 -1.4663 0.9515
-2.1360 12.1582 -1.4663 0.9515
9.2659 6.6821 -1.6186 0.9549
8.7594 7.3336 -1.6187 0.9549
7.6001 8.5053 -1.6161 0.9550
6.3203 8.1942 -1.4663 0.9591
5.7123 8.6291 -1.4663 0.9591
5.3969 8.8298 -1.4663 0.9591
5.0745 9.0190 -1.4663 0.9591
4.7454 9.1964 -1.4663 0.9591
3.0161 9.8994 -1.4663 0.9591
2.6566 10.0019 -1.4663 0.9591
1.5591 10.2307 -1.4663 0.9591
1.1886 10.2803 -1.4663 0.9591
-1.4214 10.2509 -1.4663 0.9591
-1.7908 10.1928 -1.4663 0.9591
-2.1577 10.1215 -1.4663 0.9591
8.1718 5.4555 -1.6187 0.9610
7.0588 6.8349 -1.6187 0.9610
6.5470 7.3267 -1.6187 0.9610
5.9752 7.7467 -1.6117 0.9611
5.3012 7.4119 -1.5012 0.9637
4.6418 7.5944 -1.4663 0.9646
4.3645 7.7571 -1.4663 0.9646
4.0815 7.9097 -1.4663 0.9646
3.0879 6.5549 -1.1937 0.9711
2.5941 8.5144 -1.4663 0.9646
1.6579 8.7450 -1.4663 0.9646
1.3409 8.7992 -1.4663 0.9646
0.7022 8.8731 -1.4663 0.9646
0.3813 8.8927 -1.4663 0.9646
0.0598 8.9007 -1.4663 0.9646
-0.5829 8.8818 -1.4663 0.9646
-1.5402 8.7667 -1.4663 0.9646
-1.8558 8.7054 -1.4663 0.9646
6.9849 5.0371 -1.6187 0.9656
6.7984 5.2862 -1.6187 0.9656
6.6031 5.5282 -1.6187 0.9656
5.9663 6.2101 -1.6187 0.9656
5.2596 6.8190 -1.6187 0.9656
4.6513 7.0264 -1.5838 0.9663
3.8253 6.7988 -1.4663 0.9687
3.0692 6.5152 -1.3537 0.9711
2.5416 7.3754 -1.4663 0.9687
2.2736 7.4625 -1.4663 0.9687
1.7289 7.6071 -1.4663 0.9687
1.4530 7.6646 -1.4663 0.9687
1.1753 7.7121 -1.4663 0.9687
0.8959 7.7495 -1.4663 0.9687
0.6155 7.7769 -1.4663 0.9687
0.3342 7.7940 -1.4663 0.9687
0.0524 7.8010 -1.4663 0.9687
-0.2293 7.7978 -1.4663 0.9687
-0.5109 7.7845 -1.4663 0.9687
-0.7917 7.7610 -1.4663 0.9687
-1.0715 7.7273 -1.4663 0.9687
-1.6266 7.6298 -1.4663 0.9687
6.3688 4.2518 -1.6187 0.9692
6.0452 4.7005 -1.6187 0.9692
5.6901 5.1247 -1.6187 0.9692
5.5013 5.3268 -1.6187 0.9692
5.3054 5.5221 -1.6187 0.9692
4.8929 5.8907 -1.6187 0.9692
4.6769 6.0636 -1.6187 0.9692
4.4548 6.2285 -1.6187 0.9692
3.2786 6.3537 -1.5113 0.9712
2.9562 6.2753 -1.4663 0.9720
2.7276 6.3780 -1.4663 0.9720
2.4954 6.4724 -1.4663 0.9720
2.2600 6.5583 -1.4663 0.9720
2.0217 6.6357 -1.4663 0.9720
1.7807 6.7044 -1.4663 0.9720
1.0450 6.8577 -1.4663 0.9720
0.7967 6.8909 -1.4663 0.9720
0.5473 6.9152 -1.4663 0.9720
-0.7040 6.9011 -1.4663 0.9720
-0.9528 6.8712 -1.4663 0.9720
-1.2003 6.8323 -1.4663 0.9720
5.7281 3.8241 -1.6187 0.9721
5.4371 4.2277 -1.6187 0.9721
5.2809 4.4213 -1.6187 0.9721
5.1177 4.6091 -1.6187 0.9721
4.9479 4.7910 -1.6187 0.9721
4.5891 5.1357 -1.6187 0.9721
4.2064 5.4536 -1.6187 0.9721
3.3736 5.9960 -1.6169 0.9721
2.9012 6.1587 -1.6000 0.9724
2.5784 6.0292 -1.5411 0.9734
2.0327 5.8986 -1.4663 0.9747
1.8183 5.9681 -1.4663 0.9747
1.6016 6.0299 -1.4663 0.9747
1.3827 6.0839 -1.4663 0.9747
1.1621 6.1298 -1.4663 0.9747
0.9399 6.1678 -1.4663 0.9747
0.7165 6.1977 -1.4663 0.9747
0.4922 6.2196 -1.4663 0.9747
-0.1834 6.2364 -1.4663 0.9747
-0.4086 6.2257 -1.4663 0.9747
-0.6331 6.2068 -1.4663 0.9747
-0.8569 6.1799 -1.4663 0.9747
-1.3008 6.1020 -1.4663 0.9747
5.1995 3.4712 -1.6187 0.9745
3.6370 5.0850 -1.6187 0.9745
3.4509 5.2130 -1.6187 0.9745
3.2604 5.3343 -1.6187 0.9745
2.6620 5.6508 -1.6173 0.9745
2.4521 5.7338 -1.6146 0.9746
2.2398 5.8093 -1.6121 0.9746
1.9889 5.7714 -1.5806 0.9751
1.4803 5.5735 -1.4931 0.9765
0.8532 5.5986 -1.4663 0.9769
0.6504 5.6258 -1.4663 0.9769
0.4468 5.6456 -1.4663 0.9769
0.0381 5.6631 -1.4663 0.9769
-0.5747 5.6340 -1.4663 0.9769
-0.9799 5.5778 -1.4663 0.9769
4.6377 3.3445 -1.6187 0.9765
3.9614 4.1233 -1.6187 0.9765
3.8099 4.2636 -1.6187 0.9765
3.6534 4.3985 -1.6187 0.9765
3.4922 4.5276 -1.6187 0.9765
3.3264 4.6507 -1.6187 0.9765
2.9820 4.8787 -1.6187 0.9765
2.4367 5.1727 -1.6187 0.9765
2.0564 5.3337 -1.6183 0.9765
1.8598 5.3968 -1.6160 0.9765
1.6614 5.4531 -1.6138 0.9766
1.4615 5.5025 -1.6117 0.9766
0.4095 5.1737 -1.4692 0.9787
0.0348 5.1795 -1.4663 0.9787
-0.1523 5.1774 -1.4663 0.9787
-0.5257 5.1529 -1.4663 0.9787
-0.7114 5.1306 -1.4663 0.9787
4.1546 3.2304 -1.6187 0.9782
4.0352 3.3783 -1.6187 0.9782
3.7808 3.6608 -1.6187 0.9782
3.6461 3.7950 -1.6187 0.9782
3.5066 3.9242 -1.6187 0.9782
3.3626 4.0483 -1.6187 0.9782
3.2142 4.1671 -1.6187 0.9782
3.0616 4.2805 -1.6187 0.9782
2.9050 4.3883 -1.6187 0.9782
2.4133 4.6768 -1.6187 0.9782
2.0693 4.8388 -1.6187 0.9782
1.7146 4.9756 -1.6187 0.9782
1.5338 5.0343 -1.6187 0.9782
1.3501 5.0832 -1.6177 0.9782
1.1644 5.1231 -1.6159 0.9783
0.7899 5.1835 -1.6127 0.9783
0.4072 5.1453 -1.5875 0.9786
0.2177 5.0778 -1.5633 0.9790
-0.6642 4.7899 -1.4874 0.9800
-0.9979 4.6808 -1.4721 0.9802
4.0500 2.7038 -1.6187 0.9797
3.9497 2.8483 -1.6187 0.9797
3.7338 3.1260 -1.6187 0.9797
3.6185 3.2588 -1.6187 0.9797
3.4984 3.3874 -1.6187 0.9797
3.2447 3.6311 -1.6187 0.9797
2.9741 3.8559 -1.6187 0.9797
2.8329 3.9608 -1.6187 0.9797
2.5396 4.1550 -1.6187 0.9797
2.3879 4.2440 -1.6187 0.9797
2.2330 4.3275 -1.6187 0.9797
2.0753 4.4053 -1.6187 0.9797
1.9148 4.4774 -1.6187 0.9797
1.7518 4.5437 -1.6187 0.9797
1.5866 4.6040 -1.6187 0.9797
1.4192 4.6583 -1.6187 0.9797
1.2501 4.7065 -1.6187 0.9797
1.0793 4.7486 -1.6187 0.9797
0.9070 4.7845 -1.6187 0.9797
0.2081 4.8525 -1.6145 0.9797
0.0326 4.8539 -1.6135 0.9797
-0.1426 4.8492 -1.6126 0.9798
-0.3175 4.8386 -1.6118 0.9798
-0.4919 4.8219 -1.6111 0.9798
-0.6613 4.7688 -1.6003 0.9799
3.7646 2.5133 -1.6187 0.9810
3.6714 2.6476 -1.6187 0.9810
3.4706 2.9057 -1.6187 0.9810
3.3634 3.0292 -1.6187 0.9810
3.0161 3.3753 -1.6187 0.9810
2.8922 3.4820 -1.6187 0.9810
2.7645 3.5842 -1.6187 0.9810
2.6333 3.6817 -1.6187 0.9810
2.3606 3.8622 -1.6187 0.9810
2.2196 3.9449 -1.6187 0.9810
1.9290 4.0949 -1.6187 0.9810
1.7799 4.1619 -1.6187 0.9810
1.6284 4.2234 -1.6187 0.9810
1.4748 4.2795 -1.6187 0.9810
1.3192 4.3300 -1.6187 0.9810
1.1620 4.3748 -1.6187 0.9810
0.6819 4.4748 -1.6187 0.9810
-0.1330 4.5223 -1.6179 0.9810
-0.4587 4.4971 -1.6165 0.9810
-0.7817 4.4495 -1.6155 0.9810
-0.9417 4.4174 -1.6152 0.9810
3.3345 2.5928 -1.6187 0.9821
3.2387 2.7115 -1.6187 0.9821
2.8145 3.1497 -1.6187 0.9821
2.5798 3.3446 -1.6187 0.9821
2.0712 3.6813 -1.6187 0.9821
1.0843 4.0825 -1.6187 0.9821
0.6363 4.1758 -1.6187 0.9821
0.4851 4.1961 -1.6187 0.9821
0.1809 4.2201 -1.6187 0.9821
-0.1242 4.2222 -1.6187 0.9821
-0.4287 4.2022 -1.6187 0.9821
-0.8807 4.1312 -1.6187 0.9821
3.2894 2.1960 -1.6187 0.9831
3.1222 2.4277 -1.6187 0.9831
2.6353 2.9491 -1.6187 0.9831
2.5271 3.0424 -1.6187 0.9831
2.3008 3.2169 -1.6187 0.9831
2.1831 3.2979 -1.6187 0.9831
1.9394 3.4469 -1.6187 0.9831
1.8136 3.5147 -1.6187 0.9831
1.6855 3.5779 -1.6187 0.9831
1.1527 3.7834 -1.6187 0.9831
0.5959 3.9099 -1.6187 0.9831
0.1694 3.9515 -1.6187 0.9831
0.0266 3.9550 -1.6187 0.9831
-0.4014 3.9347 -1.6187 0.9831
-0.5432 3.9176 -1.6187 0.9831
-0.6844 3.8954 -1.6187 0.9831
3.0890 2.0622 -1.6187 0.9839
3.0125 2.1725 -1.6187 0.9839
2.9321 2.2799 -1.6187 0.9839
2.7599 2.4856 -1.6187 0.9839
2.2684 2.9410 -1.6187 0.9839
2.1607 3.0210 -1.6187 0.9839
2.0502 3.0971 -1.6187 0.9839
1.9370 3.1691 -1.6187 0.9839
1.8213 3.2370 -1.6187 0.9839
1.5828 3.3600 -1.6187 0.9839
1.4604 3.4150 -1.6187 0.9839
0.9534 3.5897 -1.6187 0.9839
0.6918 3.6492 -1.6187 0.9839
0.5596 3.6718 -1.6187 0.9839
0.2930 3.7026 -1.6187 0.9839
-0.7744 3.6326 -1.6187 0.9839
2.8364 2.0454 -1.6187 0.9847
2.6813 2.2449 -1.6187 0.9847
2.5122 2.4326 -1.6187 0.9847
2.4228 2.5217 -1.6187 0.9847
2.2344 2.6901 -1.6187 0.9847
1.9303 2.9160 -1.6187 0.9847
1.8237 2.9838 -1.6187 0.9847
1.4903 3.1636 -1.6187 0.9847
1.3750 3.2153 -1.6187 0.9847
1.2580 3.2629 -1.6187 0.9847
1.0192 3.3452 -1.6187 0.9847
0.8977 3.3798 -1.6187 0.9847
0.7750 3.4100 -1.6187 0.9847
0.6514 3.4358 -1.6187 0.9847
0.5268 3.4571 -1.6187 0.9847
0.4016 3.4739 -1.6187 0.9847
0.1498 3.4938 -1.6187 0.9847
0.0235 3.4969 -1.6187 0.9847
-0.4803 3.4639 -1.6187 0.9847
-0.7291 3.4202 -1.6187 0.9847
2.2863 2.3796 -1.6187 0.9854
1.7210 2.8156 -1.6187 0.9854
1.4063 2.9853 -1.6187 0.9854
0.8471 3.1894 -1.6187 0.9854
0.6147 3.2422 -1.6187 0.9854
0.4971 3.2623 -1.6187 0.9854
0.3790 3.2781 -1.6187 0.9854
0.2603 3.2897 -1.6187 0.9854
0.0222 3.2999 -1.6187 0.9854
-0.2161 3.2929 -1.6187 0.9854
-0.3349 3.2829 -1.6187 0.9854
-0.4533 3.2687 -1.6187 0.9854
-0.6880 3.2274 -1.6187 0.9854
2.2416 2.1705 -1.6187 0.9860
2.1617 2.2500 -1.6187 0.9860
1.9937 2.4002 -1.6187 0.9860
1.9057 2.4707 -1.6187 0.9860
1.7223 2.6018 -1.6187 0.9860
1.6272 2.6623 -1.6187 0.9860
1.4308 2.7728 -1.6187 0.9860
1.3297 2.8227 -1.6187 0.9860
1.2269 2.8689 -1.6187 0.9860
1.1225 2.9113 -1.6187 0.9860
0.8010 3.0157 -1.6187 0.9860
0.6915 3.0426 -1.6187 0.9860
0.5812 3.0656 -1.6187 0.9860
0.4701 3.0846 -1.6187 0.9860
0.1337 3.1174 -1.6187 0.9860
-0.0917 3.1189 -1.6187 0.9860
-0.3167 3.1041 -1.6187 0.9860
-0.6506 3.0517 -1.6187 0.9860
2.4580 1.6410 -1.6187 0.9866
1.9693 2.2038 -1.6187 0.9866
1.8050 2.3402 -1.6187 0.9866
1.7193 2.4039 -1.6187 0.9866
1.6314 2.4644 -1.6187 0.9866
1.5413 2.5217 -1.6187 0.9866
1.2595 2.6736 -1.6187 0.9866
1.1621 2.7174 -1.6187 0.9866
0.9629 2.7942 -1.6187 0.9866
0.4453 2.9217 -1.6187 0.9866
0.3394 2.9359 -1.6187 0.9866
0.2332 2.9463 -1.6187 0.9866
0.1266 2.9528 -1.6187 0.9866
-0.4059 2.9274 -1.6187 0.9866
2.2740 1.6399 -1.6187 0.9871
2.2133 1.7210 -1.6187 0.9871
2.1497 1.7998 -1.6187 0.9871
1.7914 2.1567 -1.6187 0.9871
1.6310 2.2804 -1.6187 0.9871
1.5476 2.3378 -1.6187 0.9871
1.4621 2.3922 -1.6187 0.9871
1.3748 2.4435 -1.6187 0.9871
1.2856 2.4915 -1.6187 0.9871
1.1024 2.5778 -1.6187 0.9871
1.0086 2.6160 -1.6187 0.9871
0.8171 2.6820 -1.6187 0.9871
0.6214 2.7340 -1.6187 0.9871
0.4224 2.7717 -1.6187 0.9871
0.3220 2.7852 -1.6187 0.9871
0.2212 2.7950 -1.6187 0.9871
0.0188 2.8036 -1.6187 0.9871
-0.0824 2.8025 -1.6187 0.9871
-0.1836 2.7977 -1.6187 0.9871
-0.2845 2.7892 -1.6187 0.9871
-0.3851 2.7771 -1.6187 0.9871
-0.4851 2.7614 -1.6187 0.9871
-0.5846 2.7421 -1.6187 0.9871
