ply
format ascii 1.0
element vertex 346
property float32 x
property float32 y
property float32 z
property float32 I
end_header
29.9997 -10.0136 2.6773 0.8808
30.0144 -10.0186 1.2477 0.8810
30.0144 -10.0185 0.5345 0.8811
40.1102 26.6731 0.8137 0.8247
30.0144 -10.0186 -0.1782 0.8811
40.1102 26.6731 -0.2712 0.8247
30.0144 -10.0186 -0.8910 0.8811
27.2059 -10.1945 -1.4734 0.8902
27.8009 -8.1692 -1.4695 0.8904
28.6247 -4.0444 -1.4661 0.8907
28.7528 -3.0011 -1.4661 0.8907
28.8948 -0.9041 -1.4661 0.8907
28.9086 0.1469 -1.4661 0.8907
28.8841 1.1977 -1.4661 0.8907
30.2478 5.7195 -1.5612 0.8840
30.8446 8.1922 -1.6185 0.8800
30.5264 9.3080 -1.6185 0.8800
30.1680 10.4116 -1.6185 0.8800
29.3320 12.5761 -1.6185 0.8800
28.3408 14.6741 -1.6185 0.8800
27.7889 15.6947 -1.6185 0.8800
27.2000 16.6945 -1.6185 0.8800
26.5752 17.6724 -1.6185 0.8800
25.9153 18.6269 -1.6185 0.8800
25.2212 19.5567 -1.6185 0.8800
18.7247 -7.0165 -1.4662 0.9229
21.8574 -3.0883 -1.6185 0.9153
22.0240 -1.4920 -1.6185 0.9153
22.0636 -0.6904 -1.6185 0.9153
22.0742 0.1121 -1.6185 0.9153
22.0555 0.9145 -1.6185 0.9153
22.0077 1.7157 -1.6185 0.9153
21.9309 2.5146 -1.6185 0.9153
21.8250 3.3101 -1.6186 0.9153
21.6902 4.1013 -1.6186 0.9153
21.5268 4.8871 -1.6186 0.9153
21.3350 5.6665 -1.6186 0.9153
20.8669 7.2016 -1.6186 0.9153
17.9252 12.8839 -1.6186 0.9153
17.4451 13.5270 -1.6186 0.9153
15.7874 -5.9158 -1.6186 0.9345
15.9921 -5.3380 -1.6186 0.9345
16.1755 -4.7531 -1.6186 0.9345
16.5968 -2.9639 -1.6186 0.9345
16.6936 -2.3587 -1.6186 0.9345
16.8592 0.0856 -1.6186 0.9345
16.7497 1.9205 -1.6186 0.9345
16.4411 3.7325 -1.6186 0.9345
16.2946 4.3278 -1.6186 0.9345
16.1265 4.9173 -1.6186 0.9345
15.9371 5.5002 -1.6186 0.9345
15.7267 6.0760 -1.6186 0.9345
15.2437 7.2026 -1.6186 0.9345
13.6903 9.8400 -1.6186 0.9345
13.3236 10.3312 -1.6186 0.9345
12.9252 -4.3143 -1.6186 0.9466
13.0735 -3.8416 -1.6186 0.9466
13.3181 -2.8816 -1.6186 0.9466
13.4140 -2.3956 -1.6186 0.9466
13.5527 -1.4146 -1.6186 0.9466
13.6261 0.0692 -1.6186 0.9466
13.6146 0.5645 -1.6186 0.9466
13.5376 1.5522 -1.6186 0.9466
13.4723 2.0433 -1.6186 0.9466
13.3891 2.5317 -1.6186 0.9466
13.2882 3.0168 -1.6186 0.9466
13.0339 3.9743 -1.6186 0.9466
12.8808 4.4455 -1.6186 0.9466
12.1006 6.2654 -1.6186 0.9466
11.8649 6.7011 -1.6186 0.9466
11.6134 7.1280 -1.6186 0.9466
11.0649 7.9530 -1.6186 0.9466
10.8361 -3.6170 -1.6186 0.9549
10.9604 -3.2207 -1.6186 0.9549
11.0702 -2.8201 -1.6186 0.9549
11.1654 -2.4158 -1.6186 0.9549
11.3114 -1.5982 -1.6186 0.9549
11.3621 -1.1859 -1.6186 0.9549
11.4182 -0.3573 -1.6186 0.9549
11.4236 0.0580 -1.6186 0.9549
11.2946 1.7130 -1.6186 0.9549
11.1403 2.5291 -1.6186 0.9549
11.0410 2.9324 -1.6186 0.9549
10.6562 4.1170 -1.6186 0.9549
10.4995 4.5017 -1.6186 0.9549
9.9471 5.6180 -1.6186 0.9549
9.7363 5.9759 -1.6186 0.9549
9.5126 6.3258 -1.6186 0.9549
9.3200 -3.1109 -1.6186 0.9610
9.6724 -1.7273 -1.6186 0.9610
9.7288 -1.3746 -1.6186 0.9610
9.8030 -0.6641 -1.6186 0.9610
9.8170 0.4071 -1.6186 0.9610
9.7615 1.1192 -1.6186 0.9610
9.5817 2.1753 -1.6186 0.9610
9.3983 2.8657 -1.6186 0.9610
9.1653 3.5410 -1.6186 0.9610
9.0305 3.8718 -1.6186 0.9610
8.5553 4.8319 -1.6187 0.9610
8.1817 5.4408 -1.6187 0.9610
7.9785 5.7346 -1.6187 0.9610
7.7648 6.0209 -1.6187 0.9610
8.1686 -2.7266 -1.6186 0.9656
8.2623 -2.4278 -1.6186 0.9656
8.4169 -1.8211 -1.6186 0.9656
8.5651 -0.8940 -1.6186 0.9656
8.5919 -0.5821 -1.6186 0.9656
8.6042 0.3568 -1.6186 0.9656
8.5856 0.6693 -1.6186 0.9656
8.5143 1.2913 -1.6186 0.9656
8.4617 1.6000 -1.6186 0.9656
8.1405 2.8095 -1.6187 0.9656
8.0330 3.1035 -1.6187 0.9656
7.9149 3.3935 -1.6187 0.9656
7.7863 3.6790 -1.6187 0.9656
7.6474 3.9596 -1.6187 0.9656
7.3395 4.5048 -1.6187 0.9656
7.3469 -2.1589 -1.6187 0.9692
7.4206 -1.8904 -1.6187 0.9692
7.5383 -1.3462 -1.6187 0.9692
7.6162 -0.7950 -1.6187 0.9692
7.6538 -0.2395 -1.6187 0.9692
7.6510 0.3172 -1.6187 0.9692
7.6344 0.5952 -1.6187 0.9692
7.5242 1.4227 -1.6187 0.9692
7.1430 2.7597 -1.6187 0.9692
6.9236 3.2714 -1.6187 0.9692
6.8001 3.5209 -1.6187 0.9692
6.6677 3.7658 -1.6187 0.9692
6.2181 4.4693 -1.6187 0.9692
6.0515 4.6924 -1.6187 0.9692
6.6741 -1.7002 -1.6187 0.9721
6.7315 -1.4565 -1.6187 0.9721
6.7800 -1.2108 -1.6187 0.9721
6.8500 -0.7150 -1.6187 0.9721
6.8715 -0.4655 -1.6187 0.9721
6.8872 0.0350 -1.6187 0.9721
6.8664 0.5353 -1.6187 0.9721
6.8094 1.0328 -1.6187 0.9721
6.7673 1.2796 -1.6187 0.9721
6.7163 1.5248 -1.6187 0.9721
6.5878 2.0087 -1.6187 0.9721
6.4245 2.4821 -1.6187 0.9721
6.2272 2.9423 -1.6187 0.9721
6.1161 3.1667 -1.6187 0.9721
5.8698 3.6027 -1.6187 0.9721
5.7350 3.8138 -1.6187 0.9721
5.5926 4.0197 -1.6187 0.9721
5.8542 -2.1937 -1.6187 0.9745
6.1103 -1.3221 -1.6187 0.9745
6.1543 -1.0991 -1.6187 0.9745
6.2516 0.0318 -1.6187 0.9745
6.2328 0.4859 -1.6187 0.9745
6.2110 0.7121 -1.6187 0.9745
6.1810 0.9375 -1.6187 0.9745
6.1428 1.1615 -1.6187 0.9745
6.0422 1.6048 -1.6187 0.9745
5.9799 1.8234 -1.6187 0.9745
5.9096 2.0395 -1.6187 0.9745
5.7458 2.4635 -1.6187 0.9745
5.6525 2.6708 -1.6187 0.9745
5.2057 3.4618 -1.6187 0.9745
5.0765 3.6487 -1.6187 0.9745
4.9405 3.8309 -1.6187 0.9745
5.3542 -2.0063 -1.6187 0.9765
5.6287 -1.0052 -1.6187 0.9765
5.6869 -0.5936 -1.6187 0.9765
5.7047 -0.3865 -1.6187 0.9765
5.7177 0.0291 -1.6187 0.9765
5.7129 0.2369 -1.6187 0.9765
5.7005 0.4444 -1.6187 0.9765
5.6806 0.6513 -1.6187 0.9765
5.6183 1.0623 -1.6187 0.9765
5.5262 1.4677 -1.6187 0.9765
5.4050 1.8654 -1.6187 0.9765
5.0776 2.6290 -1.6187 0.9765
4.9786 2.8119 -1.6187 0.9765
4.8732 2.9910 -1.6187 0.9765
4.5186 3.5037 -1.6187 0.9765
4.9280 -1.8466 -1.6187 0.9782
4.9919 -1.6662 -1.6187 0.9782
5.0492 -1.4837 -1.6187 0.9782
5.2581 0.2180 -1.6187 0.9782
5.2467 0.4090 -1.6187 0.9782
5.2284 0.5995 -1.6187 0.9782
4.9747 1.7169 -1.6187 0.9782
4.7582 2.2483 -1.6187 0.9782
4.6733 2.4197 -1.6187 0.9782
4.5823 2.5880 -1.6187 0.9782
4.2733 3.0715 -1.6187 0.9782
4.1589 3.2248 -1.6187 0.9782
4.5600 -1.7087 -1.6187 0.9797
4.6720 -1.3729 -1.6187 0.9797
4.7189 -1.2021 -1.6187 0.9797
4.7595 -1.0298 -1.6187 0.9797
4.8584 -0.3291 -1.6187 0.9797
4.8672 -0.1523 -1.6187 0.9797
4.8549 0.3785 -1.6187 0.9797
4.8379 0.5547 -1.6187 0.9797
4.7487 1.0781 -1.6187 0.9797
4.4756 1.9189 -1.6187 0.9797
4.3243 2.2390 -1.6187 0.9797
3.9542 2.8421 -1.6187 0.9797
3.8483 2.9840 -1.6187 0.9797
4.2936 -1.4332 -1.6187 0.9810
4.3863 -1.1174 -1.6187 0.9810
4.4559 -0.7958 -1.6187 0.9810
4.4819 -0.6332 -1.6187 0.9810
4.5161 -0.3059 -1.6187 0.9810
4.4969 0.5156 -1.6187 0.9810
4.4476 0.8410 -1.6187 0.9810
4.3747 1.1619 -1.6187 0.9810
4.3296 1.3202 -1.6187 0.9810
4.2222 1.6313 -1.6187 0.9810
4.1602 1.7837 -1.6187 0.9810
3.9413 2.2260 -1.6187 0.9810
3.6755 2.6418 -1.6187 0.9810
3.5771 2.7737 -1.6187 0.9810
3.9553 -1.4821 -1.6187 0.9821
4.1581 -0.7426 -1.6187 0.9821
4.1824 -0.5909 -1.6187 0.9821
4.2142 -0.2855 -1.6187 0.9821
4.2218 -0.1321 -1.6187 0.9821
4.2239 0.0215 -1.6187 0.9821
4.2203 0.1750 -1.6187 0.9821
4.2111 0.3283 -1.6187 0.9821
4.1964 0.4812 -1.6187 0.9821
4.1762 0.6334 -1.6187 0.9821
4.1191 0.9351 -1.6187 0.9821
4.0403 1.2320 -1.6187 0.9821
3.9401 1.5223 -1.6187 0.9821
3.7510 1.9422 -1.6187 0.9821
3.6000 2.2095 -1.6187 0.9821
3.4299 2.4653 -1.6187 0.9821
3.7515 -1.2522 -1.6187 0.9831
3.7946 -1.1150 -1.6187 0.9831
3.8934 -0.6953 -1.6187 0.9831
3.9161 -0.5533 -1.6187 0.9831
3.9336 -0.4106 -1.6187 0.9831
3.9516 0.1639 -1.6187 0.9831
3.9431 0.3074 -1.6187 0.9831
3.9103 0.5931 -1.6187 0.9831
3.8861 0.7348 -1.6187 0.9831
3.8569 0.8756 -1.6187 0.9831
3.8225 1.0152 -1.6187 0.9831
3.7831 1.1535 -1.6187 0.9831
3.6892 1.4253 -1.6187 0.9831
3.6350 1.5585 -1.6187 0.9831
3.5122 1.8185 -1.6187 0.9831
3.4780 -1.3033 -1.6187 0.9839
3.5231 -1.1759 -1.6187 0.9839
3.5635 -1.0471 -1.6187 0.9839
3.6301 -0.7854 -1.6187 0.9839
3.6776 -0.5196 -1.6187 0.9839
3.7056 -0.2510 -1.6187 0.9839
3.7109 0.1539 -1.6187 0.9839
3.7029 0.2887 -1.6187 0.9839
3.6900 0.4231 -1.6187 0.9839
3.6495 0.6901 -1.6187 0.9839
3.5527 1.0833 -1.6187 0.9839
3.5109 1.2117 -1.6187 0.9839
3.4646 1.3385 -1.6187 0.9839
3.4136 1.4636 -1.6187 0.9839
3.3582 1.5867 -1.6187 0.9839
3.2983 1.7078 -1.6187 0.9839
3.1655 1.9429 -1.6187 0.9839
3.0928 2.0567 -1.6187 0.9839
3.0159 2.1677 -1.6187 0.9839
2.9351 2.2759 -1.6187 0.9839
3.3551 -0.9859 -1.6187 0.9847
3.4179 -0.7395 -1.6187 0.9847
3.4940 0.1449 -1.6187 0.9847
3.4864 0.2718 -1.6187 0.9847
3.4742 0.3983 -1.6187 0.9847
3.4574 0.5244 -1.6187 0.9847
3.4102 0.7742 -1.6187 0.9847
3.3798 0.8977 -1.6187 0.9847
3.3449 1.0199 -1.6187 0.9847
3.0449 1.7197 -1.6187 0.9847
2.9804 1.8293 -1.6187 0.9847
2.9119 1.9364 -1.6187 0.9847
2.7635 2.1429 -1.6187 0.9847
3.0901 -1.1579 -1.6187 0.9854
3.1661 -0.9303 -1.6187 0.9854
3.2253 -0.6978 -1.6187 0.9854
3.2485 -0.5801 -1.6187 0.9854
3.2675 -0.4617 -1.6187 0.9854
3.2821 -0.3426 -1.6187 0.9854
3.2924 -0.2230 -1.6187 0.9854
3.2784 0.3759 -1.6187 0.9854
3.2425 0.6131 -1.6187 0.9854
3.1194 1.0766 -1.6187 0.9854
2.9304 1.5173 -1.6187 0.9854
2.8733 1.6228 -1.6187 0.9854
2.8124 1.7262 -1.6187 0.9854
2.6078 2.0221 -1.6187 0.9854
2.9218 -1.0948 -1.6187 0.9860
2.9597 -0.9879 -1.6187 0.9860
2.9936 -0.8797 -1.6187 0.9860
3.0236 -0.7703 -1.6187 0.9860
3.0895 -0.4365 -1.6187 0.9860
3.1033 -0.3239 -1.6187 0.9860
3.1175 0.1293 -1.6187 0.9860
3.0849 0.4679 -1.6187 0.9860
3.0659 0.5797 -1.6187 0.9860
3.0428 0.6908 -1.6187 0.9860
3.0156 0.8009 -1.6187 0.9860
2.9845 0.9100 -1.6187 0.9860
2.9105 1.1245 -1.6187 0.9860
2.8677 1.2296 -1.6187 0.9860
2.8211 1.3330 -1.6187 0.9860
2.6593 1.6322 -1.6187 0.9860
2.5982 1.7278 -1.6187 0.9860
2.4658 1.9120 -1.6187 0.9860
2.8034 -0.9357 -1.6187 0.9866
2.8355 -0.8332 -1.6187 0.9866
2.8886 -0.6250 -1.6187 0.9866
2.9094 -0.5196 -1.6187 0.9866
2.9529 0.1224 -1.6187 0.9866
2.9465 0.2297 -1.6187 0.9866
2.9362 0.3367 -1.6187 0.9866
2.9040 0.5491 -1.6187 0.9866
2.8269 0.8620 -1.6187 0.9866
2.7937 0.9642 -1.6187 0.9866
2.6245 1.3589 -1.6187 0.9866
2.5734 1.4534 -1.6187 0.9866
2.4609 1.6365 -1.6187 0.9866
2.3355 1.8110 -1.6187 0.9866
2.6594 -0.8877 -1.6187 0.9871
2.6899 -0.7904 -1.6187 0.9871
2.7169 -0.6921 -1.6187 0.9871
2.7761 -0.3922 -1.6187 0.9871
2.7972 -0.1895 -1.6187 0.9871
2.8023 -0.0877 -1.6187 0.9871
2.8036 0.0142 -1.6187 0.9871
2.8012 0.1162 -1.6187 0.9871
2.7548 0.5209 -1.6187 0.9871
2.7341 0.6207 -1.6187 0.9871
2.7097 0.7197 -1.6187 0.9871
2.6818 0.8177 -1.6187 0.9871
2.5768 1.1048 -1.6187 0.9871
2.5349 1.1978 -1.6187 0.9871
2.4412 1.3788 -1.6187 0.9871
2.3346 1.5525 -1.6187 0.9871
2.2766 1.6363 -1.6187 0.9871
2.2156 1.7180 -1.6187 0.9871
