ply
format ascii 1.0
element vertex 323
property float32 x
property float32 y
property float32 z
property float32 I
end_header
27.0583 -10.6112 -1.4740 0.8901
27.6762 -8.6354 -1.4703 0.8904
27.9305 -7.6339 -1.4684 0.8905
28.3582 -5.6161 -1.4661 0.8907
23.9326 -2.9884 -1.2231 0.9079
28.9047 -0.4999 -1.4661 0.8907
28.8669 1.5602 -1.4661 0.8907
28.8235 3.6301 -1.4733 0.8902
29.6514 4.8133 -1.5234 0.8866
30.4723 6.0683 -1.5757 0.8830
30.9816 7.3265 -1.6145 0.8803
30.7760 8.4465 -1.6185 0.8800
30.4554 9.5379 -1.6185 0.8800
29.6990 11.6830 -1.6185 0.8800
28.7914 13.7688 -1.6185 0.8800
27.1578 16.7631 -1.6185 0.8800
18.3439 -7.9592 -1.4662 0.9229
19.2830 -6.0166 -1.4811 0.9222
19.9944 -5.4648 -1.5198 0.9202
21.9043 -2.7352 -1.6185 0.9153
21.9879 -1.9528 -1.6185 0.9153
22.0435 -1.1680 -1.6185 0.9153
21.6495 4.3113 -1.6186 0.9153
20.2414 8.8079 -1.6186 0.9153
19.1859 10.9180 -1.6186 0.9153
15.4663 -6.7107 -1.6186 0.9345
16.0942 -5.0217 -1.6186 0.9345
16.2629 -4.4449 -1.6186 0.9345
16.5382 -3.2753 -1.6186 0.9345
16.6444 -2.6838 -1.6186 0.9345
16.7295 -2.0890 -1.6186 0.9345
16.7933 -1.4915 -1.6186 0.9345
16.8569 -0.2915 -1.6186 0.9345
16.7273 2.1067 -1.6186 0.9345
16.6416 2.7014 -1.6186 0.9345
16.5348 3.2927 -1.6186 0.9345
16.0890 5.0387 -1.6186 0.9345
15.8992 5.6088 -1.6186 0.9345
14.9410 7.8111 -1.6186 0.9345
14.3468 8.8555 -1.6186 0.9345
12.5003 -5.4238 -1.6186 0.9466
13.1442 -3.5925 -1.6186 0.9466
13.3667 -2.6472 -1.6186 0.9466
13.4525 -2.1692 -1.6186 0.9466
13.5729 -1.2055 -1.6186 0.9466
13.6072 -0.7210 -1.6186 0.9466
13.5195 1.7026 -1.6186 0.9466
13.4503 2.1834 -1.6186 0.9466
13.3639 2.6613 -1.6186 0.9466
13.2606 3.1359 -1.6186 0.9466
13.1404 3.6064 -1.6186 0.9466
13.0036 4.0724 -1.6186 0.9466
12.4947 5.4370 -1.6186 0.9466
11.8431 6.7395 -1.6186 0.9466
11.5954 7.1573 -1.6186 0.9466
10.9053 -3.4026 -1.6186 0.9549
11.1199 -2.6172 -1.6186 0.9549
11.2061 -2.2193 -1.6186 0.9549
11.3357 -1.4155 -1.6186 0.9549
11.4077 -0.6045 -1.6186 0.9549
11.4221 -0.1975 -1.6186 0.9549
11.4218 0.2096 -1.6186 0.9549
11.3779 1.0226 -1.6186 0.9549
11.3343 1.4274 -1.6186 0.9549
11.2762 1.8304 -1.6186 0.9549
11.2038 2.2311 -1.6186 0.9549
11.0165 3.0235 -1.6186 0.9549
10.9017 3.4142 -1.6186 0.9549
10.7732 3.8005 -1.6186 0.9549
10.4751 4.5582 -1.6186 0.9549
10.3060 4.9286 -1.6186 0.9549
9.0136 -3.9109 -1.6186 0.9610
9.1472 -3.5872 -1.6186 0.9610
9.2693 -3.2589 -1.6186 0.9610
9.3795 -2.9266 -1.6186 0.9610
9.4778 -2.5905 -1.6186 0.9610
9.5641 -2.2510 -1.6186 0.9610
9.6383 -1.9088 -1.6186 0.9610
9.7002 -1.5641 -1.6186 0.9610
9.8240 -0.1699 -1.6186 0.9610
9.8112 0.5303 -1.6186 0.9610
9.7860 0.8795 -1.6186 0.9610
9.7485 1.2277 -1.6186 0.9610
9.6985 1.5743 -1.6186 0.9610
9.6363 1.9190 -1.6186 0.9610
9.4751 2.6005 -1.6186 0.9610
9.3764 2.9365 -1.6186 0.9610
9.2658 3.2688 -1.6186 0.9610
9.1435 3.5969 -1.6186 0.9610
8.7074 4.5522 -1.6187 0.9610
8.5396 4.8596 -1.6187 0.9610
8.3610 5.1609 -1.6187 0.9610
7.9000 -3.4277 -1.6186 0.9656
8.0172 -3.1441 -1.6186 0.9656
8.2207 -2.5650 -1.6186 0.9656
8.3070 -2.2704 -1.6186 0.9656
8.3826 -1.9730 -1.6186 0.9656
8.4476 -1.6730 -1.6186 0.9656
8.5991 0.4648 -1.6186 0.9656
8.5441 1.0761 -1.6186 0.9656
8.5004 1.3799 -1.6186 0.9656
8.4458 1.6819 -1.6186 0.9656
8.3805 1.9818 -1.6187 0.9656
8.3046 2.2792 -1.6187 0.9656
8.0139 3.1525 -1.6187 0.9656
7.8964 3.4361 -1.6187 0.9656
7.4847 4.2593 -1.6187 0.9656
7.3866 -2.0189 -1.6187 0.9692
7.5986 -0.9488 -1.6187 0.9692
7.6564 -0.1324 -1.6187 0.9692
7.6563 0.1405 -1.6187 0.9692
7.5586 1.2270 -1.6187 0.9692
7.3845 2.0267 -1.6187 0.9692
7.1260 2.8033 -1.6187 0.9692
7.0216 3.0554 -1.6187 0.9692
6.9083 3.3037 -1.6187 0.9692
6.7862 3.5478 -1.6187 0.9692
6.3181 -2.7414 -1.6187 0.9721
6.4118 -2.5145 -1.6187 0.9721
6.6436 -1.8158 -1.6187 0.9721
6.7040 -1.5779 -1.6187 0.9721
6.7560 -1.3380 -1.6187 0.9721
6.7994 -1.0964 -1.6187 0.9721
6.8342 -0.8534 -1.6187 0.9721
6.8602 -0.6093 -1.6187 0.9721
6.8862 -0.1191 -1.6187 0.9721
6.8596 0.6165 -1.6187 0.9721
6.7546 1.3451 -1.6187 0.9721
6.7024 1.5850 -1.6187 0.9721
6.6417 1.8228 -1.6187 0.9721
6.4092 2.5213 -1.6187 0.9721
6.3153 2.7481 -1.6187 0.9721
6.2133 2.9714 -1.6187 0.9721
6.1035 3.1909 -1.6187 0.9721
5.9859 3.4064 -1.6187 0.9721
5.7351 -2.4884 -1.6187 0.9745
5.8201 -2.2824 -1.6187 0.9745
5.8978 -2.0736 -1.6187 0.9745
5.9679 -1.8621 -1.6187 0.9745
6.1325 -1.2145 -1.6187 0.9745
6.1719 -0.9952 -1.6187 0.9745
6.2507 -0.1081 -1.6187 0.9745
6.2506 0.1147 -1.6187 0.9745
6.2266 0.5596 -1.6187 0.9745
6.1709 1.0017 -1.6187 0.9745
6.1313 1.2210 -1.6187 0.9745
6.0839 1.4387 -1.6187 0.9745
5.8177 2.2886 -1.6187 0.9745
5.6399 2.6972 -1.6187 0.9745
5.5403 2.8964 -1.6187 0.9745
5.4335 3.0920 -1.6187 0.9745
5.3199 3.2837 -1.6187 0.9745
5.3231 -2.0875 -1.6187 0.9765
5.3941 -1.8965 -1.6187 0.9765
5.5155 -1.5075 -1.6187 0.9765
5.6737 -0.7085 -1.6187 0.9765
5.7095 0.3086 -1.6187 0.9765
5.6439 0.9162 -1.6187 0.9765
5.6077 1.1167 -1.6187 0.9765
5.5644 1.3159 -1.6187 0.9765
5.5139 1.5133 -1.6187 0.9765
5.2430 2.2814 -1.6187 0.9765
4.8278 -2.0947 -1.6187 0.9782
4.8994 -1.9214 -1.6187 0.9782
4.9647 -1.7455 -1.6187 0.9782
5.0238 -1.5675 -1.6187 0.9782
5.0765 -1.3875 -1.6187 0.9782
5.1227 -1.2057 -1.6187 0.9782
5.2415 0.4711 -1.6187 0.9782
5.1947 0.8432 -1.6187 0.9782
5.1613 1.0278 -1.6187 0.9782
5.1214 1.2111 -1.6187 0.9782
5.0221 1.5728 -1.6187 0.9782
4.8256 2.0998 -1.6187 0.9782
4.7477 2.2705 -1.6187 0.9782
4.6637 2.4382 -1.6187 0.9782
4.5739 2.6029 -1.6187 0.9782
4.4672 -1.9383 -1.6187 0.9797
4.5334 -1.7778 -1.6187 0.9797
4.5939 -1.6152 -1.6187 0.9797
4.7768 -0.9460 -1.6187 0.9797
4.8505 -0.4308 -1.6187 0.9797
4.8628 -0.2577 -1.6187 0.9797
4.8500 0.4359 -1.6187 0.9797
4.8314 0.6085 -1.6187 0.9797
4.5316 1.7826 -1.6187 0.9797
4.4652 1.9430 -1.6187 0.9797
4.3931 2.1009 -1.6187 0.9797
4.3154 2.2561 -1.6187 0.9797
4.3663 -1.1934 -1.6187 0.9810
4.4687 -0.7205 -1.6187 0.9810
4.4915 -0.5608 -1.6187 0.9810
4.5201 -0.2395 -1.6187 0.9810
4.5257 -0.0783 -1.6187 0.9810
4.5198 0.2443 -1.6187 0.9810
4.4909 0.5656 -1.6187 0.9810
4.4679 0.7253 -1.6187 0.9810
4.4393 0.8840 -1.6187 0.9810
4.4049 1.0417 -1.6187 0.9810
4.3650 1.1980 -1.6187 0.9810
4.3196 1.3528 -1.6187 0.9810
4.1505 1.8061 -1.6187 0.9810
4.0835 1.9528 -1.6187 0.9810
3.8518 2.3775 -1.6187 0.9810
3.9323 -1.5421 -1.6187 0.9821
4.0322 -1.2581 -1.6187 0.9821
4.0745 -1.1136 -1.6187 0.9821
4.1116 -0.9677 -1.6187 0.9821
4.1701 -0.6724 -1.6187 0.9821
4.2074 -0.3737 -1.6187 0.9821
4.2233 -0.0730 -1.6187 0.9821
4.2232 0.0775 -1.6187 0.9821
4.2178 0.2279 -1.6187 0.9821
4.1426 0.8250 -1.6187 0.9821
4.1105 0.9721 -1.6187 0.9821
4.0309 1.2624 -1.6187 0.9821
3.9833 1.4052 -1.6187 0.9821
3.9307 1.5463 -1.6187 0.9821
3.8106 1.8223 -1.6187 0.9821
3.6711 2.0891 -1.6187 0.9821
3.5944 2.2186 -1.6187 0.9821
3.6820 -1.4439 -1.6187 0.9831
3.7755 -1.1780 -1.6187 0.9831
3.8498 -0.9061 -1.6187 0.9831
3.9046 -0.6296 -1.6187 0.9831
3.9395 -0.3499 -1.6187 0.9831
3.9544 -0.0684 -1.6187 0.9831
3.9492 0.2135 -1.6187 0.9831
3.9391 0.3540 -1.6187 0.9831
3.9240 0.4942 -1.6187 0.9831
3.8488 0.9102 -1.6187 0.9831
3.7742 1.1820 -1.6187 0.9831
3.6265 1.5781 -1.6187 0.9831
3.5049 1.8324 -1.6187 0.9831
3.4072 -1.4784 -1.6187 0.9839
3.4578 -1.3560 -1.6187 0.9839
3.5039 -1.2319 -1.6187 0.9839
3.5827 -0.9792 -1.6187 0.9839
3.6434 -0.7215 -1.6187 0.9839
3.6668 -0.5913 -1.6187 0.9839
3.6996 -0.3286 -1.6187 0.9839
3.7089 -0.1965 -1.6187 0.9839
3.7135 0.0681 -1.6187 0.9839
3.6850 0.4641 -1.6187 0.9839
3.6662 0.5951 -1.6187 0.9839
3.6426 0.7254 -1.6187 0.9839
3.5444 1.1100 -1.6187 0.9839
3.4057 1.4820 -1.6187 0.9839
3.3507 1.6024 -1.6187 0.9839
3.2915 1.7208 -1.6187 0.9839
3.2281 1.8370 -1.6187 0.9839
3.2080 -1.3919 -1.6187 0.9847
3.2556 -1.2767 -1.6187 0.9847
3.3732 -0.9220 -1.6187 0.9847
3.4039 -0.8012 -1.6187 0.9847
3.4303 -0.6793 -1.6187 0.9847
3.4523 -0.5567 -1.6187 0.9847
3.4700 -0.4333 -1.6187 0.9847
3.4921 -0.1850 -1.6187 0.9847
3.4964 -0.0605 -1.6187 0.9847
3.4964 0.0642 -1.6187 0.9847
3.4829 0.3130 -1.6187 0.9847
3.4696 0.4370 -1.6187 0.9847
3.4518 0.5603 -1.6187 0.9847
3.4031 0.8048 -1.6187 0.9847
3.3723 0.9255 -1.6187 0.9847
3.3371 1.0451 -1.6187 0.9847
3.2978 1.1634 -1.6187 0.9847
3.2065 1.3953 -1.6187 0.9847
3.0990 1.6201 -1.6187 0.9847
3.0393 1.7296 -1.6187 0.9847
2.9757 1.8368 -1.6187 0.9847
3.1501 -0.9829 -1.6187 0.9854
3.2121 -0.7560 -1.6187 0.9854
3.2371 -0.6411 -1.6187 0.9854
3.2745 -0.4089 -1.6187 0.9854
3.2994 0.0606 -1.6187 0.9854
3.2741 0.4123 -1.6187 0.9854
3.2364 0.6445 -1.6187 0.9854
3.2114 0.7594 -1.6187 0.9854
3.1120 1.0978 -1.6187 0.9854
2.8681 1.6321 -1.6187 0.9854
2.8081 1.7333 -1.6187 0.9854
2.9786 -0.9294 -1.6187 0.9860
3.0098 -0.8226 -1.6187 0.9860
3.0372 -0.7148 -1.6187 0.9860
3.1080 -0.2760 -1.6187 0.9860
3.1156 0.1684 -1.6187 0.9860
3.0799 0.5000 -1.6187 0.9860
3.0364 0.7181 -1.6187 0.9860
3.0089 0.8258 -1.6187 0.9860
2.9776 0.9325 -1.6187 0.9860
2.9036 1.1422 -1.6187 0.9860
2.8611 1.2450 -1.6187 0.9860
2.8149 1.3462 -1.6187 0.9860
2.7514 -1.0790 -1.6187 0.9866
2.8508 -0.7792 -1.6187 0.9866
2.8991 -0.5741 -1.6187 0.9866
2.9438 -0.2615 -1.6187 0.9866
2.9549 0.0542 -1.6187 0.9866
2.8985 0.5772 -1.6187 0.9866
2.8761 0.6801 -1.6187 0.9866
2.8500 0.7822 -1.6187 0.9866
2.7871 0.9832 -1.6187 0.9866
2.7503 1.0819 -1.6187 0.9866
2.6662 1.2750 -1.6187 0.9866
2.5149 1.5523 -1.6187 0.9866
2.6449 -0.9299 -1.6187 0.9871
2.6764 -0.8351 -1.6187 0.9871
2.7045 -0.7392 -1.6187 0.9871
2.7291 -0.6423 -1.6187 0.9871
2.7502 -0.5447 -1.6187 0.9871
2.7820 -0.3474 -1.6187 0.9871
2.7927 -0.2480 -1.6187 0.9871
2.8032 -0.0485 -1.6187 0.9871
2.8032 0.0514 -1.6187 0.9871
2.7996 0.1513 -1.6187 0.9871
2.7924 0.2510 -1.6187 0.9871
2.7674 0.4492 -1.6187 0.9871
2.7497 0.5476 -1.6187 0.9871
2.7037 0.7420 -1.6187 0.9871
2.6755 0.8379 -1.6187 0.9871
2.6090 1.0263 -1.6187 0.9871
