ply
format ascii 1.0
element vertex 502
property float32 x
property float32 y
property float32 z
property float32 I
end_header
15.5307 19.9363 4.4561 0.9024
2.9013 6.6167 1.2739 0.9711
-6.5629 42.0264 7.5002 0.8413
-9.7953 25.4076 4.8015 0.8953
15.5297 19.9351 3.8712 0.9028
-5.5008 45.8509 7.0745 0.8295
-8.2257 35.7866 5.6253 0.8619
-9.1848 30.0160 4.8087 0.8807
-9.8146 25.4575 4.1797 0.8955
2.9006 6.6150 0.9406 0.9713
-6.1586 39.4378 5.1979 0.8513
-7.4718 38.7630 5.1407 0.8528
-8.3394 36.2811 4.8477 0.8606
-8.2988 31.0162 4.1810 0.8785
-10.1185 29.3056 4.0373 0.8824
15.5277 19.9325 2.7130 0.9033
-4.1369 49.1978 5.3016 0.8199
-5.5455 46.2236 4.9992 0.8292
-9.1640 29.9480 3.3630 0.8816
-10.1186 29.3059 3.3292 0.8827
-4.1222 49.0228 4.1646 0.8208
-6.1790 39.5679 3.3901 0.8515
-7.4620 38.7124 3.3374 0.8536
-8.9202 33.3387 2.9215 0.8706
-9.5449 31.1927 2.7614 0.8773
2.8996 6.6126 0.4477 0.9715
-5.5037 45.8757 2.8652 0.8310
-6.5570 41.9890 2.6353 0.8434
-6.1842 32.0833 2.0261 0.8773
-8.9202 33.3387 2.1401 0.8708
-9.6779 31.6275 2.0510 0.8759
-10.1186 29.3059 1.9225 0.8832
-10.5804 27.4439 1.8239 0.8888
15.5230 19.9265 0.9960 0.9038
2.8992 6.6118 0.2847 0.9715
-5.5167 45.9833 1.8262 0.8308
-6.5570 41.9889 1.6757 0.8436
-6.8226 29.6825 1.2009 0.8852
-10.1186 29.3059 1.2225 0.8833
15.5211 19.9240 0.4267 0.9039
17.9699 28.9651 0.5758 0.8725
17.8774 31.2399 0.6080 0.8659
-5.4766 45.6495 0.7766 0.8320
-6.1146 31.7222 0.5457 0.8788
-6.7604 29.4117 0.5098 0.8863
-7.3270 27.3843 0.4788 0.8928
-8.2790 23.9781 0.4285 0.9035
15.5194 19.9218 -0.1423 0.9039
17.9586 28.9468 -0.1918 0.8726
2.8985 6.6102 -0.0406 0.9715
-3.9322 46.7631 -0.2642 0.8289
-5.3698 34.3868 -0.1960 0.8700
-6.1146 31.7222 -0.1819 0.8788
-7.3270 27.3843 -0.1596 0.8928
-7.8294 25.5867 -0.1507 0.8985
-8.2790 23.9781 -0.1428 0.9035
15.5177 19.9197 -0.7111 0.9039
17.8774 31.2399 -1.0135 0.8659
2.8982 6.6094 -0.2032 0.9715
-5.5037 45.8756 -1.3010 0.8312
-6.1146 31.7222 -0.9097 0.8787
-6.7604 29.4116 -0.8498 0.8862
-7.3270 27.3843 -0.7982 0.8928
-7.8294 25.5867 -0.7534 0.8985
-8.6847 22.5268 -0.6798 0.9079
23.7519 21.3175 -1.6186 0.8800
22.9802 22.1473 -1.6186 0.8800
21.3509 23.7224 -1.6186 0.8800
15.4242 19.7997 -1.2729 0.9044
16.9465 23.4239 -1.4662 0.8907
16.1042 24.0108 -1.4662 0.8907
15.2418 24.5676 -1.4662 0.8907
13.4601 25.5875 -1.4662 0.8907
12.5433 26.0493 -1.4662 0.8907
10.6633 26.8740 -1.4663 0.8907
9.7025 27.2357 -1.4663 0.8907
8.7296 27.5632 -1.4663 0.8907
7.7455 27.8558 -1.4663 0.8907
5.7494 28.3356 -1.4663 0.8907
3.7243 28.6724 -1.4663 0.8907
2.7040 28.7867 -1.4663 0.8907
-0.3721 28.9115 -1.4663 0.8906
-1.3983 28.8802 -1.4664 0.8906
-2.4228 28.8125 -1.4664 0.8906
-3.4442 28.7084 -1.4664 0.8906
-5.4727 28.3920 -1.4664 0.8906
-7.3270 27.3843 -1.4376 0.8927
-8.2790 23.9781 -1.2865 0.9034
-8.6847 22.5268 -1.2244 0.9078
16.4288 14.7449 -1.6186 0.9153
15.3412 15.8736 -1.6186 0.9153
13.3776 14.8635 -1.4662 0.9229
12.2892 15.7754 -1.4662 0.9229
11.7215 16.2018 -1.4662 0.9229
9.9324 17.3564 -1.4663 0.9229
8.6758 18.0176 -1.4663 0.9229
7.3755 18.5879 -1.4663 0.9229
6.0380 19.0646 -1.4663 0.9229
5.3573 19.2670 -1.4663 0.9229
4.6699 19.4451 -1.4663 0.9229
3.9767 19.5987 -1.4663 0.9229
3.2784 19.7276 -1.4663 0.9229
2.5759 19.8316 -1.4663 0.9229
1.1622 19.9646 -1.4663 0.9229
0.4527 19.9933 -1.4663 0.9229
-1.6757 19.9283 -1.4663 0.9229
-3.7852 19.6374 -1.4664 0.9229
-5.1692 19.3194 -1.4664 0.9229
-5.8518 19.1238 -1.4664 0.9229
-7.1941 18.6604 -1.4664 0.9229
12.9393 10.8088 -1.6186 0.9345
12.1397 11.6997 -1.6186 0.9345
10.2170 11.3519 -1.4662 0.9405
9.3858 12.0483 -1.4663 0.9405
8.5073 12.6840 -1.4663 0.9405
8.0516 12.9781 -1.4663 0.9405
5.6330 14.1963 -1.4663 0.9405
4.0916 14.7149 -1.4663 0.9405
3.5666 14.8509 -1.4663 0.9405
3.0371 14.9682 -1.4663 0.9405
0.8876 15.2476 -1.4663 0.9405
-0.1966 15.2722 -1.4663 0.9405
-1.2798 15.2199 -1.4663 0.9405
-2.8909 14.9976 -1.4663 0.9405
-4.4692 14.6053 -1.4664 0.9405
10.4579 8.7359 -1.6186 0.9466
7.5858 9.7378 -1.4663 0.9515
7.2354 10.0009 -1.4663 0.9515
6.8758 10.2515 -1.4663 0.9515
4.1424 11.6282 -1.4663 0.9515
3.7270 11.7679 -1.4663 0.9515
3.3069 11.8928 -1.4663 0.9515
2.4546 12.0976 -1.4663 0.9515
1.5900 12.2413 -1.4663 0.9515
0.7174 12.3234 -1.4663 0.9515
-0.1589 12.3432 -1.4663 0.9515
-0.5970 12.3299 -1.4663 0.9515
-1.0344 12.3009 -1.4663 0.9515
-2.7653 12.0307 -1.4663 0.9515
-3.1907 11.9250 -1.4663 0.9515
-3.6120 11.8042 -1.4664 0.9515
-4.0288 11.6686 -1.4664 0.9515
-4.4406 11.5182 -1.4664 0.9515
8.7674 7.3239 -1.6187 0.9549
7.9391 8.2146 -1.6187 0.9549
7.6336 8.4815 -1.6168 0.9549
7.2035 8.5989 -1.5894 0.9557
6.0658 8.3844 -1.4663 0.9591
5.7644 8.5944 -1.4663 0.9591
5.1400 8.9818 -1.4663 0.9591
4.4897 9.3240 -1.4663 0.9591
2.8516 6.5033 -1.0061 0.9717
3.8168 9.6191 -1.4663 0.9591
2.7724 9.9704 -1.4663 0.9591
2.4166 10.0626 -1.4663 0.9591
1.6965 10.2088 -1.4663 0.9591
1.3330 10.2626 -1.4663 0.9591
0.9678 10.3035 -1.4663 0.9591
0.6014 10.3313 -1.4663 0.9591
0.2343 10.3462 -1.4663 0.9591
-0.5005 10.3368 -1.4663 0.9591
-0.8672 10.3125 -1.4663 0.9591
-1.2327 10.2752 -1.4663 0.9591
-1.9587 10.1619 -1.4663 0.9591
-3.7228 9.6563 -1.4663 0.9591
7.5408 6.2992 -1.6187 0.9610
7.3124 6.5629 -1.6187 0.9610
7.0748 6.8184 -1.6187 0.9610
6.0150 7.7214 -1.6124 0.9611
5.4004 7.4646 -1.5178 0.9633
4.4208 7.7252 -1.4663 0.9646
3.8615 8.0194 -1.4663 0.9646
2.8422 6.4817 -1.1659 0.9717
3.2827 8.2732 -1.4663 0.9646
2.9870 8.3846 -1.4663 0.9646
2.6874 8.4854 -1.4663 0.9646
2.3845 8.5754 -1.4663 0.9646
1.4591 8.7804 -1.4663 0.9646
1.1465 8.8267 -1.4663 0.9646
0.8324 8.8618 -1.4663 0.9646
0.5173 8.8858 -1.4663 0.9646
0.2015 8.8986 -1.4663 0.9646
-0.7458 8.8696 -1.4663 0.9646
-1.0602 8.8375 -1.4663 0.9646
-1.6847 8.7401 -1.4663 0.9646
-1.9939 8.6747 -1.4663 0.9646
-2.9050 8.4136 -1.4663 0.9646
6.6092 5.5209 -1.6187 0.9656
6.4090 5.7521 -1.6187 0.9656
5.9847 6.1924 -1.6187 0.9656
5.7611 6.4010 -1.6187 0.9656
5.5302 6.6015 -1.6187 0.9656
4.2352 6.8266 -1.5100 0.9678
3.6318 6.9041 -1.4663 0.9687
3.3844 7.0287 -1.4663 0.9687
2.6720 6.7340 -1.3617 0.9709
2.3554 7.4370 -1.4663 0.9687
1.5513 7.6453 -1.4663 0.9687
1.0049 7.7362 -1.4663 0.9687
0.4534 7.7880 -1.4663 0.9687
-1.4765 7.6602 -1.4663 0.9687
-2.2827 7.4598 -1.4663 0.9687
-2.5461 7.3741 -1.4663 0.9687
-2.8063 7.2791 -1.4663 0.9687
5.3217 5.5064 -1.6187 0.9692
5.1228 5.6918 -1.6187 0.9692
4.9175 5.8701 -1.6187 0.9692
3.3611 6.3894 -1.5261 0.9709
2.5584 6.4478 -1.4663 0.9720
2.3279 6.5346 -1.4663 0.9720
2.0944 6.6131 -1.4663 0.9720
1.6199 6.7451 -1.4663 0.9720
1.3794 6.7983 -1.4663 0.9720
0.6488 6.9065 -1.4663 0.9720
0.1570 6.9351 -1.4663 0.9720
-0.0893 6.9363 -1.4663 0.9720
-0.5812 6.9125 -1.4663 0.9720
-1.0703 6.8538 -1.4663 0.9720
-2.4954 6.4726 -1.4663 0.9720
5.2858 4.4154 -1.6187 0.9721
4.9591 4.7794 -1.6187 0.9721
4.7863 4.9524 -1.6187 0.9721
3.8364 5.7200 -1.6187 0.9721
2.9744 6.1771 -1.6113 0.9722
2.3584 5.9436 -1.5028 0.9741
2.0937 5.8772 -1.4663 0.9747
1.8837 5.9478 -1.4663 0.9747
1.6714 6.0109 -1.4663 0.9747
1.4569 6.0665 -1.4663 0.9747
0.5835 6.2117 -1.4663 0.9747
-0.3017 6.2317 -1.4663 0.9747
-0.7432 6.1946 -1.4663 0.9747
-1.3976 6.0805 -1.4663 0.9747
-1.6126 6.0271 -1.4663 0.9747
-1.8256 5.9660 -1.4663 0.9747
-2.0362 5.8975 -1.4663 0.9747
-2.2443 5.8215 -1.4663 0.9747
4.7979 4.0079 -1.6187 0.9745
4.6526 4.1758 -1.6187 0.9745
4.5014 4.3383 -1.6187 0.9745
4.1823 4.6468 -1.6187 0.9745
3.6645 5.0652 -1.6187 0.9745
3.2958 5.3124 -1.6187 0.9745
3.1052 5.4261 -1.6187 0.9745
2.9106 5.5329 -1.6187 0.9745
2.2973 5.7896 -1.6127 0.9746
2.0668 5.8016 -1.5946 0.9749
1.5582 5.6039 -1.5060 0.9763
1.1262 5.5501 -1.4663 0.9769
0.9284 5.5866 -1.4663 0.9769
0.7295 5.6161 -1.4663 0.9769
-0.0729 5.6628 -1.4663 0.9769
-0.2739 5.6566 -1.4663 0.9769
-0.8738 5.5955 -1.4663 0.9769
-1.0719 5.5609 -1.4663 0.9769
-1.4638 5.4709 -1.4663 0.9769
-1.6571 5.4154 -1.4663 0.9769
-1.8483 5.3532 -1.4663 0.9769
3.9736 4.1115 -1.6187 0.9765
3.6718 4.3831 -1.6187 0.9765
3.5139 4.5107 -1.6187 0.9765
2.8400 4.9627 -1.6187 0.9765
2.6620 5.0604 -1.6187 0.9765
2.1089 5.3148 -1.6187 0.9765
1.9164 5.3794 -1.6166 0.9765
1.5258 5.4873 -1.6124 0.9766
1.3187 5.4910 -1.5987 0.9768
0.8873 5.3395 -1.5323 0.9777
0.3010 5.1709 -1.4663 0.9787
0.1173 5.1783 -1.4663 0.9787
-0.0667 5.1792 -1.4663 0.9787
-0.6170 5.1428 -1.4663 0.9787
-1.6905 4.8961 -1.4663 0.9787
-1.8632 4.8330 -1.4663 0.9787
4.0389 3.3739 -1.6187 0.9782
3.9166 3.5152 -1.6187 0.9782
3.7893 3.6520 -1.6187 0.9782
3.5206 3.9117 -1.6187 0.9782
3.3795 4.0342 -1.6187 0.9782
3.2342 4.1516 -1.6187 0.9782
3.0848 4.2638 -1.6187 0.9782
2.9315 4.3707 -1.6187 0.9782
2.4501 4.6576 -1.6187 0.9782
2.2832 4.7417 -1.6187 0.9782
2.1134 4.8197 -1.6187 0.9782
1.5890 5.0171 -1.6187 0.9782
1.4095 5.0691 -1.6183 0.9782
1.2273 5.1103 -1.6165 0.9782
0.2973 5.1062 -1.5732 0.9788
-0.0642 4.9852 -1.5335 0.9794
-0.5781 4.8182 -1.4926 0.9799
-0.9077 4.7093 -1.4751 0.9801
-1.0707 4.6581 -1.4701 0.9802
-1.3951 4.5593 -1.4665 0.9802
3.1271 3.7329 -1.6187 0.9797
2.8544 3.9454 -1.6187 0.9797
2.4187 4.2265 -1.6187 0.9797
2.2671 4.3097 -1.6187 0.9797
2.1127 4.3875 -1.6187 0.9797
1.9556 4.4597 -1.6187 0.9797
1.6342 4.5873 -1.6187 0.9797
1.3045 4.6917 -1.6187 0.9797
0.6268 4.8253 -1.6174 0.9797
0.4547 4.8406 -1.6161 0.9797
0.1099 4.8540 -1.6139 0.9797
-1.0654 4.6350 -1.5809 0.9802
-1.2261 4.5825 -1.5768 0.9802
-1.5487 4.4854 -1.5774 0.9802
-1.7103 4.4363 -1.5804 0.9802
3.4739 2.9019 -1.6187 0.9810
3.3687 3.0234 -1.6187 0.9810
3.0281 3.3644 -1.6187 0.9810
2.7817 3.5708 -1.6187 0.9810
2.6532 3.6673 -1.6187 0.9810
2.3863 3.8464 -1.6187 0.9810
2.2482 3.9287 -1.6187 0.9810
2.1073 4.0060 -1.6187 0.9810
1.5190 4.2640 -1.6187 0.9810
1.3667 4.3153 -1.6187 0.9810
0.9001 4.4361 -1.6187 0.9810
0.7421 4.4653 -1.6187 0.9810
0.4233 4.5067 -1.6187 0.9810
0.2631 4.5189 -1.6187 0.9810
-0.3789 4.5054 -1.6168 0.9810
-0.5384 4.4874 -1.6163 0.9810
-0.6971 4.4642 -1.6158 0.9810
-1.0117 4.4015 -1.6150 0.9810
-1.1672 4.3623 -1.6149 0.9810
-1.3213 4.3180 -1.6148 0.9810
-1.6246 4.2139 -1.6150 0.9810
3.1435 2.8213 -1.6187 0.9821
2.7125 3.2379 -1.6187 0.9821
2.3528 3.5080 -1.6187 0.9821
2.2268 3.5893 -1.6187 0.9821
2.0980 3.6661 -1.6187 0.9821
1.9665 3.7383 -1.6187 0.9821
1.2753 4.0269 -1.6187 0.9821
0.9864 4.1072 -1.6187 0.9821
0.8400 4.1396 -1.6187 0.9821
0.6925 4.1668 -1.6187 0.9821
-0.3539 4.2092 -1.6187 0.9821
-0.7995 4.1477 -1.6187 0.9821
-1.0918 4.0805 -1.6187 0.9821
-1.2360 4.0392 -1.6187 0.9821
-1.3786 3.9927 -1.6187 0.9821
-1.5195 3.9413 -1.6187 0.9821
2.8478 2.7446 -1.6187 0.9831
2.7485 2.8439 -1.6187 0.9831
2.6458 2.9397 -1.6187 0.9831
2.5398 3.0318 -1.6187 0.9831
2.4306 3.1200 -1.6187 0.9831
2.3183 3.2044 -1.6187 0.9831
2.2030 3.2847 -1.6187 0.9831
2.0850 3.3608 -1.6187 0.9831
1.7159 3.5634 -1.6187 0.9831
1.5883 3.6221 -1.6187 0.9831
1.4587 3.6762 -1.6187 0.9831
1.1941 3.7705 -1.6187 0.9831
1.0595 3.8105 -1.6187 0.9831
0.7865 3.8761 -1.6187 0.9831
0.5095 3.9221 -1.6187 0.9831
0.2299 3.9484 -1.6187 0.9831
0.0895 3.9541 -1.6187 0.9831
-0.0509 3.9548 -1.6187 0.9831
-0.1913 3.9505 -1.6187 0.9831
-0.6102 3.9077 -1.6187 0.9831
-0.7486 3.8836 -1.6187 0.9831
-0.8860 3.8546 -1.6187 0.9831
-1.0223 3.8207 -1.6187 0.9831
-1.2908 3.7385 -1.6187 0.9831
-1.4227 3.6904 -1.6187 0.9831
2.8505 2.3811 -1.6187 0.9839
2.5811 2.6707 -1.6187 0.9839
2.4847 2.7607 -1.6187 0.9839
2.3851 2.8471 -1.6187 0.9839
2.2825 2.9300 -1.6187 0.9839
1.8448 3.2237 -1.6187 0.9839
1.7292 3.2871 -1.6187 0.9839
1.4916 3.4015 -1.6187 0.9839
1.1214 3.5409 -1.6187 0.9839
0.9950 3.5784 -1.6187 0.9839
0.7386 3.6400 -1.6187 0.9839
0.6089 3.6640 -1.6187 0.9839
0.3473 3.6979 -1.6187 0.9839
0.2158 3.7079 -1.6187 0.9839
-0.0478 3.7139 -1.6187 0.9839
-0.1796 3.7099 -1.6187 0.9839
-0.4424 3.6878 -1.6187 0.9839
-0.9600 3.5880 -1.6187 0.9839
-1.0868 3.5517 -1.6187 0.9839
-1.3361 3.4656 -1.6187 0.9839
2.6838 2.2419 -1.6187 0.9847
2.6025 2.3358 -1.6187 0.9847
2.5179 2.4267 -1.6187 0.9847
2.4302 2.5145 -1.6187 0.9847
2.3394 2.5992 -1.6187 0.9847
2.1491 2.7587 -1.6187 0.9847
1.8435 2.9716 -1.6187 0.9847
1.5171 3.1508 -1.6187 0.9847
1.2897 3.2505 -1.6187 0.9847
1.1736 3.2942 -1.6187 0.9847
1.0558 3.3338 -1.6187 0.9847
0.8166 3.4003 -1.6187 0.9847
0.6954 3.4272 -1.6187 0.9847
0.3270 3.4817 -1.6187 0.9847
-0.1691 3.4929 -1.6187 0.9847
-0.2930 3.4847 -1.6187 0.9847
-0.5396 3.4551 -1.6187 0.9847
-0.6619 3.4338 -1.6187 0.9847
-0.7834 3.4082 -1.6187 0.9847
-1.1413 3.3055 -1.6187 0.9847
2.5326 2.1156 -1.6187 0.9854
2.3761 2.2900 -1.6187 0.9854
2.1191 2.5296 -1.6187 0.9854
2.0280 2.6033 -1.6187 0.9854
1.8381 2.7406 -1.6187 0.9854
1.7397 2.8042 -1.6187 0.9854
1.6390 2.8641 -1.6187 0.9854
1.4317 2.9732 -1.6187 0.9854
1.2171 3.0673 -1.6187 0.9854
1.1074 3.1086 -1.6187 0.9854
0.9963 3.1460 -1.6187 0.9854
0.8840 3.1793 -1.6187 0.9854
0.7706 3.2087 -1.6187 0.9854
0.4251 3.2725 -1.6187 0.9854
0.3086 3.2855 -1.6187 0.9854
0.1918 3.2944 -1.6187 0.9854
-0.0425 3.2997 -1.6187 0.9854
-0.2765 3.2884 -1.6187 0.9854
-0.3931 3.2765 -1.6187 0.9854
-0.5092 3.2605 -1.6187 0.9854
-0.6246 3.2403 -1.6187 0.9854
-0.8529 3.1879 -1.6187 0.9854
-0.9656 3.1556 -1.6187 0.9854
-1.1871 3.0791 -1.6187 0.9854
2.3946 2.0004 -1.6187 0.9860
2.3221 2.0841 -1.6187 0.9860
2.0873 2.3192 -1.6187 0.9860
2.0037 2.3918 -1.6187 0.9860
1.9175 2.4615 -1.6187 0.9860
1.6449 2.6514 -1.6187 0.9860
1.4527 2.7615 -1.6187 0.9860
1.1508 2.9003 -1.6187 0.9860
1.0471 2.9393 -1.6187 0.9860
0.9421 2.9746 -1.6187 0.9860
0.7286 3.0340 -1.6187 0.9860
0.5115 3.0780 -1.6187 0.9860
0.2918 3.1066 -1.6187 0.9860
0.1813 3.1150 -1.6187 0.9860
-0.1509 3.1166 -1.6187 0.9860
-0.2614 3.1093 -1.6187 0.9860
-0.4814 3.0829 -1.6187 0.9860
-0.5906 3.0638 -1.6187 0.9860
-0.6990 3.0410 -1.6187 0.9860
-1.0183 2.9494 -1.6187 0.9860
-1.1224 2.9114 -1.6187 0.9860
2.2682 1.8947 -1.6187 0.9866
2.1280 2.0509 -1.6187 0.9866
1.8979 2.2655 -1.6187 0.9866
1.8163 2.3315 -1.6187 0.9866
1.6463 2.4545 -1.6187 0.9866
1.5581 2.5114 -1.6187 0.9866
1.1868 2.7067 -1.6187 0.9866
1.0900 2.7471 -1.6187 0.9866
0.9918 2.7841 -1.6187 0.9866
0.8923 2.8175 -1.6187 0.9866
0.7918 2.8474 -1.6187 0.9866
0.6902 2.8737 -1.6187 0.9866
0.5877 2.8964 -1.6187 0.9866
0.3807 2.9308 -1.6187 0.9866
0.2764 2.9425 -1.6187 0.9866
0.1717 2.9505 -1.6187 0.9866
0.0669 2.9547 -1.6187 0.9866
-0.0380 2.9552 -1.6187 0.9866
-0.1429 2.9520 -1.6187 0.9866
-0.4560 2.9201 -1.6187 0.9866
-0.5594 2.9021 -1.6187 0.9866
-0.6621 2.8804 -1.6187 0.9866
-0.8648 2.8261 -1.6187 0.9866
-0.9646 2.7936 -1.6187 0.9866
-1.0631 2.7576 -1.6187 0.9866
2.1517 1.7974 -1.6187 0.9871
1.9484 2.0160 -1.6187 0.9871
1.8756 2.0839 -1.6187 0.9871
1.6434 2.2715 -1.6187 0.9871
1.3925 2.4334 -1.6187 0.9871
1.3053 2.4813 -1.6187 0.9871
1.2164 2.5261 -1.6187 0.9871
1.0340 2.6060 -1.6187 0.9871
0.9409 2.6411 -1.6187 0.9871
0.8465 2.6729 -1.6187 0.9871
0.7511 2.7012 -1.6187 0.9871
0.4596 2.7658 -1.6187 0.9871
0.3611 2.7803 -1.6187 0.9871
0.1629 2.7990 -1.6187 0.9871
0.0635 2.8030 -1.6187 0.9871
-0.2349 2.7938 -1.6187 0.9871
-0.3340 2.7837 -1.6187 0.9871
-0.4326 2.7701 -1.6187 0.9871
-0.5307 2.7530 -1.6187 0.9871
-0.6281 2.7325 -1.6187 0.9871
-0.7247 2.7084 -1.6187 0.9871
