ply
format ascii 1.0
element vertex 518
property float32 x
property float32 y
property float32 z
property float32 I
end_header
-39.2417 -18.2915 7.6341 0.8387
-35.7725 -18.2692 7.0826 0.8495
-34.8268 -19.3971 7.0291 0.8505
-34.2977 -20.7537 7.0686 0.8497
-36.2140 -27.6531 8.0343 0.8310
-20.4060 -38.5622 7.6929 0.8376
-15.8299 -39.7799 7.5492 0.8404
-15.0626 -42.2142 7.9032 0.8336
-13.5067 -42.6438 7.8874 0.8339
-11.9668 -43.1145 7.8897 0.8338
-10.4034 -43.5005 7.8866 0.8339
-8.4323 -41.8658 7.5303 0.8407
-5.4355 -42.6497 7.5811 0.8398
-3.9142 -43.0040 7.6141 0.8391
-0.8258 -43.9679 7.7541 0.8364
-37.8035 -19.3065 6.5028 0.8422
-36.2019 -21.9059 6.4822 0.8426
-20.4522 -38.6496 6.6988 0.8378
-18.8478 -38.9468 6.6284 0.8394
-17.3309 -39.3656 6.5892 0.8403
-15.8299 -39.7799 6.5588 0.8409
-13.5067 -42.6438 6.8526 0.8344
-11.9925 -43.2075 6.8694 0.8341
-6.9584 -42.3750 6.5786 0.8405
-3.9164 -43.0294 6.6191 0.8396
0.7823 -45.4338 6.9612 0.8320
-20.3849 -38.5224 5.6755 0.8388
-15.7743 -39.6403 5.5557 0.8419
-14.2904 -40.0500 5.5374 0.8424
-12.8142 -40.4575 5.5264 0.8427
-11.3421 -40.8639 5.5225 0.8428
-8.3944 -41.6777 5.5363 0.8424
-5.4163 -42.4988 5.5790 0.8413
-3.9111 -42.9706 5.6188 0.8403
-2.3778 -43.3679 5.6559 0.8393
-36.9728 -18.8822 4.4580 0.8462
-40.3530 -22.4749 4.9599 0.8304
-36.1340 -21.8649 4.5352 0.8437
-35.4671 -23.2450 4.5536 0.8432
-12.9164 -24.4088 2.9654 0.8949
-15.8299 -39.7799 4.5974 0.8418
-14.3880 -40.3237 4.5974 0.8418
-12.8726 -40.6419 4.5779 0.8424
-11.3820 -41.0078 4.5700 0.8426
-8.4287 -41.8479 4.5839 0.8422
-6.9425 -42.2780 4.6007 0.8417
-3.9140 -43.0028 4.6368 0.8405
-0.8276 -44.0663 4.7328 0.8375
-24.7943 -23.5721 2.8961 0.8717
-18.8241 -38.8978 3.6581 0.8407
-8.4133 -41.7720 3.6071 0.8428
-5.4286 -42.5949 3.6349 0.8417
-3.9149 -43.0128 3.6562 0.8408
-2.3787 -43.3851 3.6782 0.8399
-0.8226 -43.7987 3.7083 0.8387
-22.0191 -38.2169 2.7350 0.8380
-17.3309 -39.3655 2.6672 0.8417
-12.8593 -40.6000 2.6409 0.8431
-5.4354 -42.6485 2.6660 0.8417
-3.9163 -43.0282 2.6792 0.8410
-2.3845 -43.4908 2.7009 0.8398
-0.8276 -44.0663 2.7330 0.8381
-24.7943 -23.5721 1.3490 0.8720
-22.0191 -38.2169 1.7392 0.8381
-18.8478 -38.9467 1.7061 0.8410
-17.3309 -39.3655 1.6960 0.8418
-14.1830 -39.7490 1.6641 0.8446
-12.7175 -40.1522 1.6608 0.8448
-11.3820 -41.0078 1.6781 0.8434
-8.4287 -41.8482 1.6833 0.8429
-6.9582 -42.3738 1.6932 0.8421
-5.4354 -42.6485 1.6953 0.8419
-3.9163 -43.0282 1.7037 0.8412
-0.8276 -44.0663 1.7379 0.8383
-24.7944 -23.5721 0.5779 0.8721
-21.9693 -38.1305 0.7434 0.8386
-20.4353 -38.6175 0.7380 0.8396
-18.8478 -38.9467 0.7309 0.8411
-12.0230 -37.9594 0.6726 0.8527
-9.9048 -41.4156 0.7193 0.8434
-8.4288 -41.8483 0.7211 0.8430
-2.3845 -43.4907 0.7357 0.8401
-37.7434 -17.5930 -0.2345 0.8466
-35.5374 -18.1492 -0.2247 0.8525
-32.8054 -25.0502 -0.2324 0.8478
-33.4238 -27.4817 -0.2436 0.8411
-20.4522 -38.6495 -0.2462 0.8395
-17.3309 -39.3655 -0.2422 0.8419
-15.8299 -39.7799 -0.2410 0.8426
-14.2787 -40.0175 -0.2392 0.8437
-12.8038 -40.4246 -0.2387 0.8440
-8.4287 -41.8484 -0.2403 0.8430
-5.4316 -42.6186 -0.2419 0.8421
-3.9140 -43.0028 -0.2431 0.8414
-2.3845 -43.4907 -0.2452 0.8401
-0.8276 -44.0663 -0.2481 0.8384
-35.5374 -18.1492 -1.1236 0.8524
-34.0922 -18.9879 -1.0988 0.8554
-31.9479 -19.3318 -1.0515 0.8612
-26.5856 -31.3925 -1.1583 0.8482
-27.7473 -35.2629 -1.2635 0.8356
-8.1091 -14.0744 -0.4574 0.9371
-7.4335 -14.0475 -0.4475 0.9384
-6.7903 -14.0314 -0.4389 0.9395
-8.1728 -25.8035 -0.7621 0.8973
-11.3820 -41.0078 -1.1983 0.8434
-1.6920 -13.2761 -0.3768 0.9479
-1.2047 -13.2357 -0.3742 0.9482
-0.8248 -43.9213 -1.2370 0.8388
-26.3514 -14.6766 -1.5297 0.8862
-22.9821 -17.5491 -1.4665 0.8906
-21.6601 -19.1565 -1.4665 0.8906
-20.9566 -19.9235 -1.4664 0.8906
-20.2260 -20.6647 -1.4664 0.8906
-19.4691 -21.3791 -1.4664 0.8906
-17.1575 -23.4979 -1.4755 0.8900
-9.5073 -14.0562 -0.8606 0.9343
-8.7372 -13.9764 -0.8359 0.9361
-8.0031 -13.8904 -0.8130 0.9378
-7.3223 -13.8373 -0.7939 0.9392
-5.5816 -14.0265 -0.7656 0.9413
-10.1584 -28.4691 -1.5329 0.8860
-8.1728 -25.8034 -1.3727 0.8973
-3.2857 -13.7387 -0.7164 0.9450
-1.6718 -13.1180 -0.6707 0.9484
-1.1826 -12.9928 -0.6616 0.9491
-0.7170 -13.0781 -0.6642 0.9489
-0.2685 -14.2970 -0.7252 0.9443
-20.0114 -9.3278 -1.6188 0.9153
-19.6627 -10.0419 -1.6188 0.9153
-18.8894 -11.4301 -1.6188 0.9153
-18.4658 -12.1024 -1.6188 0.9153
-18.0183 -12.7591 -1.6188 0.9153
-14.7156 -16.1593 -1.6025 0.9161
-11.8235 -16.1928 -1.4701 0.9227
-9.4744 -14.0076 -1.2399 0.9344
-8.7187 -13.9468 -1.2060 0.9362
-8.0022 -13.8889 -1.1753 0.9377
-6.6628 -13.7679 -1.1215 0.9405
-5.5465 -13.9383 -1.0999 0.9416
-5.3392 -14.9636 -1.1649 0.9383
-4.3757 -13.8152 -1.0626 0.9435
-3.7699 -13.5826 -1.0336 0.9450
-3.2120 -13.4305 -1.0125 0.9461
-1.6638 -13.0547 -0.9649 0.9486
-0.2373 -12.6336 -0.9265 0.9506
0.2302 -13.3684 -0.9803 0.9478
-15.0168 -7.6692 -1.6188 0.9345
-14.1027 -9.2429 -1.6188 0.9345
-13.0244 -10.7089 -1.6188 0.9345
-11.7942 -12.0501 -1.6188 0.9345
-10.8969 -12.8672 -1.6188 0.9345
-9.9431 -13.6175 -1.6188 0.9345
-8.9379 -14.2974 -1.6188 0.9345
-8.4176 -14.6097 -1.6188 0.9345
-6.7906 -15.4242 -1.6180 0.9345
-6.2143 -15.6162 -1.6136 0.9347
-5.5982 -15.6895 -1.5993 0.9353
-4.9402 -15.5975 -1.5708 0.9364
-3.2318 -13.5131 -1.3339 0.9457
-2.6933 -13.3722 -1.3096 0.9467
-1.6699 -13.1028 -1.2681 0.9483
-1.1894 -13.0676 -1.2597 0.9486
-0.2382 -12.6819 -1.2177 0.9503
-12.1367 -6.1983 -1.6188 0.9466
-11.9058 -6.6310 -1.6188 0.9466
-10.8310 -8.2706 -1.6188 0.9466
-10.5264 -8.6550 -1.6188 0.9466
-10.2081 -9.0282 -1.6188 0.9466
-8.8070 -10.3994 -1.6188 0.9466
-8.0362 -11.0059 -1.6188 0.9466
-7.2237 -11.5554 -1.6188 0.9466
-6.8032 -11.8078 -1.6187 0.9466
-5.9362 -12.2665 -1.6187 0.9466
-5.4909 -12.4721 -1.6187 0.9466
-3.1696 -13.2534 -1.6187 0.9466
-2.6906 -13.3589 -1.6187 0.9466
-2.2081 -13.4470 -1.6187 0.9466
-0.2559 -13.6246 -1.6187 0.9466
0.2346 -13.6250 -1.6187 0.9466
-9.5554 -6.2626 -1.6188 0.9549
-9.3239 -6.6024 -1.6188 0.9549
-8.8248 -7.2559 -1.6188 0.9549
-8.5579 -7.5688 -1.6188 0.9549
-7.0648 -8.9784 -1.6188 0.9549
-5.7034 -9.8991 -1.6187 0.9549
-5.3435 -10.0979 -1.6187 0.9549
-4.2241 -10.6149 -1.6187 0.9549
-3.8393 -10.7600 -1.6187 0.9549
-3.0554 -11.0083 -1.6187 0.9549
-2.6573 -11.1111 -1.6187 0.9549
-1.4443 -11.3327 -1.6187 0.9549
-0.6254 -11.4072 -1.6187 0.9549
-8.9063 -4.1514 -1.6188 0.9609
-8.4070 -5.0871 -1.6188 0.9609
-8.0192 -5.6786 -1.6188 0.9609
-7.8097 -5.9635 -1.6188 0.9609
-7.5900 -6.2407 -1.6188 0.9609
-7.1215 -6.7704 -1.6188 0.9609
-6.6160 -7.2651 -1.6188 0.9609
-6.3503 -7.4985 -1.6187 0.9609
-5.5051 -8.1391 -1.6187 0.9609
-4.5958 -8.6850 -1.6187 0.9609
-4.2803 -8.8447 -1.6187 0.9609
-3.6330 -9.1297 -1.6187 0.9609
-3.3021 -9.2545 -1.6187 0.9609
-2.9669 -9.3673 -1.6187 0.9609
-2.6279 -9.4680 -1.6187 0.9609
-2.2855 -9.5564 -1.6187 0.9609
-1.5922 -9.6960 -1.6187 0.9609
-1.2422 -9.7470 -1.6187 0.9609
-0.5379 -9.8111 -1.6187 0.9609
0.1692 -9.8244 -1.6187 0.9609
-7.8059 -3.6385 -1.6188 0.9656
-7.3683 -4.4586 -1.6188 0.9656
-7.0285 -4.9770 -1.6188 0.9656
-6.6523 -5.4696 -1.6188 0.9656
-6.4511 -5.7055 -1.6188 0.9656
-6.2416 -5.9339 -1.6188 0.9656
-6.0240 -6.1547 -1.6187 0.9656
-5.7986 -6.3675 -1.6187 0.9656
-5.5657 -6.5720 -1.6187 0.9656
-5.3256 -6.7681 -1.6187 0.9656
-4.8250 -7.1336 -1.6187 0.9656
-4.5651 -7.3026 -1.6187 0.9656
-4.2994 -7.4621 -1.6187 0.9656
-4.0280 -7.6120 -1.6187 0.9656
-3.1842 -8.0017 -1.6187 0.9656
-2.8942 -8.1112 -1.6187 0.9656
-2.6004 -8.2100 -1.6187 0.9656
-1.7004 -8.4424 -1.6187 0.9656
-1.0888 -8.5429 -1.6187 0.9656
0.1483 -8.6106 -1.6187 0.9656
-6.6904 -3.7262 -1.6188 0.9692
-6.5519 -3.9646 -1.6188 0.9692
-6.2497 -4.4256 -1.6188 0.9692
-6.0865 -4.6476 -1.6188 0.9692
-5.9153 -4.8636 -1.6187 0.9692
-5.7364 -5.0733 -1.6187 0.9692
-5.5501 -5.2765 -1.6187 0.9692
-5.3566 -5.4728 -1.6187 0.9692
-4.9491 -5.8439 -1.6187 0.9692
-4.5159 -6.1847 -1.6187 0.9692
-4.2904 -6.3432 -1.6187 0.9692
-4.0594 -6.4935 -1.6187 0.9692
-3.0856 -7.0087 -1.6187 0.9692
-2.5735 -7.2125 -1.6187 0.9692
-2.0481 -7.3789 -1.6187 0.9692
-1.7812 -7.4478 -1.6187 0.9692
-1.5120 -7.5071 -1.6187 0.9692
-0.6941 -7.6263 -1.6187 0.9692
-0.4192 -7.6463 -1.6187 0.9692
0.1318 -7.6567 -1.6187 0.9692
-6.2428 -2.9099 -1.6188 0.9721
-6.1340 -3.1327 -1.6188 0.9721
-6.0173 -3.3514 -1.6188 0.9721
-5.4741 -4.1800 -1.6187 0.9721
-5.1593 -4.5630 -1.6187 0.9721
-4.6375 -5.0924 -1.6187 0.9721
-4.4512 -5.2560 -1.6187 0.9721
-3.8588 -5.7051 -1.6187 0.9721
-3.6510 -5.8403 -1.6187 0.9721
-3.2214 -6.0877 -1.6187 0.9721
-3.0003 -6.1997 -1.6187 0.9721
-2.7752 -6.3036 -1.6187 0.9721
-2.5466 -6.3994 -1.6187 0.9721
-2.3146 -6.4869 -1.6187 0.9721
-2.0797 -6.5660 -1.6187 0.9721
-1.8420 -6.6366 -1.6187 0.9721
-1.6020 -6.6986 -1.6187 0.9721
-1.1161 -6.7964 -1.6187 0.9721
-0.8707 -6.8322 -1.6187 0.9721
-0.6243 -6.8591 -1.6187 0.9721
-0.3771 -6.8771 -1.6187 0.9721
-0.1293 -6.8862 -1.6187 0.9721
0.1186 -6.8864 -1.6187 0.9721
-5.3489 -3.2367 -1.6187 0.9745
-5.1023 -3.6130 -1.6187 0.9745
-4.5311 -4.3077 -1.6187 0.9745
-4.2095 -4.6224 -1.6187 0.9745
-4.0404 -4.7709 -1.6187 0.9745
-3.8661 -4.9132 -1.6187 0.9745
-3.5027 -5.1786 -1.6187 0.9745
-3.1211 -5.4171 -1.6187 0.9745
-2.9241 -5.5259 -1.6187 0.9745
-2.7234 -5.6275 -1.6187 0.9745
-2.5191 -5.7219 -1.6187 0.9745
-2.3115 -5.8088 -1.6187 0.9745
-2.1010 -5.8883 -1.6187 0.9745
-1.4542 -6.0804 -1.6187 0.9745
-1.2344 -6.1288 -1.6187 0.9745
-0.7904 -6.2017 -1.6187 0.9745
-0.5667 -6.2261 -1.6187 0.9745
-1.5124 -0.7050 -0.4724 0.9931
-5.0924 -2.6007 -1.6187 0.9765
-1.6179 -0.9011 -0.5243 0.9923
-4.5446 -3.4702 -1.6187 0.9765
-4.4168 -3.6316 -1.6187 0.9765
-4.1441 -3.9398 -1.6187 0.9765
-3.8500 -4.2277 -1.6187 0.9765
-3.6954 -4.3635 -1.6187 0.9765
-3.5359 -4.4937 -1.6187 0.9765
-2.6744 -5.0540 -1.6187 0.9765
-2.4908 -5.1470 -1.6187 0.9765
-2.3040 -5.2333 -1.6187 0.9765
-1.9216 -5.3854 -1.6187 0.9765
-1.7265 -5.4511 -1.6187 0.9765
-1.3300 -5.5611 -1.6187 0.9765
-1.1290 -5.6054 -1.6187 0.9765
-0.9265 -5.6424 -1.6187 0.9765
-0.7229 -5.6721 -1.6187 0.9765
-0.3130 -5.7094 -1.6187 0.9765
-0.1074 -5.7169 -1.6187 0.9765
-1.4559 -0.6786 -0.4941 0.9933
-1.4561 -0.7436 -0.5029 0.9932
-1.4976 -0.9062 -0.5384 0.9927
-4.4017 -2.8849 -1.6187 0.9782
-3.8142 -3.6262 -1.6187 0.9782
-3.6812 -3.7611 -1.6187 0.9782
-3.5435 -3.8912 -1.6187 0.9782
-3.4012 -4.0161 -1.6187 0.9782
-3.1035 -4.2504 -1.6187 0.9782
-2.9485 -4.3593 -1.6187 0.9782
-2.7897 -4.4626 -1.6187 0.9782
-2.6273 -4.5601 -1.6187 0.9782
-2.2925 -4.7372 -1.6187 0.9782
-1.7686 -4.9567 -1.6187 0.9782
-1.4075 -5.0711 -1.6187 0.9782
-1.0391 -5.1592 -1.6187 0.9782
-0.8528 -5.1932 -1.6187 0.9782
-0.6653 -5.2205 -1.6187 0.9782
-0.4770 -5.2411 -1.6187 0.9782
-0.2881 -5.2549 -1.6187 0.9782
0.0906 -5.2620 -1.6187 0.9782
-1.4027 -0.6538 -0.5144 0.9935
-1.4020 -0.7160 -0.5233 0.9934
-3.9742 -2.8142 -1.6187 0.9797
-3.4063 -3.4802 -1.6187 0.9797
-3.1471 -3.7162 -1.6187 0.9797
-3.0114 -3.8270 -1.6187 0.9797
-2.7283 -4.0337 -1.6187 0.9797
-2.5814 -4.1293 -1.6187 0.9797
-2.4311 -4.2195 -1.6187 0.9797
-2.2776 -4.3042 -1.6187 0.9797
-1.8005 -4.5246 -1.6187 0.9797
-1.6365 -4.5865 -1.6187 0.9797
-1.3024 -4.6923 -1.6187 0.9797
-1.1327 -4.7361 -1.6187 0.9797
-0.7891 -4.8053 -1.6187 0.9797
-0.2666 -4.8624 -1.6187 0.9797
0.0838 -4.8689 -1.6187 0.9797
-1.3511 -0.6900 -0.5425 0.9936
-1.3487 -0.7512 -0.5521 0.9935
-1.4976 -0.9062 -0.6260 0.9926
-3.1662 -3.2349 -1.6187 0.9810
-2.9253 -3.4543 -1.6187 0.9810
-2.7992 -3.5573 -1.6187 0.9810
-2.5360 -3.7494 -1.6187 0.9810
-2.3994 -3.8383 -1.6187 0.9810
-2.2598 -3.9221 -1.6187 0.9810
-1.9718 -4.0745 -1.6187 0.9810
-1.5212 -4.2633 -1.6187 0.9810
-1.3668 -4.3152 -1.6187 0.9810
-1.0529 -4.4024 -1.6187 0.9810
-0.7335 -4.4667 -1.6187 0.9810
-0.0850 -4.5257 -1.6187 0.9810
0.0779 -4.5258 -1.6187 0.9810
-1.3052 -0.6084 -0.5519 0.9939
-1.4512 -0.8782 -0.6500 0.9928
-3.5329 -2.3154 -1.6187 0.9821
-3.3572 -2.5635 -1.6187 0.9821
-3.2628 -2.6827 -1.6187 0.9821
-3.0613 -2.9104 -1.6187 0.9821
-2.9546 -3.0187 -1.6187 0.9821
-2.8441 -3.1231 -1.6187 0.9821
-2.7298 -3.2234 -1.6187 0.9821
-2.1087 -3.6600 -1.6187 0.9821
-1.8400 -3.8022 -1.6187 0.9821
-1.7020 -3.8659 -1.6187 0.9821
-1.5618 -3.9247 -1.6187 0.9821
-1.2754 -4.0268 -1.6187 0.9821
-1.1297 -4.0701 -1.6187 0.9821
-0.9825 -4.1081 -1.6187 0.9821
-0.8340 -4.1408 -1.6187 0.9821
-0.6844 -4.1682 -1.6187 0.9821
-0.5340 -4.1901 -1.6187 0.9821
-0.0793 -4.2232 -1.6187 0.9821
-1.2606 -0.5876 -0.5692 0.9940
-1.2575 -0.6422 -0.5779 0.9939
-1.2488 -0.7557 -0.5974 0.9937
-3.3080 -2.1680 -1.6187 0.9831
-3.0550 -2.5119 -1.6187 0.9831
-2.9627 -2.6202 -1.6187 0.9831
-2.7665 -2.8265 -1.6187 0.9831
-2.6630 -2.9242 -1.6187 0.9831
-2.2159 -3.2761 -1.6187 0.9831
-1.8499 -3.4958 -1.6187 0.9831
-1.7229 -3.5601 -1.6187 0.9831
-1.5937 -3.6198 -1.6187 0.9831
-1.4624 -3.6748 -1.6187 0.9831
-1.3291 -3.7250 -1.6187 0.9831
-1.1942 -3.7705 -1.6187 0.9831
-1.0578 -3.8110 -1.6187 0.9831
-0.7809 -3.8772 -1.6187 0.9831
-0.6409 -3.9028 -1.6187 0.9831
-0.2165 -3.9491 -1.6187 0.9831
-0.0743 -3.9544 -1.6187 0.9831
0.0681 -3.9545 -1.6187 0.9831
-1.2183 -0.5679 -0.5858 0.9942
-1.2146 -0.6203 -0.5944 0.9941
-1.2099 -0.6739 -0.6036 0.9940
-1.2045 -0.7288 -0.6136 0.9939
-1.3185 -0.8642 -0.6871 0.9931
-2.9520 -2.2542 -1.6187 0.9839
-2.7822 -2.4606 -1.6187 0.9839
-2.5980 -2.6544 -1.6187 0.9839
-2.2968 -2.9189 -1.6187 0.9839
-1.6179 -3.3433 -1.6187 0.9839
-1.4966 -3.3994 -1.6187 0.9839
-1.3733 -3.4510 -1.6187 0.9839
-1.2482 -3.4982 -1.6187 0.9839
-1.1215 -3.5408 -1.6187 0.9839
-0.8639 -3.6123 -1.6187 0.9839
-0.7333 -3.6411 -1.6187 0.9839
-0.6019 -3.6651 -1.6187 0.9839
-0.4696 -3.6844 -1.6187 0.9839
-0.3367 -3.6989 -1.6187 0.9839
-0.0697 -3.7136 -1.6187 0.9839
0.0640 -3.7136 -1.6187 0.9839
-1.1780 -0.5491 -0.6016 0.9943
-1.1739 -0.5995 -0.6101 0.9942
-2.8540 -2.0209 -1.6187 0.9847
-2.5345 -2.4095 -1.6187 0.9847
-2.4461 -2.4992 -1.6187 0.9847
-2.3546 -2.5856 -1.6187 0.9847
-2.2600 -2.6686 -1.6187 0.9847
-2.1625 -2.7482 -1.6187 0.9847
-2.0622 -2.8243 -1.6187 0.9847
-1.7458 -3.0301 -1.6187 0.9847
-1.6356 -3.0909 -1.6187 0.9847
-1.5233 -3.1478 -1.6187 0.9847
-1.0559 -3.3338 -1.6187 0.9847
-0.9353 -3.3696 -1.6187 0.9847
-0.8134 -3.4011 -1.6187 0.9847
-0.4421 -3.4689 -1.6187 0.9847
-0.0657 -3.4964 -1.6187 0.9847
0.0602 -3.4965 -1.6187 0.9847
-1.1396 -0.5312 -0.6167 0.9944
-1.1295 -0.6291 -0.6342 0.9943
-1.1152 -0.7309 -0.6541 0.9941
-2.6228 -2.0028 -1.6187 0.9854
-2.5490 -2.0958 -1.6187 0.9854
-2.4719 -2.1862 -1.6187 0.9854
-2.2219 -2.4399 -1.6187 0.9854
-2.1327 -2.5183 -1.6187 0.9854
-1.9460 -2.6651 -1.6187 0.9854
-1.8488 -2.7334 -1.6187 0.9854
-1.7493 -2.7982 -1.6187 0.9854
-1.3297 -3.0202 -1.6187 0.9854
-1.2201 -3.0661 -1.6187 0.9854
-1.1090 -3.1081 -1.6187 0.9854
-0.9964 -3.1459 -1.6187 0.9854
-0.6516 -3.2350 -1.6187 0.9854
-0.4172 -3.2735 -1.6187 0.9854
-0.2991 -3.2864 -1.6187 0.9854
-0.1807 -3.2950 -1.6187 0.9854
-0.0620 -3.2994 -1.6187 0.9854
0.0568 -3.2995 -1.6187 0.9854
-1.1028 -0.5140 -0.6312 0.9945
-1.0979 -0.5607 -0.6395 0.9945
-1.0745 -0.7042 -0.6665 0.9942
-1.0546 -0.7468 -0.6704 0.9942
-1.0508 -0.8024 -0.6859 0.9941
-2.4102 -1.9817 -1.6187 0.9860
-1.6540 -2.6458 -1.6187 0.9860
-1.5577 -2.7036 -1.6187 0.9860
-1.4594 -2.7579 -1.6187 0.9860
-1.3592 -2.8086 -1.6187 0.9860
-1.2572 -2.8557 -1.6187 0.9860
-0.9421 -2.9746 -1.6187 0.9860
-0.8345 -3.0066 -1.6187 0.9860
-0.7258 -3.0347 -1.6187 0.9860
-0.6161 -3.0588 -1.6187 0.9860
-0.5056 -3.0790 -1.6187 0.9860
-0.3945 -3.0952 -1.6187 0.9860
-0.2828 -3.1074 -1.6187 0.9860
0.0537 -3.1198 -1.6187 0.9860
-1.0674 -0.4976 -0.6450 0.9946
-1.0623 -0.5425 -0.6533 0.9946
-1.0561 -0.5882 -0.6621 0.9945
-0.9900 -0.8140 -0.7020 0.9942
-2.2139 -1.9580 -1.6187 0.9866
-1.9100 -2.2553 -1.6187 0.9866
-1.6558 -2.4481 -1.6187 0.9866
-1.1909 -2.7049 -1.6187 0.9866
-0.1618 -2.9510 -1.6187 0.9866
-1.0260 -0.5240 -0.6651 0.9947
-0.9953 -0.6022 -0.6716 0.9946
-0.9780 -0.6410 -0.6751 0.9946
-0.9594 -0.6793 -0.6787 0.9946
-0.9182 -0.7550 -0.6863 0.9945
-0.9291 -0.8217 -0.7161 0.9943
-0.9195 -0.8742 -0.7325 0.9942
-1.8120 -2.1395 -1.6187 0.9871
-1.6534 -2.2643 -1.6187 0.9871
-1.5708 -2.3224 -1.6187 0.9871
-1.3113 -2.4781 -1.6187 0.9871
-1.2213 -2.5237 -1.6187 0.9871
-1.1297 -2.5660 -1.6187 0.9871
-0.9422 -2.6406 -1.6187 0.9871
-0.8466 -2.6728 -1.6187 0.9871
-0.7498 -2.7016 -1.6187 0.9871
-0.6521 -2.7268 -1.6187 0.9871
-0.5536 -2.7485 -1.6187 0.9871
-0.3544 -2.7812 -1.6187 0.9871
-0.2541 -2.7921 -1.6187 0.9871
-0.1535 -2.7995 -1.6187 0.9871
0.0483 -2.8033 -1.6187 0.9871
