ply
format ascii 1.0
element vertex 527
property float32 x
property float32 y
property float32 z
property float32 I
end_header
-9.5904 26.2353 4.9254 0.8927
-10.1654 25.0168 4.7614 0.8961
-11.9621 22.2940 4.4612 0.9023
-12.3088 21.1058 4.3082 0.9055
-12.6207 19.9760 4.1664 0.9085
-12.9132 18.9169 4.0386 0.9112
-12.4753 15.7473 3.5424 0.9216
-13.0557 15.3290 3.5504 0.9215
-13.8036 15.0877 3.6058 0.9203
-14.1636 14.4185 3.5638 0.9212
-14.3667 11.8046 3.2787 0.9273
-15.3695 10.0983 3.2427 0.9280
-20.8752 9.8097 4.0670 0.9106
-28.0462 11.9835 5.3778 0.8835
-36.0548 13.9137 6.8144 0.8547
-9.5769 26.1986 4.2732 0.8933
-10.1913 25.0804 4.1473 0.8962
-11.1137 24.7890 4.1617 0.8959
-12.3087 21.1056 3.7429 0.9059
-13.2418 17.9918 3.4223 0.9136
-13.2900 16.7758 3.2787 0.9170
-13.7514 16.1459 3.2490 0.9178
-13.9882 15.2895 3.1746 0.9196
-14.4315 13.6839 3.0467 0.9227
-14.5985 12.8896 2.9834 0.9242
-14.7579 12.1260 2.9261 0.9256
-15.3695 10.0983 2.8173 0.9283
-15.7271 8.8033 2.7611 0.9297
-17.0097 8.7434 2.9299 0.9255
-20.6087 9.6845 3.4884 0.9120
-28.4667 12.1632 4.7423 0.8823
-9.5370 26.0891 3.6172 0.8940
-10.1572 24.9965 3.5135 0.8969
-11.6282 23.6501 3.4319 0.8991
-12.3089 21.1060 3.1817 0.9061
-12.6209 19.9761 3.0770 0.9091
-13.2418 17.9917 2.9090 0.9138
-13.7514 16.1458 2.7618 0.9180
-13.9882 15.2895 2.6986 0.9198
-12.1737 10.7487 2.1148 0.9366
-12.3077 10.1127 2.0743 0.9378
-12.4721 9.5269 2.0438 0.9387
-12.6538 8.9728 2.0200 0.9393
-16.1185 9.7895 2.4558 0.9268
-16.3020 9.1251 2.4328 0.9274
-17.0098 8.7434 2.4905 0.9258
-20.8793 9.8117 3.0041 0.9111
-34.7686 13.4174 4.8530 0.8604
-10.3743 28.3797 3.2447 0.8855
-10.8116 26.6069 3.0840 0.8909
-11.6282 23.6500 2.8299 0.8994
-11.9745 22.3171 2.7196 0.9031
-10.5239 16.6572 2.1158 0.9238
-10.7381 15.7305 2.0452 0.9262
-13.2418 17.9917 2.3988 0.9140
-13.6521 17.2327 2.3608 0.9154
-13.7514 16.1458 2.2774 0.9182
-14.5985 12.8896 2.0912 0.9246
-14.9634 12.2949 2.0796 0.9250
-14.9949 11.4539 2.0262 0.9269
-15.1846 10.7674 1.9989 0.9278
-15.3694 10.0983 1.9748 0.9287
-16.0808 9.7666 2.0203 0.9271
-15.4430 7.9381 1.8646 0.9325
-8.9830 22.1068 2.0200 0.9087
-11.2374 25.0650 2.3253 0.8956
-12.0532 24.5145 2.3125 0.8961
-11.9745 22.3171 2.1440 0.9033
-13.2418 17.9917 1.8911 0.9142
-13.6521 17.2327 1.8611 0.9155
-13.7514 16.1458 1.7953 0.9184
-14.6723 14.9363 1.7724 0.9194
-14.9226 14.1496 1.7408 0.9208
-14.5985 12.8896 1.6486 0.9248
-14.9888 12.3157 1.6422 0.9251
-16.0808 9.7666 1.5927 0.9273
-16.2638 9.1038 1.5778 0.9279
-19.0749 8.9638 1.7841 0.9189
-26.4848 11.3163 2.4381 0.8908
-10.7273 29.3455 1.9375 0.8823
-10.9310 26.9008 1.8006 0.8901
-12.0250 24.4572 1.6900 0.8965
-11.9745 22.3171 1.5705 0.9035
-13.6751 17.2618 1.3656 0.9155
-13.9882 15.2895 1.2850 0.9203
-14.6723 14.9363 1.2983 0.9195
-14.9226 14.1496 1.2752 0.9209
-14.5985 12.8896 1.2076 0.9249
-14.9888 12.3157 1.2030 0.9252
-15.1845 10.7673 1.1543 0.9281
-15.4431 7.9381 1.0767 0.9328
-24.6907 10.5498 1.6650 0.8980
-10.9496 26.9465 1.1469 0.8901
-11.2373 25.0648 1.0831 0.8959
-10.3862 16.4391 0.7667 0.9251
-10.8576 14.7524 0.7223 0.9293
-11.0739 13.9784 0.7032 0.9311
-11.6626 11.8724 0.6562 0.9355
-11.8424 11.2289 0.6435 0.9368
-12.0156 10.6091 0.6320 0.9378
-12.1830 10.0103 0.6218 0.9388
-12.3452 9.4299 0.6126 0.9397
-12.6566 8.3159 0.5971 0.9412
-12.8807 7.2101 0.5821 0.9426
-17.6557 8.2969 0.7692 0.9249
-24.6906 10.5498 1.0587 0.8981
-8.4897 23.2244 0.4177 0.9058
-9.2280 20.5830 0.3810 0.9137
-9.8316 18.3233 0.3513 0.9202
-10.3862 16.4391 0.3285 0.9252
-11.4752 12.5428 0.2872 0.9343
-11.6626 11.8724 0.2811 0.9356
-12.0156 10.6091 0.2708 0.9379
-12.1830 10.0103 0.2664 0.9389
-12.6566 8.3159 0.2558 0.9412
-12.7309 7.7321 0.2516 0.9422
-22.6358 9.6718 0.4158 0.9062
-8.4897 23.2243 -0.1392 0.9058
-8.8758 21.8430 -0.1327 0.9100
-9.2280 20.5829 -0.1270 0.9137
-9.8316 18.3233 -0.1171 0.9202
-10.6289 15.5705 -0.1061 0.9274
-10.8576 14.7523 -0.1031 0.9293
-11.2125 13.1649 -0.0974 0.9332
-11.4752 12.5428 -0.0957 0.9343
-11.6626 11.8724 -0.0937 0.9356
-11.8424 11.2289 -0.0919 0.9368
-12.0156 10.6091 -0.0902 0.9379
-12.5029 8.8658 -0.0863 0.9405
-12.7309 7.7321 -0.0839 0.9422
-12.8807 7.2101 -0.0831 0.9427
-22.6358 9.6718 -0.1386 0.9062
-8.4897 23.2243 -0.6963 0.9058
-8.8758 21.8430 -0.6639 0.9100
-9.2280 20.5829 -0.6352 0.9137
-9.8316 18.3233 -0.5855 0.9202
-10.3862 16.4391 -0.5475 0.9251
-10.6289 15.5705 -0.5308 0.9273
-11.2125 13.1649 -0.4869 0.9331
-11.4752 12.5428 -0.4787 0.9342
-11.8424 11.2289 -0.4595 0.9368
-12.0156 10.6091 -0.4513 0.9379
-12.1830 10.0103 -0.4440 0.9389
-12.6566 8.3159 -0.4264 0.9412
-12.8807 7.2101 -0.4157 0.9426
-8.4897 23.2243 -1.2540 0.9057
-8.8758 21.8430 -1.1957 0.9099
-9.2280 20.5829 -1.1440 0.9136
-9.5513 19.4260 -1.0978 0.9170
-10.8576 14.7524 -0.9289 0.9293
-11.0739 13.9784 -0.9044 0.9311
-11.2125 13.1649 -0.8770 0.9331
-11.4752 12.5428 -0.8621 0.9342
-11.6625 11.8724 -0.8440 0.9355
-12.3452 9.4299 -0.7878 0.9397
-12.6566 8.3159 -0.7680 0.9411
-12.7309 7.7321 -0.7554 0.9421
-12.8807 7.2101 -0.7486 0.9426
-14.3836 7.3935 -0.8202 0.9373
-22.6358 9.6718 -1.2484 0.9061
-27.3308 9.4469 -1.4665 0.8906
-27.9323 7.4842 -1.4665 0.8906
-28.3928 5.4837 -1.4665 0.8906
-6.8664 18.7835 -1.4664 0.9229
-7.5287 18.5280 -1.4664 0.9229
-8.8243 17.9473 -1.4664 0.9229
-10.0754 17.2762 -1.4664 0.9229
-10.3862 16.4391 -1.4258 0.9250
-10.8576 14.7524 -1.3431 0.9292
-11.0739 13.9784 -1.3076 0.9310
-11.6625 11.8724 -1.2203 0.9354
-12.0156 10.6091 -1.1753 0.9377
-12.1830 10.0103 -1.1561 0.9387
-12.3452 9.4299 -1.1390 0.9396
-12.5029 8.8658 -1.1238 0.9404
-12.6566 8.3159 -1.1104 0.9411
-12.8807 7.2101 -1.0823 0.9425
-18.3916 7.8583 -1.4665 0.9229
-10.5410 4.0678 -0.8284 0.9557
-18.9028 6.5338 -1.4665 0.9229
-19.1229 5.8587 -1.4665 0.9229
-2.5356 0.5838 -0.1908 0.9896
-2.4419 0.3823 -0.1812 0.9901
-6.2484 13.9373 -1.4664 0.9405
-6.7393 13.7068 -1.4664 0.9405
-8.1583 12.9128 -1.4664 0.9405
-9.4847 11.9724 -1.4664 0.9405
-9.9037 11.6283 -1.4664 0.9405
-10.7038 10.8964 -1.4664 0.9405
-11.0838 10.5096 -1.4664 0.9405
-11.4499 10.1096 -1.4664 0.9405
-11.8015 9.6968 -1.4664 0.9405
-12.1383 9.2719 -1.4664 0.9405
-12.6566 8.3158 -1.4539 0.9410
-12.7309 7.7321 -1.4300 0.9419
-13.8241 6.4963 -1.4664 0.9405
-10.5249 4.0616 -1.0831 0.9557
-14.4364 4.9899 -1.4664 0.9405
-2.2414 0.6006 -0.2228 0.9907
-2.1630 0.3386 -0.2102 0.9912
-4.2383 11.5941 -1.4664 0.9515
-4.6471 11.4364 -1.4664 0.9515
-5.0501 11.2643 -1.4664 0.9515
-5.8366 10.8777 -1.4664 0.9515
-6.2190 10.6637 -1.4664 0.9515
-6.9599 10.1956 -1.4664 0.9515
-7.3174 9.9422 -1.4664 0.9515
-7.6657 9.6762 -1.4664 0.9515
-8.0043 9.3981 -1.4664 0.9515
-8.9580 8.4940 -1.4664 0.9515
-9.5381 7.8371 -1.4664 0.9515
-9.8102 7.4936 -1.4664 0.9515
-10.5512 6.4083 -1.4664 0.9515
-10.7721 6.0298 -1.4664 0.9515
-11.1727 5.2504 -1.4664 0.9515
-10.4978 4.0512 -1.3366 0.9557
-2.0735 0.6353 -0.2576 0.9913
-2.0241 0.3909 -0.2449 0.9917
-2.0122 0.3150 -0.2419 0.9918
-3.5532 9.7200 -1.4663 0.9591
-3.8959 9.5877 -1.4663 0.9591
-4.2338 9.4435 -1.4664 0.9591
-4.5663 9.2872 -1.4664 0.9591
-4.8931 9.1193 -1.4664 0.9591
-5.2137 8.9399 -1.4664 0.9591
-5.5277 8.7492 -1.4664 0.9591
-5.8348 8.5475 -1.4664 0.9591
-6.1345 8.3350 -1.4664 0.9591
-6.7104 7.8789 -1.4664 0.9591
-7.2524 7.3830 -1.4664 0.9591
-7.5099 7.1209 -1.4664 0.9591
-7.9962 6.5702 -1.4664 0.9591
-8.4422 5.9864 -1.4664 0.9591
-8.8456 5.3724 -1.4664 0.9591
-9.3667 4.4016 -1.4664 0.9591
-9.6553 3.7260 -1.4664 0.9591
-1.9643 0.6018 -0.2911 0.9917
-1.9507 0.5227 -0.2861 0.9919
-1.9371 0.4460 -0.2816 0.9920
-1.9259 0.3720 -0.2779 0.9921
-1.9200 0.3006 -0.2754 0.9922
-3.0560 8.3600 -1.4663 0.9646
-3.3508 8.2462 -1.4663 0.9646
-3.9274 7.9878 -1.4663 0.9646
-4.4842 7.6890 -1.4664 0.9646
-4.7543 7.5250 -1.4664 0.9646
-5.2762 7.1688 -1.4664 0.9646
-6.2377 6.3499 -1.4664 0.9646
-6.6724 5.8914 -1.4664 0.9646
-7.0736 5.4032 -1.4664 0.9646
-7.4391 4.8878 -1.4664 0.9646
-7.6079 4.6207 -1.4664 0.9646
-8.0560 3.7857 -1.4664 0.9646
-8.1853 3.4974 -1.4664 0.9646
-8.3043 3.2047 -1.4664 0.9646
-1.8553 0.4971 -0.3164 0.9922
-1.8463 0.4251 -0.3121 0.9923
-2.6784 7.3271 -1.4663 0.9687
-3.1915 7.1186 -1.4663 0.9687
-3.4421 7.0009 -1.4663 0.9687
-3.6885 6.8743 -1.4663 0.9687
-4.1669 6.5953 -1.4663 0.9687
-4.6243 6.2831 -1.4664 0.9687
-5.0584 5.9392 -1.4664 0.9687
-5.4670 5.5654 -1.4664 0.9687
-6.0277 4.9527 -1.4664 0.9687
-6.1997 4.7356 -1.4664 0.9687
-6.9385 3.5665 -1.4664 0.9687
-7.0607 3.3180 -1.4664 0.9687
-7.4073 3.1650 -1.5140 0.9677
-1.7843 0.6167 -0.3548 0.9923
-1.7774 0.5446 -0.3494 0.9925
-1.7574 0.3394 -0.3364 0.9927
-3.0608 6.2252 -1.4663 0.9720
-3.2798 6.1127 -1.4663 0.9720
-3.7052 5.8646 -1.4663 0.9720
-3.9111 5.7294 -1.4663 0.9720
-4.1120 5.5870 -1.4663 0.9720
-4.3077 5.4375 -1.4663 0.9720
-4.4980 5.2812 -1.4663 0.9720
-4.8613 4.9488 -1.4664 0.9720
-5.0339 4.7731 -1.4664 0.9720
-5.5128 4.2110 -1.4664 0.9720
-5.6588 4.0126 -1.4664 0.9720
-5.9292 3.6011 -1.4664 0.9720
-6.8687 3.2278 -1.6042 0.9694
-1.7070 0.6587 -0.3868 0.9925
-1.7029 0.5886 -0.3809 0.9927
-1.6981 0.5203 -0.3754 0.9928
-1.6863 0.3883 -0.3658 0.9930
-1.6847 0.3254 -0.3627 0.9930
-1.6850 0.2638 -0.3605 0.9931
-2.1421 5.8599 -1.4663 0.9747
-3.6983 5.0249 -1.4663 0.9747
-4.2115 4.6033 -1.4663 0.9747
-4.3722 4.4509 -1.4663 0.9747
-4.5275 4.2929 -1.4663 0.9747
-4.6770 4.1295 -1.4663 0.9747
-4.8206 3.9609 -1.4664 0.9747
-5.0895 3.6090 -1.4664 0.9747
-5.3577 3.5202 -1.5067 0.9740
-5.9840 3.3496 -1.6117 0.9722
-1.6312 0.6295 -0.4109 0.9928
-1.6284 0.5629 -0.4049 0.9929
-1.6249 0.4978 -0.3994 0.9930
-1.6156 0.3720 -0.3896 0.9932
-1.6171 0.3123 -0.3871 0.9933
-1.6165 0.2531 -0.3845 0.9933
-2.1320 5.2467 -1.4663 0.9769
-2.3169 5.1677 -1.4663 0.9769
-2.6776 4.9904 -1.4663 0.9769
-3.0249 4.7878 -1.4663 0.9769
-3.5168 4.4391 -1.4663 0.9769
-3.6721 4.3115 -1.4663 0.9769
-3.9687 4.0402 -1.4663 0.9769
-4.1096 3.8967 -1.4663 0.9769
-4.5111 3.7066 -1.5117 0.9762
-4.7674 3.6416 -1.5533 0.9755
-5.0381 3.5725 -1.5991 0.9748
-5.2065 3.4208 -1.6130 0.9746
-5.4539 3.0529 -1.6183 0.9745
-5.5604 2.8582 -1.6188 0.9745
-1.5876 0.7461 -0.4542 0.9928
-1.5697 0.6707 -0.4420 0.9930
-1.5613 0.5397 -0.4277 0.9932
-1.5570 0.4770 -0.4216 0.9933
-1.7783 4.8648 -1.4663 0.9787
-2.1190 4.7264 -1.4663 0.9787
-2.2854 4.6482 -1.4663 0.9787
-2.4490 4.5642 -1.4663 0.9787
-2.7666 4.3790 -1.4663 0.9787
-2.9203 4.2780 -1.4663 0.9787
-3.5916 3.9257 -1.5063 0.9781
-3.7980 3.8664 -1.5343 0.9777
-4.0149 3.8069 -1.5663 0.9773
-4.4015 3.6166 -1.6127 0.9766
-4.5329 3.4625 -1.6148 0.9766
-4.6592 3.3038 -1.6169 0.9765
-4.7789 3.1399 -1.6187 0.9765
-1.6625 1.0097 -0.5507 0.9919
-5.0856 2.6141 -1.6188 0.9765
-1.5077 0.5818 -0.4575 0.9933
-1.5000 0.4596 -0.4441 0.9935
-1.4946 0.3441 -0.4342 0.9936
-1.6391 4.4840 -1.4684 0.9802
-1.8010 4.4322 -1.4715 0.9802
-1.9638 4.3802 -1.4765 0.9801
-2.6366 4.1731 -1.5183 0.9796
-2.9969 4.0719 -1.5551 0.9791
-3.1838 4.0188 -1.5770 0.9788
-3.5377 3.8668 -1.6120 0.9783
-3.6760 3.7421 -1.6134 0.9783
-3.9401 3.4789 -1.6167 0.9782
-4.1823 3.1947 -1.6187 0.9782
-4.2931 3.0442 -1.6187 0.9782
-1.6082 0.9002 -0.5669 0.9923
-1.4561 0.7485 -0.5036 0.9932
-1.4549 0.6217 -0.4866 0.9934
-1.4505 0.5014 -0.4720 0.9936
-1.4458 0.2263 -0.4501 0.9939
-1.7924 4.4111 -1.5827 0.9801
-1.9552 4.3611 -1.5887 0.9801
-2.1193 4.3102 -1.5966 0.9800
-2.2850 4.2585 -1.6064 0.9798
-2.4423 4.1878 -1.6115 0.9798
-2.7360 4.0080 -1.6131 0.9798
-2.8783 3.9108 -1.6141 0.9797
-3.0173 3.8087 -1.6152 0.9797
-3.2848 3.5904 -1.6176 0.9797
-3.4126 3.4740 -1.6187 0.9797
-3.5338 3.3507 -1.6187 0.9797
-4.0699 2.6741 -1.6187 0.9797
-1.4925 0.9065 -0.5805 0.9927
-1.4020 0.7206 -0.5240 0.9934
-1.3979 0.4283 -0.4860 0.9939
-1.3964 0.3742 -0.4805 0.9939
-1.3982 0.3219 -0.4769 0.9940
-1.3992 0.2702 -0.4737 0.9940
-1.5505 4.2415 -1.6150 0.9810
-1.7003 4.1843 -1.6152 0.9810
-1.8480 4.1221 -1.6154 0.9810
-2.1370 3.9827 -1.6163 0.9810
-2.4159 3.8239 -1.6175 0.9810
-2.8108 3.5481 -1.6187 0.9810
-2.9350 3.4461 -1.6187 0.9810
-3.0555 3.3397 -1.6187 0.9810
-3.3932 2.9960 -1.6187 0.9810
-3.5972 2.7477 -1.6187 0.9810
-1.3485 0.7548 -0.5526 0.9935
-1.3532 0.5782 -0.5262 0.9938
-1.3531 0.5222 -0.5187 0.9939
-1.3525 0.4675 -0.5117 0.9939
-1.3511 0.4139 -0.5053 0.9940
-1.4502 3.9673 -1.6187 0.9821
-1.8638 3.7906 -1.6187 0.9821
-1.9971 3.7221 -1.6187 0.9821
-2.1280 3.6489 -1.6187 0.9821
-2.2561 3.5710 -1.6187 0.9821
-2.6230 3.3110 -1.6187 0.9821
-2.7389 3.2158 -1.6187 0.9821
-2.9601 3.0134 -1.6187 0.9821
-3.0652 2.9064 -1.6187 0.9821
-3.1664 2.7958 -1.6187 0.9821
-3.2637 2.6816 -1.6187 0.9821
-3.5303 2.3195 -1.6187 0.9821
-3.6103 2.1927 -1.6187 0.9821
-1.3028 0.6697 -0.5614 0.9937
-1.3051 0.6133 -0.5526 0.9938
-1.3066 0.5583 -0.5445 0.9939
-1.3075 0.5045 -0.5370 0.9940
-1.3067 0.4003 -0.5237 0.9942
-1.3087 0.3506 -0.5192 0.9942
-1.3110 0.3018 -0.5156 0.9943
-1.3125 0.2535 -0.5123 0.9943
-1.3133 0.2056 -0.5094 0.9943
-1.4889 3.6642 -1.6187 0.9831
-1.6180 3.6090 -1.6187 0.9831
-1.7451 3.5493 -1.6187 0.9831
-1.8700 3.4851 -1.6187 0.9831
-1.9925 3.4166 -1.6187 0.9831
-2.1125 3.3437 -1.6187 0.9831
-2.2299 3.2666 -1.6187 0.9831
-2.3444 3.1854 -1.6187 0.9831
-2.5645 3.0110 -1.6187 0.9831
-2.6697 2.9181 -1.6187 0.9831
-2.7716 2.8215 -1.6187 0.9831
-3.1431 2.4008 -1.6187 0.9831
-1.2534 0.7016 -0.5879 0.9938
-1.2572 0.6462 -0.5786 0.9939
-1.2604 0.5923 -0.5700 0.9940
-1.2627 0.5395 -0.5620 0.9941
-1.2646 0.4371 -0.5476 0.9942
-1.2704 0.2925 -0.5336 0.9944
-1.2721 0.2457 -0.5303 0.9944
-2.0941 3.0677 -1.6187 0.9839
-2.5071 2.7404 -1.6187 0.9839
-2.6952 2.5556 -1.6187 0.9839
-2.8698 2.3580 -1.6187 0.9839
-2.9517 2.2546 -1.6187 0.9839
-1.2180 0.5724 -0.5865 0.9941
-1.2208 0.5216 -0.5786 0.9942
-1.2227 0.4719 -0.5712 0.9943
-1.2237 0.4230 -0.5643 0.9944
-1.2288 0.3292 -0.5544 0.9945
-1.2316 0.2835 -0.5508 0.9945
-1.2334 0.1931 -0.5441 0.9946
-1.4306 3.1910 -1.6187 0.9847
-1.5430 3.1382 -1.6187 0.9847
-1.6534 3.0815 -1.6187 0.9847
-1.7617 3.0209 -1.6187 0.9847
-1.9716 2.8883 -1.6187 0.9847
-2.2675 2.6623 -1.6187 0.9847
-2.7020 2.2201 -1.6187 0.9847
-2.7791 2.1228 -1.6187 0.9847
-1.1622 0.7059 -0.6294 0.9940
-1.1684 0.6540 -0.6198 0.9941
-1.1736 0.6032 -0.6108 0.9942
-1.1777 0.5534 -0.6023 0.9943
-1.1809 0.5046 -0.5945 0.9944
-1.1847 0.4095 -0.5802 0.9945
-1.1914 0.3192 -0.5710 0.9946
-1.1958 0.2310 -0.5638 0.9946
-1.1933 0.1868 -0.5591 0.9947
-1.7626 2.7898 -1.6187 0.9854
-2.0492 2.5867 -1.6187 0.9854
-2.1397 2.5123 -1.6187 0.9854
-2.2275 2.4348 -1.6187 0.9854
-2.3125 2.3542 -1.6187 0.9854
-2.4737 2.1842 -1.6187 0.9854
-2.6225 2.0032 -1.6187 0.9854
-1.1292 0.6320 -0.6347 0.9943
-1.1347 0.5832 -0.6258 0.9943
-1.1392 0.5354 -0.6174 0.9944
-1.1455 0.4421 -0.6023 0.9945
-1.1474 0.3966 -0.5955 0.9946
-1.1555 0.3096 -0.5868 0.9947
-1.1585 0.2667 -0.5831 0.9947
-1.1571 0.2235 -0.5781 0.9948
-1.4753 2.7495 -1.6187 0.9860
-1.6666 2.6379 -1.6187 0.9860
-1.8496 2.5130 -1.6187 0.9860
-2.0232 2.3755 -1.6187 0.9860
-2.1062 2.3022 -1.6187 0.9860
-2.2642 2.1469 -1.6187 0.9860
-2.3390 2.0652 -1.6187 0.9860
-1.0739 0.7056 -0.6666 0.9942
-1.0847 0.6588 -0.6584 0.9943
-1.0916 0.6110 -0.6490 0.9944
-1.0975 0.5641 -0.6402 0.9945
-1.1024 0.5180 -0.6319 0.9945
-1.1093 0.4281 -0.6169 0.9947
-1.1122 0.3844 -0.6105 0.9947
-1.1210 0.3003 -0.6020 0.9948
-1.0147 2.7758 -1.6187 0.9866
-1.3040 2.6522 -1.6187 0.9866
-1.4889 2.5530 -1.6187 0.9866
-1.6663 2.4410 -1.6187 0.9866
-1.7519 2.3803 -1.6187 0.9866
-2.0711 2.1084 -1.6187 0.9866
-2.1446 2.0336 -1.6187 0.9866
-0.9846 0.7521 -0.6786 0.9944
-1.0050 0.7126 -0.6748 0.9944
-1.0557 0.5909 -0.6626 0.9945
-1.0670 0.5014 -0.6457 0.9946
-1.0746 0.4147 -0.6309 0.9948
-1.0788 0.3729 -0.6251 0.9948
-1.0836 0.3320 -0.6207 0.9948
-1.0852 0.2498 -0.6099 0.9949
-0.9626 2.6333 -1.6187 0.9871
-1.0554 2.5975 -1.6187 0.9871
-1.3256 2.4706 -1.6187 0.9871
-1.4125 2.4219 -1.6187 0.9871
-1.7410 2.1977 -1.6187 0.9871
-1.8179 2.1345 -1.6187 0.9871
-1.9648 2.0001 -1.6187 0.9871
-0.9199 0.8723 -0.7319 0.9942
-0.9184 0.7546 -0.6863 0.9945
-0.9590 0.6800 -0.6788 0.9946
-0.9774 0.6422 -0.6752 0.9946
-1.0103 0.5656 -0.6685 0.9947
-1.0249 0.5268 -0.6653 0.9947
-1.0331 0.4855 -0.6590 0.9947
-1.0376 0.4433 -0.6514 0.9948
-1.0465 0.3617 -0.6392 0.9949
-1.0490 0.3214 -0.6334 0.9949
-1.0503 0.2814 -0.6278 0.9950
-1.0507 0.2419 -0.6225 0.9950
