ply
format ascii 1.0
element vertex 447
property float32 x
property float32 y
property float32 z
property float32 I
end_header
2.8365 6.6752 0.6140 0.9713
2.8352 6.6721 0.2859 0.9714
40.3215 27.4385 0.8238 0.8227
2.8345 6.6705 0.1224 0.9714
39.5894 24.9197 -0.2634 0.8293
40.3215 27.4385 -0.2746 0.8228
17.5968 29.0467 -0.1912 0.8730
2.8339 6.6690 -0.0408 0.9714
35.4550 14.2934 -1.0764 0.8582
39.5894 24.9197 -1.3173 0.8293
18.1212 29.9122 -0.9848 0.8694
30.9619 7.5882 -1.6167 0.8801
30.6968 8.6963 -1.6180 0.8800
30.3669 9.7870 -1.6180 0.8800
29.9981 10.8651 -1.6180 0.8800
28.6648 14.0113 -1.6181 0.8800
28.1464 15.0261 -1.6181 0.8800
27.0026 16.9969 -1.6181 0.8800
25.7211 18.8812 -1.6182 0.8800
25.0307 19.7878 -1.6182 0.8800
20.2514 24.6600 -1.6183 0.8800
17.5356 22.9795 -1.4659 0.8907
16.7041 23.5912 -1.4660 0.8907
15.8511 24.1730 -1.4660 0.8907
14.9781 24.7240 -1.4660 0.8907
14.0859 25.2434 -1.4660 0.8907
13.1756 25.7307 -1.4660 0.8907
12.2486 26.1852 -1.4661 0.8907
2.8325 6.6658 -0.3673 0.9714
10.3487 26.9934 -1.4661 0.8907
8.3960 27.6640 -1.4661 0.8907
7.4029 27.9466 -1.4662 0.8907
6.4003 28.1936 -1.4662 0.8907
5.3896 28.4046 -1.4662 0.8907
4.3719 28.5794 -1.4662 0.8907
2.3210 28.8195 -1.4663 0.8907
21.0063 6.7701 -1.6182 0.9153
20.7512 7.5160 -1.6183 0.9153
20.4697 8.2522 -1.6183 0.9153
19.8287 9.6923 -1.6183 0.9153
19.0866 11.0829 -1.6183 0.9153
18.6788 11.7574 -1.6183 0.9153
17.7922 13.0608 -1.6183 0.9153
17.3146 13.6879 -1.6183 0.9153
16.8149 14.2975 -1.6183 0.9153
15.7518 15.4615 -1.6184 0.9153
13.2330 14.9887 -1.4660 0.9229
12.6894 15.4518 -1.4660 0.9229
11.5544 16.3184 -1.4661 0.9229
10.3605 17.1017 -1.4661 0.9229
9.7433 17.4610 -1.4661 0.9229
9.1136 17.7979 -1.4661 0.9229
6.4869 18.9150 -1.4662 0.9229
3.7278 19.6467 -1.4662 0.9229
15.8495 5.7406 -1.6184 0.9345
15.6344 6.3029 -1.6184 0.9345
14.8709 7.9389 -1.6184 0.9345
14.5780 8.4649 -1.6184 0.9345
14.2665 8.9801 -1.6184 0.9345
13.5893 9.9755 -1.6184 0.9345
12.0308 11.8090 -1.6185 0.9345
10.1069 11.4479 -1.4661 0.9405
9.2642 12.1402 -1.4661 0.9405
8.8249 12.4634 -1.4661 0.9405
7.9129 13.0617 -1.4661 0.9405
6.9606 13.5933 -1.4662 0.9405
2.8312 6.6627 -0.6950 0.9713
4.4354 14.6142 -1.4662 0.9405
3.3811 14.8937 -1.4662 0.9405
1.7689 15.1702 -1.4663 0.9405
1.2261 15.2238 -1.4663 0.9405
13.2330 3.2432 -1.6184 0.9466
12.8104 4.6398 -1.6184 0.9466
12.6365 5.0943 -1.6184 0.9466
12.0194 6.4166 -1.6184 0.9466
11.7826 6.8417 -1.6185 0.9466
11.2643 7.6653 -1.6185 0.9466
10.6886 8.4498 -1.6185 0.9466
10.0583 9.1912 -1.6185 0.9466
9.3622 9.8704 -1.6160 0.9467
8.3692 9.4796 -1.5021 0.9503
7.4877 9.8122 -1.4662 0.9515
7.1326 10.0734 -1.4662 0.9515
6.7683 10.3217 -1.4662 0.9515
6.3955 10.5569 -1.4662 0.9515
6.0145 10.7786 -1.4662 0.9515
5.6258 10.9866 -1.4662 0.9515
2.7828 6.5488 -0.8452 0.9717
4.4186 11.5254 -1.4662 0.9515
3.5848 11.8115 -1.4662 0.9515
1.8666 12.2019 -1.4663 0.9515
1.4297 12.2609 -1.4663 0.9515
10.4350 4.6466 -1.6185 0.9549
9.8783 5.7359 -1.6185 0.9549
9.2083 6.7595 -1.6185 0.9549
8.9610 7.0841 -1.6185 0.9549
8.7024 7.3996 -1.6185 0.9549
8.4327 7.7056 -1.6185 0.9549
7.8612 8.2879 -1.6185 0.9549
7.5433 8.5442 -1.6149 0.9550
6.2775 8.2262 -1.4662 0.9591
5.9797 8.4452 -1.4662 0.9591
5.6744 8.6534 -1.4662 0.9591
5.0423 9.0364 -1.4662 0.9591
4.7165 9.2108 -1.4662 0.9591
4.3846 9.3733 -1.4662 0.9591
2.7717 6.5228 -1.0042 0.9718
3.0054 9.9024 -1.4663 0.9591
2.6499 10.0034 -1.4663 0.9591
2.2909 10.0917 -1.4663 0.9591
1.5649 10.2296 -1.4663 0.9591
1.1986 10.2790 -1.4663 0.9591
9.5422 2.3386 -1.6185 0.9610
9.4526 2.6779 -1.6185 0.9610
9.3510 3.0137 -1.6185 0.9610
9.2374 3.3457 -1.6185 0.9610
9.1121 3.6735 -1.6185 0.9610
8.3147 5.2337 -1.6185 0.9610
7.7074 6.0930 -1.6185 0.9610
7.2529 6.6276 -1.6186 0.9610
6.7614 7.1284 -1.6186 0.9610
6.5026 7.3653 -1.6186 0.9610
5.9206 7.7586 -1.6078 0.9612
4.8805 7.4427 -1.4662 0.9646
4.3369 7.7721 -1.4662 0.9646
2.7610 6.4976 -1.1630 0.9718
3.1861 8.3106 -1.4662 0.9646
2.8873 8.4191 -1.4663 0.9646
2.5849 8.5169 -1.4663 0.9646
2.2791 8.6038 -1.4663 0.9646
1.6592 8.7446 -1.4663 0.9646
1.0309 8.8408 -1.4663 0.9646
0.7145 8.8720 -1.4663 0.9646
8.2849 2.3471 -1.6185 0.9656
8.0963 2.9324 -1.6185 0.9656
7.9864 3.2197 -1.6185 0.9656
7.7363 3.7815 -1.6185 0.9656
7.4467 4.3240 -1.6185 0.9656
7.2876 4.5872 -1.6185 0.9656
6.5603 5.5781 -1.6186 0.9656
5.9261 6.2478 -1.6186 0.9656
4.9614 7.0070 -1.6138 0.9657
4.5873 6.9956 -1.5724 0.9665
4.0947 6.7591 -1.4854 0.9683
3.8011 6.8120 -1.4662 0.9687
3.5554 6.9434 -1.4662 0.9687
3.0474 6.5148 -1.3519 0.9712
2.7514 6.4748 -1.3223 0.9718
2.7925 7.2839 -1.4663 0.9687
2.2655 7.4647 -1.4663 0.9687
1.4542 7.6643 -1.4663 0.9687
1.1796 7.7113 -1.4663 0.9687
0.9035 7.7486 -1.4663 0.9687
7.4369 1.8227 -1.6185 0.9692
7.2879 2.3488 -1.6185 0.9692
6.9950 3.1148 -1.6186 0.9692
6.4803 4.0790 -1.6186 0.9692
5.6527 5.1653 -1.6186 0.9692
5.2696 5.5556 -1.6186 0.9692
4.8597 5.9176 -1.6186 0.9692
4.4250 6.2494 -1.6186 0.9692
3.9539 6.5266 -1.6130 0.9693
3.2464 6.3398 -1.5056 0.9713
2.9391 6.2831 -1.4662 0.9720
2.4831 6.4769 -1.4663 0.9720
2.2503 6.5615 -1.4663 0.9720
2.0146 6.6377 -1.4663 0.9720
1.7762 6.7054 -1.4663 0.9720
0.8034 6.8901 -1.4663 0.9720
6.6889 1.6393 -1.6186 0.9721
6.5548 2.1125 -1.6186 0.9721
6.3874 2.5750 -1.6186 0.9721
6.2913 2.8015 -1.6186 0.9721
6.1873 3.0243 -1.6186 0.9721
5.9557 3.4582 -1.6186 0.9721
5.8284 3.6687 -1.6186 0.9721
5.5517 4.0754 -1.6186 0.9721
5.0841 4.6457 -1.6186 0.9721
4.9149 4.8243 -1.6186 0.9721
4.3708 5.3224 -1.6186 0.9721
4.1780 5.4750 -1.6186 0.9721
3.9798 5.6208 -1.6186 0.9721
3.7766 5.7593 -1.6186 0.9721
3.5685 5.8905 -1.6186 0.9721
2.8757 6.1477 -1.5951 0.9725
2.5588 6.0215 -1.5377 0.9735
2.2647 5.9071 -1.4868 0.9743
2.0239 5.9014 -1.4663 0.9747
0.7226 6.1970 -1.4663 0.9747
6.0146 1.7039 -1.6186 0.9745
5.9500 1.9176 -1.6186 0.9745
5.8777 2.1288 -1.6186 0.9745
5.5147 2.9441 -1.6186 0.9745
5.4061 3.1391 -1.6186 0.9745
5.2905 3.3301 -1.6186 0.9745
5.1683 3.5170 -1.6186 0.9745
4.9041 3.8769 -1.6186 0.9745
4.3022 4.5357 -1.6186 0.9745
3.9675 4.8312 -1.6186 0.9745
3.7925 4.9698 -1.6186 0.9745
3.6126 5.1021 -1.6186 0.9745
3.4281 5.2278 -1.6186 0.9745
2.4386 5.7387 -1.6144 0.9746
1.9778 5.7671 -1.5786 0.9751
1.7199 5.6669 -1.5333 0.9758
1.2537 5.5226 -1.4663 0.9769
0.8564 5.5980 -1.4663 0.9769
0.4546 5.6449 -1.4663 0.9769
5.5531 1.3610 -1.6186 0.9765
5.5010 1.5584 -1.6186 0.9765
5.4419 1.7539 -1.6186 0.9765
5.3758 1.9471 -1.6186 0.9765
5.3028 2.1378 -1.6186 0.9765
5.0438 2.6927 -1.6186 0.9765
4.8388 3.0458 -1.6186 0.9765
4.7269 3.2167 -1.6186 0.9765
4.6091 3.3834 -1.6186 0.9765
4.4853 3.5458 -1.6186 0.9765
4.3558 3.7037 -1.6186 0.9765
4.2208 3.8569 -1.6186 0.9765
3.7842 4.2862 -1.6186 0.9765
3.4686 4.5454 -1.6186 0.9765
3.3041 4.6664 -1.6186 0.9765
2.9626 4.8903 -1.6186 0.9765
2.7861 4.9930 -1.6187 0.9765
2.6061 5.0893 -1.6187 0.9765
2.0461 5.3371 -1.6181 0.9765
1.8517 5.3992 -1.6159 0.9766
1.6555 5.4546 -1.6137 0.9766
1.4578 5.5033 -1.6117 0.9766
1.2403 5.4635 -1.5860 0.9770
1.0221 5.3870 -1.5522 0.9775
0.6112 5.2417 -1.4939 0.9783
0.4169 5.1757 -1.4700 0.9786
5.1111 1.2526 -1.6186 0.9782
5.0087 1.6143 -1.6186 0.9782
4.9479 1.7921 -1.6186 0.9782
4.8807 1.9676 -1.6186 0.9782
4.8074 2.1407 -1.6186 0.9782
4.7278 2.3110 -1.6186 0.9782
4.5509 2.6425 -1.6186 0.9782
4.4536 2.8033 -1.6186 0.9782
4.3507 2.9606 -1.6186 0.9782
4.1283 3.2636 -1.6186 0.9782
4.0091 3.4089 -1.6186 0.9782
3.7556 3.6864 -1.6186 0.9782
3.4829 3.9450 -1.6186 0.9782
3.1925 4.1836 -1.6186 0.9782
2.5643 4.5955 -1.6187 0.9782
2.3986 4.6842 -1.6187 0.9782
2.2298 4.7669 -1.6187 0.9782
2.0582 4.8435 -1.6187 0.9782
1.8839 4.9139 -1.6187 0.9782
1.7072 4.9780 -1.6187 0.9782
1.1631 5.1233 -1.6159 0.9783
0.9784 5.1563 -1.6143 0.9783
0.6067 5.2034 -1.6113 0.9783
0.4146 5.1479 -1.5885 0.9786
4.7294 1.1591 -1.6186 0.9797
4.6850 1.3272 -1.6186 0.9797
4.6346 1.4937 -1.6186 0.9797
4.5783 1.6582 -1.6186 0.9797
4.5162 1.8207 -1.6186 0.9797
4.4483 1.9808 -1.6186 0.9797
4.3747 2.1384 -1.6186 0.9797
4.2956 2.2932 -1.6186 0.9797
4.2110 2.4452 -1.6186 0.9797
4.1210 2.5940 -1.6186 0.9797
4.0257 2.7395 -1.6186 0.9797
3.7097 3.1543 -1.6186 0.9797
3.5947 3.2848 -1.6186 0.9797
3.4751 3.4110 -1.6186 0.9797
3.2228 3.6504 -1.6186 0.9797
3.0904 3.7632 -1.6186 0.9797
2.8139 3.9742 -1.6186 0.9797
2.6702 4.0721 -1.6187 0.9797
2.5231 4.1649 -1.6187 0.9797
2.3728 4.2523 -1.6187 0.9797
2.0632 4.4108 -1.6187 0.9797
1.7432 4.5469 -1.6187 0.9797
1.5797 4.6062 -1.6187 0.9797
1.4142 4.6597 -1.6187 0.9797
0.7362 4.8124 -1.6183 0.9797
0.5634 4.8316 -1.6169 0.9797
0.3902 4.8448 -1.6157 0.9797
4.3961 1.0774 -1.6186 0.9810
4.3080 1.3884 -1.6186 0.9810
4.1979 1.6924 -1.6186 0.9810
4.1348 1.8412 -1.6186 0.9810
4.0665 1.9877 -1.6186 0.9810
3.9929 2.1316 -1.6186 0.9810
3.5508 2.8070 -1.6186 0.9810
3.4483 2.9320 -1.6186 0.9810
2.9957 3.3932 -1.6186 0.9810
2.8726 3.4980 -1.6186 0.9810
2.4821 3.7851 -1.6187 0.9810
2.3453 3.8714 -1.6187 0.9810
1.4684 4.2816 -1.6187 0.9810
1.3146 4.3313 -1.6187 0.9810
1.1591 4.3755 -1.6187 0.9810
0.6845 4.4744 -1.6187 0.9810
0.5242 4.4960 -1.6187 0.9810
0.3634 4.5119 -1.6187 0.9810
4.1023 1.0054 -1.6186 0.9821
3.9713 1.4384 -1.6186 0.9821
3.9174 1.5793 -1.6186 0.9821
3.8585 1.7182 -1.6186 0.9821
3.7261 1.9892 -1.6186 0.9821
3.5746 2.2500 -1.6186 0.9821
3.4049 2.4994 -1.6186 0.9821
3.2178 2.7361 -1.6186 0.9821
3.1181 2.8493 -1.6186 0.9821
3.0143 2.9588 -1.6186 0.9821
2.9067 3.0645 -1.6186 0.9821
2.7955 3.1664 -1.6186 0.9821
2.1886 3.6126 -1.6187 0.9821
1.7897 3.8260 -1.6187 0.9821
1.5121 3.9440 -1.6187 0.9821
1.2267 4.0419 -1.6187 0.9821
0.9351 4.1191 -1.6187 0.9821
0.3391 4.2104 -1.6187 0.9821
3.5531 1.7367 -1.6186 0.9831
3.1881 2.3403 -1.6186 0.9831
3.1025 2.4527 -1.6186 0.9831
3.0129 2.5619 -1.6186 0.9831
2.9196 2.6679 -1.6186 0.9831
2.8224 2.7704 -1.6186 0.9831
2.7217 2.8694 -1.6186 0.9831
2.3992 3.1441 -1.6187 0.9831
1.6758 3.5824 -1.6187 0.9831
1.5467 3.6400 -1.6187 0.9831
1.4158 3.6929 -1.6187 0.9831
1.1486 3.7845 -1.6187 0.9831
1.0128 3.8232 -1.6187 0.9831
0.8755 3.8569 -1.6187 0.9831
3.6073 0.8841 -1.6186 0.9839
3.4920 1.2648 -1.6186 0.9839
3.4446 1.3887 -1.6186 0.9839
3.3929 1.5108 -1.6186 0.9839
3.3367 1.6310 -1.6186 0.9839
3.1432 1.9785 -1.6186 0.9839
2.9940 2.1978 -1.6186 0.9839
2.7418 2.5054 -1.6186 0.9839
2.4581 2.7843 -1.6187 0.9839
2.2531 2.9526 -1.6187 0.9839
2.1463 3.0312 -1.6187 0.9839
2.0367 3.1059 -1.6187 0.9839
1.5737 3.3643 -1.6187 0.9839
1.4525 3.4183 -1.6187 0.9839
1.3296 3.4680 -1.6187 0.9839
1.2049 3.5133 -1.6187 0.9839
1.0787 3.5541 -1.6187 0.9839
0.8222 3.6220 -1.6187 0.9839
0.6924 3.6491 -1.6187 0.9839
0.5616 3.6715 -1.6187 0.9839
3.3963 0.8324 -1.6186 0.9847
3.1945 1.4224 -1.6186 0.9847
2.8910 1.9673 -1.6186 0.9847
2.7432 2.1686 -1.6186 0.9847
2.5815 2.3589 -1.6187 0.9847
2.4956 2.4496 -1.6187 0.9847
2.4065 2.5371 -1.6187 0.9847
2.3144 2.6214 -1.6187 0.9847
2.0208 2.8539 -1.6187 0.9847
1.9176 2.9243 -1.6187 0.9847
1.8119 2.9909 -1.6187 0.9847
1.1344 3.3078 -1.6187 0.9847
0.7742 3.4102 -1.6187 0.9847
0.6519 3.4357 -1.6187 0.9847
0.5288 3.4568 -1.6187 0.9847
3.2050 0.7855 -1.6186 0.9854
3.1749 0.8994 -1.6186 0.9854
3.1026 1.1237 -1.6186 0.9854
3.0605 1.2338 -1.6186 0.9854
2.9646 1.4491 -1.6186 0.9854
2.9110 1.5540 -1.6186 0.9854
2.8537 1.6570 -1.6186 0.9854
2.7927 1.7578 -1.6186 0.9854
2.7281 1.8564 -1.6186 0.9854
2.6601 1.9527 -1.6186 0.9854
2.5887 2.0464 -1.6187 0.9854
2.2709 2.3942 -1.6187 0.9854
2.0019 2.6233 -1.6187 0.9854
1.2906 3.0371 -1.6187 0.9854
1.1813 3.0812 -1.6187 0.9854
0.9584 3.1577 -1.6187 0.9854
0.4990 3.2620 -1.6187 0.9854
0.3822 3.2777 -1.6187 0.9854
0.2649 3.2893 -1.6187 0.9854
3.0020 0.8504 -1.6186 0.9860
2.9336 1.0625 -1.6186 0.9860
2.8938 1.1666 -1.6186 0.9860
2.7524 1.4694 -1.6186 0.9860
2.5795 1.7553 -1.6187 0.9860
2.2267 2.1856 -1.6187 0.9860
1.9802 2.4113 -1.6187 0.9860
1.8928 2.4804 -1.6187 0.9860
1.6167 2.6687 -1.6187 0.9860
1.3220 2.8262 -1.6187 0.9860
1.1169 2.9134 -1.6187 0.9860
1.0122 2.9514 -1.6187 0.9860
0.7990 3.0162 -1.6187 0.9860
0.6908 3.0428 -1.6187 0.9860
0.2505 3.1101 -1.6187 0.9860
2.8704 0.7035 -1.6186 0.9866
2.8434 0.8055 -1.6186 0.9866
2.8128 0.9066 -1.6186 0.9866
2.7787 1.0064 -1.6186 0.9866
2.7410 1.1050 -1.6186 0.9866
2.6998 1.2022 -1.6186 0.9866
2.6552 1.2978 -1.6186 0.9866
2.6071 1.3918 -1.6187 0.9866
2.5557 1.4840 -1.6187 0.9866
2.3824 1.7488 -1.6187 0.9866
2.3184 1.8328 -1.6187 0.9866
2.2515 1.9144 -1.6187 0.9866
2.1817 1.9936 -1.6187 0.9866
1.9560 2.2155 -1.6187 0.9866
1.8756 2.2839 -1.6187 0.9866
1.7929 2.3495 -1.6187 0.9866
1.6206 2.4714 -1.6187 0.9866
1.4401 2.5808 -1.6187 0.9866
1.3470 2.6306 -1.6187 0.9866
1.1558 2.7200 -1.6187 0.9866
0.9588 2.7956 -1.6187 0.9866
0.8583 2.8280 -1.6187 0.9866
0.7568 2.8569 -1.6187 0.9866
0.4469 2.9214 -1.6187 0.9866
2.6360 0.9547 -1.6186 0.9871
2.5188 1.2312 -1.6187 0.9871
2.4245 1.4078 -1.6187 0.9871
2.3727 1.4935 -1.6187 0.9871
2.3179 1.5773 -1.6187 0.9871
2.1359 1.8161 -1.6187 0.9871
2.0008 1.9639 -1.6187 0.9871
1.7008 2.2288 -1.6187 0.9871
1.6201 2.2881 -1.6187 0.9871
1.4527 2.3979 -1.6187 0.9871
1.2778 2.4955 -1.6187 0.9871
1.1879 2.5396 -1.6187 0.9871
1.0036 2.6179 -1.6187 0.9871
0.9095 2.6520 -1.6187 0.9871
0.7179 2.7102 -1.6187 0.9871
0.5227 2.7545 -1.6187 0.9871
0.4240 2.7714 -1.6187 0.9871
0.3247 2.7848 -1.6187 0.9871
0.2251 2.7946 -1.6187 0.9871
