ply
format ascii 1.0
element vertex 389
property float32 x
property float32 y
property float32 z
property float32 I
end_header
-4.9190 47.9999 8.5080 0.8220
-6.9971 40.0972 7.1771 0.8476
-8.5824 29.9895 5.5003 0.8810
-9.5631 26.2493 4.9261 0.8927
-4.9190 47.9998 7.3918 0.8226
-5.6035 40.5122 6.2653 0.8475
-8.5827 34.5613 5.4554 0.8658
-9.5631 26.2492 4.2798 0.8931
-4.9434 48.2387 6.3146 0.8223
-6.8923 39.4964 5.2210 0.8507
-9.6517 29.7158 4.0686 0.8816
-9.5232 26.1396 3.6228 0.8938
-4.9624 48.4235 5.2270 0.8222
-6.8538 39.2758 4.2812 0.8518
-8.5827 34.5610 3.8239 0.8665
-8.6521 30.2329 3.3768 0.8812
-9.6821 29.8093 3.3656 0.8815
-10.3593 28.4345 3.2497 0.8854
-3.2991 49.3142 4.1839 0.8200
-7.8545 37.1995 3.2185 0.8585
-10.6930 29.3504 2.6444 0.8821
-4.9435 48.2391 3.0070 0.8234
-8.5920 34.5988 2.2106 0.8669
-9.8427 30.3038 1.9758 0.8801
-10.6965 29.3601 1.9377 0.8823
-6.1191 44.2404 1.7610 0.8363
-9.8427 30.3038 1.2564 0.8803
17.4211 29.4844 0.5785 0.8720
-4.8151 46.9860 0.7978 0.8278
-4.9300 35.6430 0.6078 0.8659
-7.0482 28.3821 0.4940 0.8896
-8.0043 24.6436 0.4377 0.9015
17.4211 29.4845 -0.1928 0.8720
-3.2159 48.0695 -0.2712 0.8247
-4.9300 35.6429 -0.2026 0.8659
-5.7582 32.9974 -0.1886 0.8746
-7.0482 28.3820 -0.1646 0.8896
-8.0043 24.6436 -0.1459 0.9015
-8.4773 23.2689 -0.1394 0.9057
21.1979 38.9553 -1.2488 0.8374
-3.0330 45.3368 -1.2794 0.8337
-7.5789 26.4830 -0.7756 0.8956
-8.4773 23.2688 -0.6973 0.9057
17.2506 23.1871 -1.4657 0.8907
13.8147 25.3873 -1.4658 0.8907
12.9099 25.8599 -1.4658 0.8907
10.1030 27.0820 -1.4659 0.8907
5.1883 28.4391 -1.4661 0.8907
3.1682 28.7357 -1.4661 0.8907
2.1514 28.8304 -1.4662 0.8907
0.1111 28.9117 -1.4662 0.8907
-2.9473 28.7633 -1.4663 0.8906
-4.9702 28.4847 -1.4664 0.8906
-7.5789 26.4830 -1.3970 0.8955
-8.4773 23.2688 -1.2559 0.9056
11.9330 16.0395 -1.4658 0.9229
8.9300 17.8879 -1.4659 0.9229
7.6454 18.4741 -1.4660 0.9229
5.6488 19.1800 -1.4660 0.9229
4.9680 19.3679 -1.4661 0.9229
2.8918 19.7856 -1.4661 0.9229
-0.6294 19.9876 -1.4663 0.9229
-1.3348 19.9532 -1.4663 0.9229
-2.0387 19.8939 -1.4663 0.9229
-3.4379 19.7011 -1.4664 0.9229
-4.8201 19.4099 -1.4664 0.9229
-5.5026 19.2279 -1.4664 0.9229
-6.1783 19.0218 -1.4664 0.9229
9.1142 12.2507 -1.4659 0.9405
7.7676 13.1464 -1.4660 0.9405
6.8205 13.6622 -1.4660 0.9405
6.3338 13.8947 -1.4660 0.9405
5.8393 14.1099 -1.4660 0.9405
5.3374 14.3074 -1.4661 0.9405
4.3143 14.6488 -1.4661 0.9405
3.7943 14.7922 -1.4661 0.9405
3.2696 14.9172 -1.4661 0.9405
2.7408 15.0236 -1.4661 0.9405
1.6736 15.1799 -1.4662 0.9405
1.1365 15.2297 -1.4662 0.9405
0.5980 15.2606 -1.4662 0.9405
-0.4807 15.2651 -1.4663 0.9405
-2.0926 15.1292 -1.4663 0.9405
-2.6256 15.0460 -1.4663 0.9405
-3.1554 14.9441 -1.4663 0.9405
7.3666 9.9016 -1.4660 0.9515
7.0124 10.1557 -1.4660 0.9515
6.6494 10.3971 -1.4660 0.9515
6.2782 10.6255 -1.4660 0.9515
5.5126 11.0423 -1.4660 0.9515
2.9900 6.5594 -0.8563 0.9714
2.7637 6.6781 -0.8585 0.9713
4.3139 11.5638 -1.4661 0.9515
3.0667 11.9555 -1.4661 0.9515
2.6426 12.0565 -1.4661 0.9515
0.9185 12.3090 -1.4662 0.9515
0.4833 12.3339 -1.4662 0.9515
0.0474 12.3433 -1.4662 0.9515
-0.8239 12.3162 -1.4663 0.9515
-1.6913 12.2275 -1.4663 0.9515
-2.1220 12.1603 -1.4663 0.9515
-2.5502 12.0779 -1.4663 0.9515
-2.9751 11.9804 -1.4663 0.9515
6.1760 8.3013 -1.4660 0.9591
5.5747 8.7166 -1.4660 0.9591
2.9853 6.5489 -1.0198 0.9713
3.6166 9.6947 -1.4661 0.9591
2.9233 9.9259 -1.4661 0.9591
1.8572 10.1797 -1.4662 0.9591
0.4052 10.3402 -1.4662 0.9591
0.0398 10.3481 -1.4662 0.9591
-0.6908 10.3253 -1.4663 0.9591
-2.1379 10.1254 -1.4663 0.9591
-2.4942 10.0437 -1.4663 0.9591
-2.8473 9.9495 -1.4663 0.9591
-3.1970 9.8428 -1.4663 0.9591
-3.5425 9.7238 -1.4663 0.9591
5.6590 7.6064 -1.5618 0.9623
4.7948 7.4971 -1.4661 0.9646
4.5271 7.6619 -1.4661 0.9646
3.9750 7.9624 -1.4661 0.9646
2.5143 8.5372 -1.4661 0.9646
2.2113 8.6207 -1.4662 0.9646
1.9055 8.6935 -1.4662 0.9646
1.5973 8.7554 -1.4662 0.9646
1.2871 8.8065 -1.4662 0.9646
0.6623 8.8755 -1.4662 0.9646
0.3485 8.8934 -1.4662 0.9646
-0.5941 8.8806 -1.4662 0.9646
-0.9074 8.8541 -1.4663 0.9646
-1.2195 8.8166 -1.4663 0.9646
-2.1452 8.6383 -1.4663 0.9646
-2.7496 8.4655 -1.4663 0.9646
-3.0469 8.3632 -1.4663 0.9646
5.3804 6.7225 -1.6184 0.9656
4.4238 6.9171 -1.5433 0.9671
3.9678 6.7153 -1.4661 0.9688
2.9688 6.5126 -1.3453 0.9713
2.7263 7.3082 -1.4661 0.9688
2.4666 7.4000 -1.4661 0.9688
1.9381 7.5557 -1.4662 0.9688
1.6701 7.6195 -1.4662 0.9688
1.4000 7.6738 -1.4662 0.9688
0.8549 7.7535 -1.4662 0.9688
0.5805 7.7790 -1.4662 0.9687
0.3054 7.7946 -1.4662 0.9687
-0.5207 7.7834 -1.4662 0.9687
-0.7953 7.7602 -1.4663 0.9687
-1.3410 7.6848 -1.4663 0.9687
4.7843 5.9778 -1.6185 0.9692
4.3505 6.3006 -1.6185 0.9692
4.1176 6.4384 -1.6155 0.9692
3.5124 6.4547 -1.5533 0.9704
3.1426 6.2949 -1.4872 0.9716
2.6523 6.4089 -1.4661 0.9720
2.4243 6.4986 -1.4661 0.9720
2.1933 6.5802 -1.4662 0.9720
1.9596 6.6536 -1.4662 0.9720
1.7234 6.7187 -1.4662 0.9720
1.4851 6.7754 -1.4662 0.9720
1.2449 6.8236 -1.4662 0.9720
1.0032 6.8634 -1.4662 0.9720
0.5162 6.9171 -1.4662 0.9720
0.2716 6.9311 -1.4662 0.9720
0.0267 6.9364 -1.4662 0.9720
-0.4630 6.9210 -1.4662 0.9720
-0.7071 6.9004 -1.4662 0.9720
-1.4330 6.7870 -1.4663 0.9720
-2.1429 6.5975 -1.4663 0.9720
-2.3746 6.5178 -1.4663 0.9720
4.3031 5.3765 -1.6185 0.9721
4.1106 5.5251 -1.6185 0.9721
3.5032 5.9290 -1.6185 0.9721
3.2855 6.0377 -1.6155 0.9722
3.0643 6.1380 -1.6124 0.9722
2.7848 6.1092 -1.5779 0.9728
2.4792 5.9906 -1.5237 0.9737
1.9727 5.9182 -1.4662 0.9747
1.7625 5.9842 -1.4662 0.9747
1.5500 6.0428 -1.4662 0.9747
1.3357 6.0938 -1.4662 0.9747
1.1196 6.1372 -1.4662 0.9747
0.9022 6.1729 -1.4662 0.9747
0.6837 6.2010 -1.4662 0.9747
0.0240 6.2386 -1.4662 0.9747
-0.4164 6.2248 -1.4662 0.9747
-1.7165 5.9981 -1.4663 0.9747
-2.1356 5.8620 -1.4663 0.9747
3.9060 4.8803 -1.6185 0.9745
3.3680 5.2662 -1.6185 0.9745
2.9879 5.4908 -1.6185 0.9745
2.7921 5.5929 -1.6185 0.9745
2.3831 5.7586 -1.6136 0.9746
1.9141 5.7423 -1.5672 0.9753
1.6624 5.6445 -1.5235 0.9760
1.0163 5.5708 -1.4662 0.9769
0.6206 5.6287 -1.4662 0.9769
0.2217 5.6585 -1.4662 0.9769
-0.3780 5.6503 -1.4662 0.9769
-0.5773 5.6335 -1.4662 0.9769
-0.7759 5.6096 -1.4663 0.9769
-1.1699 5.5409 -1.4663 0.9769
-1.7494 5.3861 -1.4663 0.9769
-1.9385 5.3210 -1.4663 0.9769
3.4126 4.5870 -1.6185 0.9765
3.2485 4.7047 -1.6185 0.9765
2.7327 5.0219 -1.6185 0.9765
2.3715 5.2023 -1.6185 0.9765
1.9970 5.3530 -1.6174 0.9765
1.4141 5.5127 -1.6111 0.9766
0.0199 5.1792 -1.4662 0.9787
-0.3457 5.1678 -1.4662 0.9787
-0.7096 5.1305 -1.4662 0.9787
-0.8904 5.1023 -1.4663 0.9787
-1.0700 5.0677 -1.4663 0.9787
-1.2483 5.0268 -1.4663 0.9787
-1.4251 4.9796 -1.4663 0.9787
-1.6000 4.9262 -1.4663 0.9787
3.1410 4.2219 -1.6185 0.9782
2.9900 4.3302 -1.6185 0.9782
2.8352 4.4331 -1.6185 0.9782
2.6768 4.5304 -1.6185 0.9782
2.3504 4.7081 -1.6185 0.9782
2.1827 4.7882 -1.6185 0.9782
2.0123 4.8623 -1.6186 0.9782
1.8393 4.9304 -1.6186 0.9782
1.6640 4.9923 -1.6186 0.9782
1.3063 5.0928 -1.6172 0.9782
1.1245 5.1304 -1.6155 0.9783
0.7581 5.1870 -1.6124 0.9783
0.1987 5.0710 -1.5609 0.9790
0.0193 5.0120 -1.5416 0.9792
-0.3278 4.8999 -1.5105 0.9797
-0.9889 4.6835 -1.4723 0.9802
-1.1505 4.6328 -1.4682 0.9802
3.0425 3.8015 -1.6185 0.9797
2.6234 4.1020 -1.6185 0.9797
2.4769 4.1921 -1.6185 0.9797
2.3274 4.2770 -1.6185 0.9797
1.8619 4.4992 -1.6186 0.9797
1.3756 4.6709 -1.6186 0.9797
1.2099 4.7166 -1.6186 0.9797
1.0426 4.7564 -1.6186 0.9797
0.8739 4.7903 -1.6186 0.9797
0.7039 4.8161 -1.6179 0.9797
-0.3237 4.8378 -1.6117 0.9798
-0.4941 4.8214 -1.6111 0.9798
-0.6596 4.7693 -1.6004 0.9799
-0.8229 4.7155 -1.5911 0.9800
-1.3047 4.5589 -1.5763 0.9802
-1.4651 4.5107 -1.5765 0.9802
-1.6256 4.4620 -1.5786 0.9802
2.7016 3.6313 -1.6185 0.9810
2.4385 3.8129 -1.6185 0.9810
2.3024 3.8967 -1.6185 0.9810
2.0216 4.0495 -1.6186 0.9810
1.8773 4.1184 -1.6186 0.9810
1.5820 4.2406 -1.6186 0.9810
1.2787 4.3417 -1.6186 0.9810
0.9691 4.4212 -1.6186 0.9810
0.8123 4.4527 -1.6186 0.9810
0.6546 4.4786 -1.6186 0.9810
0.4960 4.4989 -1.6186 0.9810
0.3368 4.5137 -1.6186 0.9810
0.1772 4.5228 -1.6186 0.9810
-0.4608 4.4966 -1.6164 0.9810
-0.6191 4.4761 -1.6159 0.9810
-1.2424 4.3412 -1.6148 0.9810
-1.3949 4.2947 -1.6148 0.9810
2.6392 3.2974 -1.6185 0.9821
2.3998 3.4755 -1.6185 0.9821
2.1485 3.6363 -1.6185 0.9821
2.0188 3.7099 -1.6186 0.9821
1.8865 3.7788 -1.6186 0.9821
1.7519 3.8431 -1.6186 0.9821
0.7580 4.1551 -1.6186 0.9821
0.1654 4.2205 -1.6186 0.9821
0.0162 4.2237 -1.6186 0.9821
-0.7261 4.1609 -1.6186 0.9821
-0.8726 4.1327 -1.6187 0.9821
-1.3048 4.0173 -1.6187 0.9821
2.3605 3.1729 -1.6185 0.9831
1.8903 3.4737 -1.6186 0.9831
1.7664 3.5383 -1.6186 0.9831
1.6403 3.5985 -1.6186 0.9831
1.2505 3.7518 -1.6186 0.9831
0.8467 3.8631 -1.6186 0.9831
0.4334 3.9310 -1.6186 0.9831
0.0152 3.9548 -1.6186 0.9831
-0.5419 3.9176 -1.6186 0.9831
-1.0881 3.8023 -1.6187 0.9831
-1.2217 3.7615 -1.6187 0.9831
-1.3538 3.7160 -1.6187 0.9831
2.2168 2.9796 -1.6185 0.9839
2.1102 3.0561 -1.6185 0.9839
1.8892 3.1974 -1.6186 0.9839
1.7752 3.2621 -1.6186 0.9839
1.2981 3.4796 -1.6186 0.9839
1.0493 3.5626 -1.6186 0.9839
0.9228 3.5975 -1.6186 0.9839
0.5371 3.6749 -1.6186 0.9839
0.1454 3.7111 -1.6186 0.9839
-0.3786 3.6947 -1.6186 0.9839
-0.6385 3.6587 -1.6186 0.9839
-0.8951 3.6046 -1.6187 0.9839
-1.0219 3.5707 -1.6187 0.9839
-1.2714 3.4897 -1.6187 0.9839
1.6713 3.0714 -1.6186 0.9847
1.5618 3.1285 -1.6186 0.9847
1.4504 3.1817 -1.6186 0.9847
1.3371 3.2310 -1.6186 0.9847
1.2222 3.2762 -1.6186 0.9847
0.9879 3.3543 -1.6186 0.9847
0.8688 3.3871 -1.6186 0.9847
0.6276 3.4400 -1.6186 0.9847
0.5057 3.4600 -1.6186 0.9847
0.3832 3.4757 -1.6186 0.9847
0.1369 3.4941 -1.6186 0.9847
0.0134 3.4968 -1.6186 0.9847
-0.1101 3.4951 -1.6186 0.9847
-0.2334 3.4890 -1.6186 0.9847
-0.4791 3.4639 -1.6186 0.9847
-0.8428 3.3938 -1.6187 0.9847
-1.0802 3.3258 -1.6187 0.9847
-1.1970 3.2856 -1.6187 0.9847
2.0618 2.5761 -1.6186 0.9854
1.9696 2.6474 -1.6186 0.9854
1.7778 2.7798 -1.6186 0.9854
1.6785 2.8408 -1.6186 0.9854
1.2618 3.0489 -1.6186 0.9854
1.0434 3.1304 -1.6186 0.9854
0.8199 3.1962 -1.6186 0.9854
0.5922 3.2462 -1.6186 0.9854
0.4772 3.2650 -1.6186 0.9854
0.3616 3.2799 -1.6186 0.9854
0.0127 3.2997 -1.6186 0.9854
-0.1038 3.2981 -1.6186 0.9854
-0.6817 3.2287 -1.6186 0.9854
-1.1296 3.1005 -1.6187 0.9854
1.6810 2.6284 -1.6186 0.9860
1.3936 2.7914 -1.6186 0.9860
1.2941 2.8389 -1.6186 0.9860
1.0905 2.9232 -1.6186 0.9860
0.9866 2.9599 -1.6186 0.9860
0.8815 2.9929 -1.6186 0.9860
0.6680 3.0476 -1.6186 0.9860
0.5600 3.0694 -1.6186 0.9860
0.3419 3.1012 -1.6186 0.9860
0.1221 3.1176 -1.6186 0.9860
0.0120 3.1200 -1.6186 0.9860
-0.4275 3.0906 -1.6186 0.9860
-0.5364 3.0736 -1.6186 0.9860
1.8466 2.3072 -1.6186 0.9866
1.3200 2.6440 -1.6186 0.9866
1.2258 2.6890 -1.6186 0.9866
1.1300 2.7306 -1.6186 0.9866
0.9345 2.8036 -1.6186 0.9866
0.7343 2.8626 -1.6186 0.9866
0.6327 2.8867 -1.6186 0.9866
0.5304 2.9073 -1.6186 0.9866
0.4274 2.9242 -1.6186 0.9866
-0.1973 2.9487 -1.6186 0.9866
-0.4049 2.9274 -1.6186 0.9866
-0.5080 2.9113 -1.6186 0.9866
-0.7123 2.8682 -1.6186 0.9866
-0.8131 2.8413 -1.6186 0.9866
-0.9129 2.8108 -1.6187 0.9866
-1.0117 2.7768 -1.6187 0.9866
1.7518 2.1887 -1.6186 0.9871
1.5104 2.3617 -1.6186 0.9871
1.4261 2.4136 -1.6186 0.9871
1.3400 2.4625 -1.6186 0.9871
0.9799 2.6267 -1.6186 0.9871
0.8865 2.6596 -1.6186 0.9871
0.7920 2.6893 -1.6186 0.9871
0.6966 2.7156 -1.6186 0.9871
0.6002 2.7385 -1.6186 0.9871
0.5032 2.7580 -1.6186 0.9871
0.4054 2.7740 -1.6186 0.9871
0.2086 2.7957 -1.6186 0.9871
0.1098 2.8014 -1.6186 0.9871
-0.0882 2.8021 -1.6186 0.9871
-0.1871 2.7973 -1.6186 0.9871
-0.2858 2.7889 -1.6186 0.9871
-0.3841 2.7771 -1.6186 0.9871
-0.6757 2.7209 -1.6186 0.9871
-0.7713 2.6954 -1.6186 0.9871
-0.8661 2.6665 -1.6187 0.9871
-0.9597 2.6342 -1.6187 0.9871
