ply
format ascii 1.0
element vertex 552
property float32 x
property float32 y
property float32 z
property float32 I
end_header
-6.6075 41.7935 7.4609 0.8421
-7.5237 38.4886 6.9150 0.8528
-9.8667 25.1206 4.7588 0.8962
-10.9121 25.0719 4.8214 0.8949
-11.4934 23.9920 4.6908 0.8976
-12.5522 20.2237 4.1970 0.9078
-12.2162 16.8266 3.6665 0.9190
-12.9477 15.3579 3.5420 0.9217
-14.1344 14.4912 3.5694 0.9211
-14.3735 13.7055 3.5019 0.9225
-14.3895 12.7579 3.3909 0.9249
-5.5411 45.7392 7.0582 0.8299
-8.4590 31.1047 4.9381 0.8777
-9.8713 25.1323 4.1365 0.8965
-10.8421 24.9112 4.1620 0.8959
-12.2286 21.3956 3.7753 0.9051
-12.8181 19.0730 3.5204 0.9112
-13.1749 18.1471 3.4354 0.9132
-13.1930 16.8521 3.2787 0.9170
-14.1923 14.5504 3.1138 0.9210
-14.5866 12.9327 2.9864 0.9241
-4.1341 48.9155 6.3925 0.8204
-6.2321 39.4187 5.1969 0.8513
-7.5834 38.7938 5.1474 0.8526
-8.3931 30.8623 4.1649 0.8790
-10.1989 29.0145 4.0049 0.8833
-9.8502 25.0786 3.5086 0.8970
-10.8040 24.8236 3.5254 0.8965
-12.2288 21.3960 3.2092 0.9054
-12.5524 20.2240 3.0996 0.9085
-12.8550 19.1279 3.0011 0.9112
-13.1749 18.1471 2.9202 0.9135
-13.7170 16.2704 2.7712 0.9177
-14.8790 14.1875 2.6772 0.9204
-4.1575 49.1925 5.3012 0.8199
-7.5237 38.4883 4.2112 0.8540
-8.3927 30.8608 3.4343 0.8793
-10.1990 29.0147 3.3025 0.8836
-11.5190 24.0455 2.8630 0.8983
-11.8811 22.6556 2.7470 0.9022
-12.2288 21.3960 2.6463 0.9056
-12.5524 20.2240 2.5560 0.9087
-10.6883 15.9040 2.0576 0.9258
-13.1749 18.1471 2.4081 0.9137
-14.6137 14.9824 2.2474 0.9192
-14.8790 14.1875 2.2077 0.9206
-14.5866 12.9327 2.0933 0.9246
-14.9560 12.3217 2.0808 0.9250
-5.5411 45.7391 3.9002 0.8311
-7.5238 38.4888 3.3198 0.8543
-8.3029 35.5748 3.0924 0.8636
-8.9940 33.0717 2.9013 0.8715
-8.8423 22.5125 2.0475 0.9075
-11.7652 24.5595 2.3053 0.8964
-11.8810 22.6556 2.1656 0.9024
-12.8550 19.1279 1.9509 0.9116
-13.1749 18.1471 1.8984 0.9139
-13.9602 15.3908 1.7590 0.9200
-14.5866 12.9327 1.6502 0.9247
-14.9813 12.3427 1.6432 0.9250
-6.2417 31.9302 2.0175 0.8778
-8.9940 33.0716 2.1253 0.8717
-10.3134 29.3404 1.9285 0.8828
-10.6625 27.1465 1.8086 0.8897
-11.7652 24.5595 1.6887 0.8966
-11.8811 22.6556 1.5863 0.9026
-12.3757 21.6530 1.5465 0.9049
-12.5150 20.1638 1.4716 0.9093
-12.8550 19.1279 1.4291 0.9118
-13.1749 18.1471 1.3906 0.9140
-13.6101 17.3848 1.3691 0.9153
-13.7170 16.2704 1.3196 0.9182
-14.9052 14.2125 1.2771 0.9208
-14.5866 12.9327 1.2088 0.9248
-14.9813 12.3427 1.2037 0.9252
-5.5725 45.9987 1.8270 0.8307
-6.6088 41.8015 1.6687 0.8442
-9.6501 31.0011 1.2803 0.8781
-10.3134 29.3404 1.2263 0.8829
-10.6564 27.1311 1.1494 0.8899
-11.1098 25.5262 1.0977 0.8945
-9.4610 19.7494 0.8635 0.9161
-9.7145 18.5244 0.8248 0.9197
-10.3294 16.6423 0.7723 0.9246
-10.5806 15.7437 0.7480 0.9269
-11.0396 14.1014 0.7062 0.9308
-11.4521 12.6256 0.6721 0.9340
-11.8285 11.2788 0.6445 0.9367
-12.0058 10.6445 0.6327 0.9378
-12.1769 10.0322 0.6221 0.9388
-6.1654 31.5403 0.5429 0.8794
-7.3880 27.1663 0.4756 0.8935
-7.8934 25.3578 0.4486 0.8992
-8.3452 23.7412 0.4251 0.9042
-8.7525 22.2840 0.4044 0.9087
-9.1225 20.9602 0.3861 0.9126
-10.3294 16.6423 0.3309 0.9246
-10.5806 15.7437 0.3204 0.9269
-10.8167 14.8989 0.3110 0.9290
-11.0396 14.1014 0.3025 0.9309
-11.1842 13.2662 0.2931 0.9329
-11.6442 11.9380 0.2817 0.9355
-11.8285 11.2788 0.2761 0.9367
-12.1769 10.0322 0.2665 0.9388
-3.9526 46.7687 -0.2643 0.8288
-5.5412 45.7400 -0.2594 0.8317
-5.4124 34.2345 -0.1951 0.8705
-6.1654 31.5403 -0.1809 0.8794
-6.8171 29.2087 -0.1689 0.8869
-8.3452 23.7412 -0.1417 0.9042
-9.1225 20.9602 -0.1287 0.9126
-9.7145 18.5244 -0.1178 0.9197
-10.0609 17.6029 -0.1142 0.9221
-11.0396 14.1014 -0.1008 0.9309
-11.1842 13.2662 -0.0977 0.9329
-11.4521 12.6256 -0.0960 0.9341
-11.6442 11.9380 -0.0939 0.9355
-11.8285 11.2788 -0.0920 0.9367
-12.0058 10.6445 -0.0903 0.9378
-2.2979 47.7642 -1.3465 0.8258
-3.6689 43.4117 -1.2267 0.8400
-5.5412 45.7400 -1.2974 0.8316
-5.4124 34.2345 -0.9759 0.8705
-6.1654 31.5403 -0.9049 0.8793
-6.8171 29.2087 -0.8446 0.8869
-7.3880 27.1662 -0.7927 0.8935
-8.3452 23.7412 -0.7086 0.9042
-8.7525 22.2839 -0.6741 0.9086
-9.1225 20.9602 -0.6437 0.9126
-9.4609 19.7494 -0.6166 0.9161
-10.3294 16.6423 -0.5515 0.9246
-10.5806 15.7436 -0.5341 0.9269
-10.8167 14.8989 -0.5184 0.9290
-11.0396 14.1014 -0.5043 0.9308
-11.1842 13.2662 -0.4886 0.9329
-11.4521 12.6256 -0.4800 0.9341
8.9401 27.4957 -1.4663 0.8907
6.9254 28.0712 -1.4663 0.8907
5.9037 28.3038 -1.4663 0.8907
3.8383 28.6573 -1.4663 0.8907
0.7059 28.9051 -1.4663 0.8907
-0.3420 28.9119 -1.4663 0.8906
-1.3894 28.8806 -1.4664 0.8906
-3.4774 28.7044 -1.4664 0.8906
-4.5152 28.5597 -1.4664 0.8906
-5.5472 28.3775 -1.4664 0.8906
-6.5719 28.1581 -1.4664 0.8906
-8.3452 23.7412 -1.2762 0.9041
-8.7525 22.2839 -1.2142 0.9086
-9.1225 20.9602 -1.1593 0.9125
-9.4609 19.7494 -1.1106 0.9160
-9.7145 18.5243 -1.0608 0.9196
-10.5805 15.7436 -0.9620 0.9268
-11.0395 14.1014 -0.9082 0.9308
-11.1842 13.2662 -0.8800 0.9329
-11.4520 12.6256 -0.8645 0.9340
-11.6442 11.9380 -0.8457 0.9354
-12.0057 10.6445 -0.8137 0.9378
6.1834 19.0179 -1.4663 0.9229
4.0833 19.5768 -1.4663 0.9229
3.3713 19.7119 -1.4663 0.9229
1.9349 19.9045 -1.4663 0.9229
1.2124 19.9616 -1.4663 0.9229
0.4883 19.9925 -1.4663 0.9229
-2.4052 19.8536 -1.4663 0.9229
-3.1230 19.7534 -1.4664 0.9229
-3.8367 19.6274 -1.4664 0.9229
-5.2482 19.2981 -1.4664 0.9229
-5.9441 19.0953 -1.4664 0.9229
-6.6321 18.8675 -1.4664 0.9229
-7.3114 18.6148 -1.4664 0.9229
-7.9812 18.3377 -1.4664 0.9229
-8.6404 18.0365 -1.4664 0.9229
-9.9240 17.3635 -1.4664 0.9229
-10.5805 15.7436 -1.3908 0.9267
-10.8167 14.8989 -1.3500 0.9288
-11.8285 11.2788 -1.1984 0.9366
4.7226 14.5246 -1.4663 0.9405
4.1932 14.6862 -1.4663 0.9405
3.6583 14.8286 -1.4663 0.9405
2.5748 15.0547 -1.4663 0.9405
2.0276 15.1381 -1.4663 0.9405
-0.1806 15.2724 -1.4663 0.9405
-0.7339 15.2559 -1.4663 0.9405
-1.2862 15.2193 -1.4663 0.9405
-1.8369 15.1627 -1.4663 0.9405
-2.3851 15.0863 -1.4663 0.9405
-2.9302 14.9899 -1.4663 0.9405
-3.4715 14.8740 -1.4664 0.9405
-5.0651 14.4096 -1.4664 0.9405
-6.0954 14.0049 -1.4664 0.9405
-6.5989 13.7749 -1.4664 0.9405
-7.0937 13.5268 -1.4664 0.9405
-7.5792 13.2609 -1.4664 0.9405
-8.0548 12.9776 -1.4664 0.9405
-8.5198 12.6772 -1.4664 0.9405
-8.9736 12.3602 -1.4664 0.9405
-9.4155 12.0269 -1.4664 0.9405
-9.8452 11.6779 -1.4664 0.9405
-10.2619 11.3135 -1.4664 0.9405
-10.6651 10.9342 -1.4664 0.9405
-11.7887 9.7124 -1.4664 0.9405
2.9567 11.9847 -1.4663 0.9515
2.5205 12.0840 -1.4663 0.9515
1.6387 12.2349 -1.4663 0.9515
1.1943 12.2863 -1.4663 0.9515
-1.9277 12.1929 -1.4663 0.9515
-2.3683 12.1151 -1.4663 0.9515
-2.8057 12.0213 -1.4663 0.9515
-3.2395 11.9118 -1.4663 0.9515
-4.0937 11.6460 -1.4664 0.9515
-4.5130 11.4900 -1.4664 0.9515
-5.3333 11.1330 -1.4664 0.9515
-6.1256 10.7176 -1.4664 0.9515
-7.2525 9.9896 -1.4664 0.9515
-7.9570 9.4382 -1.4664 0.9515
-8.2937 9.1437 -1.4664 0.9515
-8.6196 8.8371 -1.4664 0.9515
-9.2370 8.1897 -1.4664 0.9515
-9.5277 7.8496 -1.4664 0.9515
3.1999 9.8415 -1.4663 0.9591
2.1131 10.1307 -1.4663 0.9591
1.3738 10.2572 -1.4663 0.9591
1.0013 10.3003 -1.4663 0.9591
0.2526 10.3458 -1.4663 0.9591
-0.8715 10.3121 -1.4663 0.9591
-1.6161 10.2220 -1.4663 0.9591
-2.3522 10.0781 -1.4663 0.9591
-2.7158 9.9863 -1.4663 0.9591
-3.0759 9.8813 -1.4663 0.9591
-4.1300 9.4893 -1.4664 0.9591
-4.4712 9.3334 -1.4664 0.9591
-4.8064 9.1653 -1.4664 0.9591
-5.1354 8.9851 -1.4664 0.9591
-5.4576 8.7931 -1.4664 0.9591
-6.0801 8.3748 -1.4664 0.9591
-6.9531 7.6656 -1.4664 0.9591
-7.2263 7.4086 -1.4664 0.9591
-7.4900 7.1419 -1.4664 0.9591
2.7522 8.4646 -1.4663 0.9646
2.4437 8.5587 -1.4663 0.9646
2.1320 8.6417 -1.4663 0.9646
1.1816 8.8220 -1.4663 0.9646
0.8612 8.8591 -1.4663 0.9646
0.2173 8.8982 -1.4663 0.9646
-0.1053 8.9002 -1.4663 0.9646
-1.0705 8.8363 -1.4663 0.9646
-2.0231 8.6680 -1.4663 0.9646
-2.6455 8.4987 -1.4663 0.9646
-3.2541 8.2849 -1.4663 0.9646
-3.8456 8.0275 -1.4663 0.9646
-4.1339 7.8829 -1.4663 0.9646
-4.9649 7.3877 -1.4664 0.9646
-6.4419 6.1426 -1.4664 0.9646
-6.6603 5.9051 -1.4664 0.9646
-6.8699 5.6599 -1.4664 0.9646
1.3151 7.6895 -1.4663 0.9687
0.4729 7.7868 -1.4663 0.9687
-0.9382 7.7446 -1.4663 0.9687
-1.2182 7.7055 -1.4663 0.9687
-2.0472 7.5279 -1.4663 0.9687
-2.3187 7.4488 -1.4663 0.9687
-3.1133 7.1532 -1.4663 0.9687
-3.3704 7.0357 -1.4663 0.9687
-3.6232 6.9089 -1.4663 0.9687
-3.8711 6.7731 -1.4663 0.9687
-4.3515 6.4750 -1.4663 0.9687
-4.8090 6.1428 -1.4664 0.9687
-5.2413 5.7784 -1.4664 0.9687
-5.6460 5.3836 -1.4664 0.9687
-5.8374 5.1755 -1.4664 0.9687
-6.0212 4.9606 -1.4664 0.9687
2.1450 6.5969 -1.4663 0.9720
1.9045 6.6703 -1.4663 0.9720
1.6616 6.7349 -1.4663 0.9720
1.1694 6.8376 -1.4663 0.9720
0.6712 6.9043 -1.4663 0.9720
0.1693 6.9348 -1.4663 0.9720
-0.8343 6.8866 -1.4663 0.9720
-1.0833 6.8518 -1.4663 0.9720
-1.3308 6.8081 -1.4663 0.9720
-2.0618 6.6235 -1.4663 0.9720
-2.5361 6.4568 -1.4663 0.9720
-3.4422 6.0227 -1.4663 0.9720
-3.6582 5.8940 -1.4663 0.9720
-4.0755 5.6136 -1.4663 0.9720
-4.2762 5.4622 -1.4663 0.9720
-4.6606 5.1382 -1.4664 0.9720
-4.8437 4.9660 -1.4664 0.9720
-5.0205 4.7872 -1.4664 0.9720
-5.1907 4.6021 -1.4664 0.9720
-5.3540 4.4110 -1.4664 0.9720
1.4944 6.0574 -1.4663 0.9747
1.2739 6.1076 -1.4663 0.9747
1.0518 6.1497 -1.4663 0.9747
0.1523 6.2372 -1.4663 0.9747
-0.2998 6.2318 -1.4663 0.9747
-0.7503 6.1938 -1.4663 0.9747
-0.9743 6.1625 -1.4663 0.9747
-1.1970 6.1232 -1.4663 0.9747
-1.4180 6.0758 -1.4663 0.9747
-1.6373 6.0204 -1.4663 0.9747
-1.8543 5.9572 -1.4663 0.9747
-2.2809 5.8072 -1.4663 0.9747
-2.8976 5.5254 -1.4663 0.9747
-3.0960 5.4168 -1.4663 0.9747
-3.4801 5.1784 -1.4663 0.9747
-4.0215 4.7701 -1.4663 0.9747
-4.6685 4.1391 -1.4663 0.9747
1.8603 5.7215 -1.5577 0.9754
1.1564 5.5439 -1.4663 0.9769
0.5479 5.6367 -1.4663 0.9769
0.3433 5.6528 -1.4663 0.9769
0.1382 5.6616 -1.4663 0.9769
-0.2721 5.6567 -1.4663 0.9769
-0.4769 5.6432 -1.4663 0.9769
-0.6811 5.6222 -1.4663 0.9769
-0.8844 5.5938 -1.4663 0.9769
-1.0865 5.5581 -1.4663 0.9769
-1.6832 5.4074 -1.4663 0.9769
-1.8781 5.3429 -1.4663 0.9769
-2.4468 5.1075 -1.4663 0.9769
-2.8102 4.9169 -1.4663 0.9769
-2.9866 4.8119 -1.4663 0.9769
-3.1590 4.7005 -1.4663 0.9769
-3.3272 4.5829 -1.4663 0.9769
-3.4911 4.4593 -1.4663 0.9769
-3.8049 4.1948 -1.4663 0.9769
-3.9544 4.0542 -1.4663 0.9769
-4.0987 3.9082 -1.4663 0.9769
1.5641 5.4780 -1.6128 0.9766
1.1317 5.4255 -1.5690 0.9772
0.9149 5.3492 -1.5363 0.9777
0.7066 5.2756 -1.5068 0.9781
0.1265 5.1781 -1.4663 0.9787
-0.0612 5.1793 -1.4663 0.9787
-0.2489 5.1737 -1.4663 0.9787
-0.4362 5.1613 -1.4663 0.9787
-0.6229 5.1421 -1.4663 0.9787
-0.9937 5.0834 -1.4663 0.9787
-1.1772 5.0441 -1.4663 0.9787
-1.3592 4.9981 -1.4663 0.9787
-1.8936 4.8211 -1.4663 0.9787
-2.0671 4.7494 -1.4663 0.9787
-2.2378 4.6713 -1.4663 0.9787
-2.4056 4.5872 -1.4663 0.9787
-2.5702 4.4970 -1.4663 0.9787
-2.8892 4.2991 -1.4663 0.9787
-3.1929 4.0785 -1.4663 0.9787
-3.3644 3.9906 -1.4776 0.9785
-3.9971 3.8114 -1.5635 0.9773
-4.3966 3.6222 -1.6126 0.9766
1.6273 5.0048 -1.6187 0.9782
1.4448 5.0603 -1.6186 0.9782
0.8843 5.1707 -1.6135 0.9783
0.6958 5.1945 -1.6120 0.9783
0.5035 5.1795 -1.6006 0.9785
-0.2371 4.9293 -1.5179 0.9796
-0.4118 4.8726 -1.5040 0.9797
-0.9198 4.7053 -1.4746 0.9801
-1.0860 4.6533 -1.4697 0.9802
-1.2516 4.6021 -1.4669 0.9802
-1.7476 4.4494 -1.4703 0.9802
-1.9132 4.3958 -1.4745 0.9801
-2.0810 4.3440 -1.4815 0.9800
-2.7780 4.1335 -1.5318 0.9794
-2.9631 4.0814 -1.5513 0.9791
-3.5207 3.8815 -1.6118 0.9783
-3.9327 3.4868 -1.6166 0.9782
1.3370 4.6825 -1.6187 0.9797
1.1664 4.7279 -1.6187 0.9797
0.9943 4.7671 -1.6187 0.9797
0.8209 4.8000 -1.6187 0.9797
0.2945 4.8497 -1.6150 0.9797
-0.2330 4.8445 -1.6122 0.9798
-0.4082 4.8306 -1.6115 0.9798
-0.5809 4.7951 -1.6056 0.9798
-0.7494 4.7398 -1.5951 0.9800
-1.5740 4.4778 -1.5777 0.9802
-1.7390 4.4275 -1.5812 0.9801
-1.9048 4.3766 -1.5866 0.9801
-2.0718 4.3249 -1.5941 0.9800
-2.5574 4.1204 -1.6120 0.9798
-2.7066 4.0273 -1.6129 0.9798
-2.8525 3.9290 -1.6139 0.9797
-2.9950 3.8256 -1.6150 0.9797
-3.4003 3.4861 -1.6187 0.9797
-3.6438 3.2307 -1.6187 0.9797
1.3996 4.3047 -1.6187 0.9810
1.2428 4.3525 -1.6187 0.9810
0.7631 4.4617 -1.6187 0.9810
0.2744 4.5182 -1.6187 0.9810
0.1105 4.5252 -1.6187 0.9810
-0.0535 4.5250 -1.6183 0.9810
-0.5436 4.4868 -1.6162 0.9810
-1.1850 4.3574 -1.6149 0.9810
-1.3421 4.3116 -1.6148 0.9810
-1.6511 4.2037 -1.6151 0.9810
-2.0989 4.0024 -1.6162 0.9810
-2.6594 3.6630 -1.6187 0.9810
-3.1606 3.2404 -1.6187 0.9810
-3.2760 3.1237 -1.6187 0.9810
-3.3870 3.0030 -1.6187 0.9810
1.1597 4.0617 -1.6187 0.9821
1.0118 4.1010 -1.6187 0.9821
0.7121 4.1635 -1.6187 0.9821
0.2561 4.2162 -1.6187 0.9821
0.1031 4.2227 -1.6187 0.9821
-0.0500 4.2237 -1.6187 0.9821
-0.3557 4.2090 -1.6187 0.9821
-0.6596 4.1722 -1.6187 0.9821
-0.9600 4.1135 -1.6187 0.9821
-1.4008 3.9850 -1.6187 0.9821
-1.5442 3.9316 -1.6187 0.9821
-1.6857 3.8731 -1.6187 0.9821
-1.8249 3.8095 -1.6187 0.9821
-2.0960 3.6673 -1.6187 0.9821
-2.2275 3.5890 -1.6187 0.9821
-2.3561 3.5059 -1.6187 0.9821
-2.4816 3.4182 -1.6187 0.9821
-2.7227 3.2295 -1.6187 0.9821
-2.9494 3.0238 -1.6187 0.9821
-3.0570 2.9150 -1.6187 0.9821
-3.1607 2.8023 -1.6187 0.9821
1.0859 3.8031 -1.6187 0.9831
0.8076 3.8717 -1.6187 0.9831
0.5251 3.9201 -1.6187 0.9831
0.3826 3.9365 -1.6187 0.9831
0.2398 3.9478 -1.6187 0.9831
-0.0468 3.9548 -1.6187 0.9831
-0.4757 3.9264 -1.6187 0.9831
-0.7588 3.8816 -1.6187 0.9831
-1.0379 3.8165 -1.6187 0.9831
-1.1755 3.7764 -1.6187 0.9831
-1.3116 3.7313 -1.6187 0.9831
-1.4459 3.6813 -1.6187 0.9831
-1.5784 3.6265 -1.6187 0.9831
-1.7087 3.5670 -1.6187 0.9831
-1.8369 3.5027 -1.6187 0.9831
-1.9626 3.4338 -1.6187 0.9831
-2.0857 3.3605 -1.6187 0.9831
-2.5493 3.0239 -1.6187 0.9831
-3.0526 2.5149 -1.6187 0.9831
1.1485 3.5322 -1.6187 0.9839
1.0197 3.5715 -1.6187 0.9839
0.8897 3.6061 -1.6187 0.9839
0.7584 3.6359 -1.6187 0.9839
0.6261 3.6610 -1.6187 0.9839
0.4931 3.6813 -1.6187 0.9839
0.2252 3.7074 -1.6187 0.9839
0.0907 3.7131 -1.6187 0.9839
-0.0439 3.7140 -1.6187 0.9839
-0.1785 3.7099 -1.6187 0.9839
-0.4467 3.6873 -1.6187 0.9839
-0.7126 3.6452 -1.6187 0.9839
-0.8442 3.6170 -1.6187 0.9839
-0.9747 3.5841 -1.6187 0.9839
-1.1039 3.5464 -1.6187 0.9839
-1.2317 3.5041 -1.6187 0.9839
-1.4822 3.4057 -1.6187 0.9839
-1.6047 3.3497 -1.6187 0.9839
-1.7250 3.2894 -1.6187 0.9839
-1.9587 3.1558 -1.6187 0.9839
-2.2896 2.9246 -1.6187 0.9839
-2.5935 2.6589 -1.6187 0.9839
-2.6881 2.5632 -1.6187 0.9839
-2.7792 2.4641 -1.6187 0.9839
1.0813 3.3256 -1.6187 0.9847
0.8376 3.3952 -1.6187 0.9847
0.5895 3.4470 -1.6187 0.9847
0.4642 3.4661 -1.6187 0.9847
0.2120 3.4906 -1.6187 0.9847
0.0854 3.4960 -1.6187 0.9847
-0.1680 3.4930 -1.6187 0.9847
-0.4206 3.4717 -1.6187 0.9847
-0.5461 3.4541 -1.6187 0.9847
-0.9177 3.3745 -1.6187 0.9847
-1.2785 3.2550 -1.6187 0.9847
-1.3956 3.2065 -1.6187 0.9847
-1.6241 3.0970 -1.6187 0.9847
-1.8442 2.9713 -1.6187 0.9847
-2.0545 2.8299 -1.6187 0.9847
-2.1557 2.7536 -1.6187 0.9847
-2.6990 2.2236 -1.6187 0.9847
1.0204 3.1382 -1.6187 0.9854
0.9060 3.1732 -1.6187 0.9854
0.0806 3.2990 -1.6187 0.9854
-0.1586 3.2962 -1.6187 0.9854
-0.3969 3.2760 -1.6187 0.9854
-0.5153 3.2595 -1.6187 0.9854
-0.8660 3.1843 -1.6187 0.9854
-1.4257 2.9761 -1.6187 0.9854
-1.8407 2.7390 -1.6187 0.9854
-1.9387 2.6705 -1.6187 0.9854
-2.1271 2.5230 -1.6187 0.9854
-2.3883 2.2773 -1.6187 0.9854
0.6371 3.0545 -1.6187 0.9860
0.5260 3.0756 -1.6187 0.9860
0.4142 3.0926 -1.6187 0.9860
0.1892 3.1145 -1.6187 0.9860
0.0762 3.1193 -1.6187 0.9860
-0.0369 3.1200 -1.6187 0.9860
-0.1499 3.1167 -1.6187 0.9860
-0.2628 3.1092 -1.6187 0.9860
-0.8188 3.0109 -1.6187 0.9860
-1.0347 2.9437 -1.6187 0.9860
-1.1407 2.9043 -1.6187 0.9860
-1.2452 2.8610 -1.6187 0.9860
-1.3480 2.8140 -1.6187 0.9860
-1.4491 2.7633 -1.6187 0.9860
-1.5483 2.7090 -1.6187 0.9860
-1.7405 2.5898 -1.6187 0.9860
-2.0112 2.3856 -1.6187 0.9860
-2.0963 2.3112 -1.6187 0.9860
-2.1787 2.2337 -1.6187 0.9860
-2.3347 2.0700 -1.6187 0.9860
-2.4082 1.9841 -1.6187 0.9860
0.6035 2.8932 -1.6187 0.9866
0.4982 2.9132 -1.6187 0.9866
0.1792 2.9500 -1.6187 0.9866
0.0721 2.9546 -1.6187 0.9866
-0.2489 2.9450 -1.6187 0.9866
-0.4615 2.9192 -1.6187 0.9866
-0.5670 2.9006 -1.6187 0.9866
-0.8784 2.8219 -1.6187 0.9866
-0.9801 2.7882 -1.6187 0.9866
-1.0805 2.7509 -1.6187 0.9866
-1.2769 2.6654 -1.6187 0.9866
-1.3726 2.6174 -1.6187 0.9866
-1.4666 2.5659 -1.6187 0.9866
-1.8219 2.3272 -1.6187 0.9866
-1.9050 2.2596 -1.6187 0.9866
-1.9856 2.1891 -1.6187 0.9866
-2.0637 2.1157 -1.6187 0.9866
0.7698 2.6960 -1.6187 0.9871
0.3722 2.7789 -1.6187 0.9871
0.0685 2.8029 -1.6187 0.9871
-0.0332 2.8035 -1.6187 0.9871
-0.1347 2.8004 -1.6187 0.9871
-0.4378 2.7693 -1.6187 0.9871
-0.5379 2.7516 -1.6187 0.9871
-0.6372 2.7303 -1.6187 0.9871
-0.7358 2.7054 -1.6187 0.9871
-0.9297 2.6450 -1.6187 0.9871
-1.3913 2.4342 -1.6187 0.9871
-1.4786 2.3822 -1.6187 0.9871
-1.5639 2.3270 -1.6187 0.9871
-1.6472 2.2688 -1.6187 0.9871
-1.7283 2.2077 -1.6187 0.9871
-1.8837 2.0767 -1.6187 0.9871
-0.9190 0.8763 -0.7332 0.9942
-0.9295 0.8241 -0.7172 0.9943
