ply
format ascii 1.0
element vertex 429
property float32 x
property float32 y
property float32 z
property float32 I
end_header
-7.4411 38.7880 6.9641 0.8518
-8.2238 35.8608 6.4874 0.8612
-5.4361 45.9492 7.0882 0.8292
-6.1124 39.4685 6.1184 0.8508
-7.4410 38.7874 6.0504 0.8523
-8.3006 36.1959 5.6890 0.8605
-6.1096 39.4505 5.1985 0.8513
-7.4343 38.7527 5.1384 0.8529
-8.3289 36.3191 4.8523 0.8604
-4.0389 49.2233 5.3034 0.8198
-7.4410 38.7876 4.2410 0.8531
-5.4502 46.0683 3.9270 0.8301
-6.1297 39.5801 3.3905 0.8515
-7.4411 38.7881 3.3434 0.8534
-8.2239 35.8611 3.1145 0.8627
-5.4503 46.0693 2.8767 0.8303
-6.5223 42.1149 2.6427 0.8430
-5.4375 45.9614 1.8249 0.8309
-6.5223 42.1149 1.6804 0.8432
-7.4603 38.8880 1.5614 0.8534
17.6048 30.1674 0.5900 0.8696
-5.3412 34.4891 0.5895 0.8697
-6.7518 29.4422 0.5102 0.8862
17.6048 30.1674 -0.1967 0.8696
-3.8348 46.7362 -0.2640 0.8290
-6.0974 31.7838 -0.1822 0.8786
-6.7518 29.4422 -0.1701 0.8862
17.6048 30.1674 -0.9835 0.8696
20.9437 39.0430 -1.2476 0.8375
-2.1974 47.7577 -1.3462 0.8259
-5.4503 46.0692 -1.3063 0.8306
-5.3413 34.4890 -0.9827 0.8697
-6.7518 29.4422 -0.8505 0.8861
24.7429 20.1585 -1.6185 0.8800
24.0038 21.0334 -1.6186 0.8800
23.2337 21.8812 -1.6186 0.8800
20.7480 24.2515 -1.6186 0.8800
17.1709 23.2598 -1.4662 0.8907
15.4587 24.4316 -1.4662 0.8907
14.5721 24.9707 -1.4662 0.8907
13.6668 25.4775 -1.4662 0.8907
12.7439 25.9518 -1.4662 0.8907
11.8046 26.3924 -1.4663 0.8907
10.8500 26.7991 -1.4663 0.8907
8.9003 27.5086 -1.4663 0.8907
6.9046 28.0763 -1.4663 0.8907
5.8927 28.3061 -1.4663 0.8907
1.7825 28.8586 -1.4663 0.8907
-1.3290 28.8835 -1.4664 0.8906
-3.3970 28.7140 -1.4664 0.8906
-4.4252 28.5738 -1.4664 0.8906
-5.4476 28.3968 -1.4664 0.8906
-6.4629 28.1831 -1.4664 0.8906
17.1142 13.9433 -1.6186 0.9153
16.0703 15.1348 -1.6186 0.9153
11.8767 16.0883 -1.4662 0.9229
10.6924 16.8988 -1.4662 0.9229
9.4530 17.6221 -1.4663 0.9229
8.8146 17.9501 -1.4663 0.9229
8.1649 18.2549 -1.4663 0.9229
7.5046 18.5362 -1.4663 0.9229
4.7756 19.4194 -1.4663 0.9229
2.6612 19.8204 -1.4663 0.9229
1.2329 19.9603 -1.4663 0.9229
0.5159 19.9918 -1.4663 0.9229
-0.2018 19.9975 -1.4663 0.9229
-0.9192 19.9775 -1.4663 0.9229
-2.3496 19.8602 -1.4663 0.9229
-3.7679 19.6407 -1.4664 0.9229
12.6804 11.1113 -1.6186 0.9345
10.3385 11.2413 -1.4662 0.9405
9.5058 11.9539 -1.4663 0.9405
8.1662 12.9062 -1.4663 0.9405
7.6979 13.1910 -1.4663 0.9405
6.7321 13.7092 -1.4663 0.9405
5.7316 14.1568 -1.4663 0.9405
4.7016 14.5315 -1.4663 0.9405
4.1771 14.6908 -1.4663 0.9405
3.6473 14.8313 -1.4663 0.9405
1.4880 15.2007 -1.4663 0.9405
0.9416 15.2443 -1.4663 0.9405
0.3940 15.2683 -1.4663 0.9405
-0.7020 15.2574 -1.4663 0.9405
-1.2490 15.2224 -1.4663 0.9405
-2.8776 15.0002 -1.4663 0.9405
-3.4140 14.8873 -1.4664 0.9405
9.1902 9.9927 -1.6127 0.9468
8.0245 9.3795 -1.4663 0.9515
7.6828 9.6614 -1.4663 0.9515
7.3312 9.9309 -1.4663 0.9515
5.8351 10.8776 -1.4663 0.9515
5.4410 11.0801 -1.4663 0.9515
4.6324 11.4418 -1.4663 0.9515
4.2189 11.6007 -1.4663 0.9515
3.3760 11.8734 -1.4663 0.9515
2.9479 11.9869 -1.4663 0.9515
2.0806 12.1675 -1.4663 0.9515
1.6426 12.2344 -1.4663 0.9515
1.2026 12.2854 -1.4663 0.9515
0.7610 12.3207 -1.4663 0.9515
-0.1246 12.3436 -1.4663 0.9515
-0.5674 12.3313 -1.4663 0.9515
-1.0095 12.3030 -1.4663 0.9515
-1.4503 12.2588 -1.4663 0.9515
-1.8892 12.1989 -1.4663 0.9515
8.8567 7.2157 -1.6187 0.9549
8.5921 7.5289 -1.6187 0.9549
8.3164 7.8323 -1.6187 0.9549
8.0300 8.1257 -1.6187 0.9549
7.7333 8.4086 -1.6187 0.9549
7.3968 8.6459 -1.6122 0.9551
6.4635 8.1282 -1.4714 0.9589
4.8919 9.1194 -1.4663 0.9591
4.5615 9.2890 -1.4663 0.9591
2.7186 6.7148 -1.0264 0.9712
3.5369 9.7255 -1.4663 0.9591
3.1857 9.8462 -1.4663 0.9591
2.8303 9.9541 -1.4663 0.9591
2.4713 10.0493 -1.4663 0.9591
2.1092 10.1315 -1.4663 0.9591
1.3771 10.2567 -1.4663 0.9591
1.0082 10.2996 -1.4663 0.9591
0.6380 10.3291 -1.4663 0.9591
-1.5838 10.2270 -1.4663 0.9591
-1.9498 10.1636 -1.4663 0.9591
7.6175 6.2061 -1.6187 0.9610
7.3899 6.4755 -1.6187 0.9610
6.6513 7.2321 -1.6187 0.9610
6.3875 7.4661 -1.6187 0.9610
5.5823 7.5619 -1.5484 0.9626
4.7591 7.5215 -1.4663 0.9646
4.4862 7.6874 -1.4663 0.9646
4.2074 7.8434 -1.4663 0.9646
2.9146 6.5163 -1.1760 0.9715
2.7124 6.6994 -1.1907 0.9711
3.0420 8.3647 -1.4663 0.9646
2.7400 8.4685 -1.4663 0.9646
2.4343 8.5614 -1.4663 0.9646
1.8140 8.7140 -1.4663 0.9646
1.5002 8.7735 -1.4663 0.9646
0.8672 8.8585 -1.4663 0.9646
0.5487 8.8839 -1.4663 0.9646
0.2296 8.8979 -1.4663 0.9646
-0.0898 8.9004 -1.4663 0.9646
-0.4091 8.8915 -1.4663 0.9646
-0.7279 8.8711 -1.4663 0.9646
6.6764 5.4394 -1.6187 0.9656
6.4770 5.6755 -1.6187 0.9656
6.2692 5.9042 -1.6187 0.9656
5.5984 6.5438 -1.6187 0.9656
5.3600 6.7404 -1.6187 0.9656
5.1074 6.9185 -1.6164 0.9656
4.8421 7.0773 -1.6118 0.9657
4.3562 6.8847 -1.5313 0.9674
3.9319 6.7377 -1.4663 0.9687
3.6876 6.8744 -1.4663 0.9687
2.9060 6.4972 -1.3378 0.9714
2.7076 6.6876 -1.3561 0.9711
2.6662 7.3313 -1.4663 0.9687
2.1336 7.5037 -1.4663 0.9687
1.8629 7.5754 -1.4663 0.9687
1.5899 7.6374 -1.4663 0.9687
1.3149 7.6895 -1.4663 0.9687
1.0381 7.7318 -1.4663 0.9687
0.4809 7.7863 -1.4663 0.9687
-0.3586 7.7930 -1.4663 0.9687
-1.4698 7.6616 -1.4663 0.9687
5.7594 5.0467 -1.6187 0.9692
5.1837 5.6364 -1.6187 0.9692
4.5480 6.1608 -1.6187 0.9692
4.3241 6.3201 -1.6187 0.9692
4.0856 6.4570 -1.6152 0.9692
3.4475 6.4267 -1.5416 0.9706
2.8322 6.3323 -1.4663 0.9720
2.6032 6.4298 -1.4663 0.9720
1.4138 6.7912 -1.4663 0.9720
0.6758 6.9039 -1.4663 0.9720
0.1790 6.9346 -1.4663 0.9720
-0.0700 6.9365 -1.4663 0.9720
-0.3188 6.9296 -1.4663 0.9720
-0.5673 6.9137 -1.4663 0.9720
-0.8150 6.8889 -1.4663 0.9720
-1.3070 6.8127 -1.4663 0.9720
-1.5505 6.7614 -1.4663 0.9720
5.3395 4.3502 -1.6187 0.9721
4.8412 4.8988 -1.6187 0.9721
4.0905 5.5411 -1.6187 0.9721
3.4707 5.9474 -1.6184 0.9721
2.4153 5.9658 -1.5127 0.9739
1.7063 6.0011 -1.4663 0.9747
0.8302 6.1835 -1.4663 0.9747
0.3846 6.2272 -1.4663 0.9747
-1.1755 6.1274 -1.4663 0.9747
4.5511 4.2862 -1.6187 0.9745
4.3944 4.4467 -1.6187 0.9745
4.2320 4.6016 -1.6187 0.9745
2.9553 5.5092 -1.6187 0.9745
2.7554 5.6112 -1.6186 0.9745
1.5978 5.6193 -1.5126 0.9762
1.3603 5.5314 -1.4748 0.9767
0.7536 5.6129 -1.4663 0.9769
0.3491 5.6525 -1.4663 0.9769
-0.0571 5.6630 -1.4663 0.9769
-0.6653 5.6241 -1.4663 0.9769
4.4329 3.6116 -1.6187 0.9765
4.1625 3.9202 -1.6187 0.9765
3.8706 4.2086 -1.6187 0.9765
3.0573 4.8319 -1.6187 0.9765
2.7029 5.0387 -1.6187 0.9765
2.5204 5.1325 -1.6187 0.9765
2.3346 5.2196 -1.6187 0.9765
2.1458 5.3000 -1.6187 0.9765
1.9522 5.3681 -1.6170 0.9765
0.7084 5.2762 -1.5071 0.9781
-0.7927 5.1186 -1.4663 0.9787
-0.9758 5.0869 -1.4663 0.9787
-1.1578 5.0486 -1.4663 0.9787
4.0800 3.3240 -1.6187 0.9782
3.9581 3.4683 -1.6187 0.9782
3.5625 3.8736 -1.6187 0.9782
3.2755 4.1191 -1.6187 0.9782
2.8139 4.4472 -1.6187 0.9782
2.6525 4.5454 -1.6187 0.9782
2.3197 4.7239 -1.6187 0.9782
2.1487 4.8041 -1.6187 0.9782
1.9750 4.8781 -1.6187 0.9782
1.7987 4.9458 -1.6187 0.9782
1.6200 5.0072 -1.6187 0.9782
1.2553 5.1044 -1.6168 0.9782
0.1303 5.0476 -1.5530 0.9791
-0.0504 4.9897 -1.5348 0.9793
-0.4001 4.8764 -1.5049 0.9797
-0.5703 4.8207 -1.4931 0.9799
-0.7380 4.7655 -1.4832 0.9800
-0.9037 4.7106 -1.4753 0.9801
-1.0684 4.6588 -1.4702 0.9802
3.7753 3.0758 -1.6187 0.9797
3.6625 3.2093 -1.6187 0.9797
3.4229 3.4637 -1.6187 0.9797
3.2964 3.5843 -1.6187 0.9797
3.1657 3.7002 -1.6187 0.9797
2.8922 3.9178 -1.6187 0.9797
2.7497 4.0190 -1.6187 0.9797
2.4544 4.2059 -1.6187 0.9797
2.1465 4.3711 -1.6187 0.9797
1.9882 4.4453 -1.6187 0.9797
1.8275 4.5138 -1.6187 0.9797
1.4991 4.6332 -1.6187 0.9797
1.1629 4.7288 -1.6187 0.9797
0.6476 4.8230 -1.6176 0.9797
0.4737 4.8392 -1.6163 0.9797
0.1253 4.8539 -1.6140 0.9797
-0.2229 4.8451 -1.6122 0.9798
-0.3965 4.8318 -1.6115 0.9798
-0.5678 4.7994 -1.6065 0.9798
-0.7348 4.7446 -1.5959 0.9800
-1.0631 4.6357 -1.5809 0.9802
3.5092 2.8590 -1.6187 0.9810
3.2952 3.1033 -1.6187 0.9810
3.0641 3.3317 -1.6187 0.9810
2.9426 3.4395 -1.6187 0.9810
2.8173 3.5429 -1.6187 0.9810
2.5560 3.7358 -1.6187 0.9810
2.4203 3.8251 -1.6187 0.9810
1.6987 4.1957 -1.6187 0.9810
1.5470 4.2539 -1.6187 0.9810
1.3934 4.3067 -1.6187 0.9810
0.9225 4.4315 -1.6187 0.9810
0.7629 4.4617 -1.6187 0.9810
0.6024 4.4863 -1.6187 0.9810
0.4410 4.5050 -1.6187 0.9810
0.2791 4.5179 -1.6187 0.9810
-0.0456 4.5252 -1.6183 0.9810
-0.2079 4.5185 -1.6176 0.9810
-0.3697 4.5062 -1.6169 0.9810
-1.0095 4.4020 -1.6151 0.9810
3.2747 2.6680 -1.6187 0.9821
3.1769 2.7837 -1.6187 0.9821
3.0749 2.8959 -1.6187 0.9821
2.8593 3.1090 -1.6187 0.9821
2.7459 3.2096 -1.6187 0.9821
2.6290 3.3061 -1.6187 0.9821
2.5087 3.3983 -1.6187 0.9821
2.2585 3.5695 -1.6187 0.9821
1.9967 3.7222 -1.6187 0.9821
1.8619 3.7915 -1.6187 0.9821
1.5851 3.9153 -1.6187 0.9821
1.3003 4.0189 -1.6187 0.9821
1.1552 4.0629 -1.6187 0.9821
0.8609 4.1353 -1.6187 0.9821
0.7120 4.1636 -1.6187 0.9821
0.5621 4.1864 -1.6187 0.9821
-0.0426 4.2238 -1.6187 0.9821
-0.3454 4.2099 -1.6187 0.9821
-0.4963 4.1948 -1.6187 0.9821
-0.6465 4.1742 -1.6187 0.9821
-0.9442 4.1171 -1.6187 0.9821
3.0662 2.4981 -1.6187 0.9831
2.9746 2.6065 -1.6187 0.9831
2.7800 2.8131 -1.6187 0.9831
2.5711 3.0053 -1.6187 0.9831
2.4616 3.0956 -1.6187 0.9831
2.3490 3.1819 -1.6187 0.9831
2.2333 3.2642 -1.6187 0.9831
1.7433 3.5501 -1.6187 0.9831
1.6148 3.6104 -1.6187 0.9831
1.4842 3.6660 -1.6187 0.9831
1.3517 3.7169 -1.6187 0.9831
1.2175 3.7630 -1.6187 0.9831
0.8061 3.8721 -1.6187 0.9831
0.2438 3.9476 -1.6187 0.9831
0.1020 3.9538 -1.6187 0.9831
-0.0399 3.9549 -1.6187 0.9831
-0.1818 3.9509 -1.6187 0.9831
-0.3234 3.9418 -1.6187 0.9831
-0.6053 3.9085 -1.6187 0.9831
2.8795 2.3460 -1.6187 0.9839
2.3117 2.9071 -1.6187 0.9839
2.2059 2.9881 -1.6187 0.9839
2.0973 3.0654 -1.6187 0.9839
1.9859 3.1387 -1.6187 0.9839
1.7557 3.2730 -1.6187 0.9839
1.5165 3.3905 -1.6187 0.9839
1.3938 3.4427 -1.6187 0.9839
1.2694 3.4905 -1.6187 0.9839
0.8870 3.6067 -1.6187 0.9839
0.7570 3.6362 -1.6187 0.9839
0.6260 3.6611 -1.6187 0.9839
0.2290 3.7071 -1.6187 0.9839
0.0958 3.7130 -1.6187 0.9839
-0.0375 3.7140 -1.6187 0.9839
-0.1707 3.7103 -1.6187 0.9839
-0.3037 3.7018 -1.6187 0.9839
-0.6998 3.6477 -1.6187 0.9839
-0.8302 3.6202 -1.6187 0.9839
2.7111 2.2088 -1.6187 0.9847
2.6301 2.3046 -1.6187 0.9847
2.5457 2.3975 -1.6187 0.9847
2.4580 2.4874 -1.6187 0.9847
2.3672 2.5739 -1.6187 0.9847
2.2733 2.6572 -1.6187 0.9847
2.1765 2.7371 -1.6187 0.9847
2.0769 2.8134 -1.6187 0.9847
1.8698 2.9551 -1.6187 0.9847
1.6531 3.0816 -1.6187 0.9847
1.5414 3.1389 -1.6187 0.9847
1.4278 3.1923 -1.6187 0.9847
1.0765 3.3272 -1.6187 0.9847
0.8351 3.3958 -1.6187 0.9847
0.3407 3.4804 -1.6187 0.9847
0.0902 3.4959 -1.6187 0.9847
-0.0353 3.4968 -1.6187 0.9847
-0.6589 3.4344 -1.6187 0.9847
-0.7817 3.4086 -1.6187 0.9847
2.5583 2.0843 -1.6187 0.9854
2.4023 2.2624 -1.6187 0.9854
2.1453 2.5075 -1.6187 0.9854
1.7644 2.7886 -1.6187 0.9854
1.5599 2.9080 -1.6187 0.9854
1.4546 2.9621 -1.6187 0.9854
1.3474 3.0124 -1.6187 0.9854
1.2384 3.0588 -1.6187 0.9854
1.0158 3.1397 -1.6187 0.9854
0.9025 3.1742 -1.6187 0.9854
0.5562 3.2528 -1.6187 0.9854
0.3215 3.2843 -1.6187 0.9854
0.2034 3.2937 -1.6187 0.9854
0.0851 3.2989 -1.6187 0.9854
-0.0333 3.2998 -1.6187 0.9854
-0.2699 3.2889 -1.6187 0.9854
-0.3877 3.2771 -1.6187 0.9854
-0.5050 3.2611 -1.6187 0.9854
-0.7376 3.2165 -1.6187 0.9854
2.1932 2.2193 -1.6187 0.9860
2.1122 2.2966 -1.6187 0.9860
1.9420 2.4422 -1.6187 0.9860
1.8532 2.5103 -1.6187 0.9860
1.7619 2.5752 -1.6187 0.9860
1.6684 2.6367 -1.6187 0.9860
1.5727 2.6949 -1.6187 0.9860
1.4750 2.7496 -1.6187 0.9860
1.2740 2.8483 -1.6187 0.9860
1.0664 2.9323 -1.6187 0.9860
0.8534 3.0013 -1.6187 0.9860
0.7451 3.0299 -1.6187 0.9860
0.5259 3.0756 -1.6187 0.9860
0.4152 3.0925 -1.6187 0.9860
0.1924 3.1143 -1.6187 0.9860
0.0805 3.1192 -1.6187 0.9860
-0.0315 3.1201 -1.6187 0.9860
-0.2551 3.1098 -1.6187 0.9860
-0.3666 3.0986 -1.6187 0.9860
-0.4775 3.0835 -1.6187 0.9860
-0.5879 3.0644 -1.6187 0.9860
2.0774 2.1022 -1.6187 0.9866
2.0006 2.1753 -1.6187 0.9866
1.8395 2.3132 -1.6187 0.9866
1.7553 2.3777 -1.6187 0.9866
1.3027 2.6529 -1.6187 0.9866
1.1091 2.7395 -1.6187 0.9866
1.0101 2.7775 -1.6187 0.9866
0.7058 2.8699 -1.6187 0.9866
0.6024 2.8934 -1.6187 0.9866
0.2879 2.9414 -1.6187 0.9866
0.1822 2.9498 -1.6187 0.9866
-0.0298 2.9553 -1.6187 0.9866
-0.2417 2.9456 -1.6187 0.9866
-0.4523 2.9207 -1.6187 0.9866
-0.5568 2.9025 -1.6187 0.9866
-0.6606 2.8807 -1.6187 0.9866
2.1736 1.7709 -1.6187 0.9871
2.1087 1.8477 -1.6187 0.9871
1.9707 1.9942 -1.6187 0.9871
1.8979 2.0636 -1.6187 0.9871
1.5831 2.3139 -1.6187 0.9871
1.4131 2.4215 -1.6187 0.9871
1.3253 2.4707 -1.6187 0.9871
1.2358 2.5166 -1.6187 0.9871
1.1447 2.5593 -1.6187 0.9871
1.0522 2.5988 -1.6187 0.9871
0.9582 2.6349 -1.6187 0.9871
0.8631 2.6676 -1.6187 0.9871
0.7668 2.6968 -1.6187 0.9871
0.6695 2.7226 -1.6187 0.9871
0.3731 2.7788 -1.6187 0.9871
0.1729 2.7984 -1.6187 0.9871
-0.0283 2.8036 -1.6187 0.9871
-0.1289 2.8007 -1.6187 0.9871
-0.2293 2.7943 -1.6187 0.9871
