ply
format ascii 1.0
element vertex 404
property float32 x
property float32 y
property float32 z
property float32 I
end_header
-5.4133 46.1870 8.1998 0.8279
-7.4344 38.8125 6.9681 0.8517
-8.3258 31.0679 5.6714 0.8775
-9.8199 25.2650 4.7796 0.8957
-10.8181 25.0963 4.8188 0.8949
-8.2177 35.8154 5.6293 0.8618
-8.3258 31.0679 4.9274 0.8780
-9.2206 30.0067 4.8090 0.8807
-10.1245 29.1380 4.7256 0.8826
-9.8286 25.2873 4.1562 0.8960
-10.7488 24.9355 4.1598 0.8959
-3.9443 48.9648 6.3969 0.8202
-5.4159 46.2093 6.0586 0.8289
-6.0830 39.4574 5.1989 0.8513
-7.4223 38.7494 5.1377 0.8529
-8.3085 31.0034 4.1797 0.8786
-10.1469 29.2026 4.0258 0.8828
-9.8058 25.2288 3.5247 0.8966
-10.7113 24.8484 3.5236 0.8966
-3.9667 49.2421 5.3048 0.8198
-6.0778 39.4235 4.2834 0.8517
-8.2262 35.8520 3.9499 0.8624
-10.1470 29.2029 3.3198 0.8831
-11.0684 25.6769 3.0025 0.8936
-3.9526 49.0669 4.1671 0.8207
-5.4145 46.1975 3.9375 0.8297
-6.1029 39.5868 3.3907 0.8515
-7.4344 38.8126 3.3453 0.8533
-8.9274 33.3128 2.9195 0.8707
-9.5639 31.1239 2.7563 0.8775
-10.1822 29.3042 2.6262 0.8829
-8.8032 22.6491 2.0570 0.9071
-11.0684 25.6768 2.3670 0.8938
-6.5033 42.1836 2.6467 0.8428
-9.6972 31.5578 2.0472 0.8761
-10.1822 29.3042 1.9237 0.8831
-10.6163 27.3139 1.8172 0.8892
-11.0683 25.6766 1.7338 0.8940
-6.5033 42.1836 1.6830 0.8429
-7.4482 38.8846 1.5611 0.8534
-9.7136 31.6112 1.3040 0.8760
-10.1823 29.3042 1.2233 0.8832
-10.6163 27.3139 1.1555 0.8893
-11.0683 25.6766 1.1025 0.8941
17.3086 29.1015 0.5720 0.8733
-5.3256 34.5449 0.5904 0.8695
-8.7144 22.4206 0.4063 0.9083
-9.0882 21.0831 0.3878 0.9122
-5.4146 46.1985 -0.2619 0.8302
-5.3256 34.5449 -0.1968 0.8695
-7.8451 25.5306 -0.1504 0.8987
-8.3025 23.8943 -0.1424 0.9038
-8.7144 22.4206 -0.1354 0.9083
-9.0882 21.0831 -0.1293 0.9123
-3.6181 44.9144 -1.2688 0.8350
-6.7538 29.4352 -0.8504 0.8862
-7.3329 27.3631 -0.7977 0.8928
-7.8451 25.5306 -0.7521 0.8986
-8.3024 23.8943 -0.7123 0.9037
-8.7143 22.4206 -0.6773 0.9082
14.7792 24.8487 -1.4662 0.8907
11.9918 26.3078 -1.4662 0.8907
11.0295 26.7258 -1.4663 0.8907
7.0476 28.0408 -1.4663 0.8907
6.0256 28.2780 -1.4663 0.8907
4.9957 28.4783 -1.4663 0.8907
3.9592 28.6409 -1.4663 0.8907
0.8237 28.9020 -1.4663 0.8907
-1.2744 28.8859 -1.4664 0.8906
-8.3024 23.8943 -1.2828 0.9037
-8.7143 22.4206 -1.2199 0.9082
-9.0882 21.0831 -1.1643 0.9121
11.4417 16.4005 -1.4662 0.9229
10.2224 17.1872 -1.4663 0.9229
8.9491 17.8834 -1.4663 0.9229
6.9531 18.7501 -1.4663 0.9229
4.8746 19.3948 -1.4663 0.9229
4.1677 19.5590 -1.4663 0.9229
2.0178 19.8962 -1.4663 0.9229
1.2946 19.9564 -1.4663 0.9229
0.5697 19.9903 -1.4663 0.9229
-0.1560 19.9979 -1.4663 0.9229
-2.3279 19.8628 -1.4663 0.9229
-3.7623 19.6418 -1.4664 0.9229
-7.2452 18.6407 -1.4664 0.9229
8.7385 12.5258 -1.4663 0.9405
8.2783 12.8346 -1.4663 0.9405
7.8072 13.1266 -1.4663 0.9405
6.8348 13.6582 -1.4663 0.9405
6.3348 13.8973 -1.4663 0.9405
5.8264 14.1180 -1.4663 0.9405
2.0914 15.1294 -1.4663 0.9405
0.4351 15.2672 -1.4663 0.9405
-0.1191 15.2730 -1.4663 0.9405
-0.6732 15.2587 -1.4663 0.9405
-1.7780 15.1698 -1.4663 0.9405
-2.3272 15.0953 -1.4663 0.9405
-3.4158 14.8869 -1.4664 0.9405
-5.0132 14.4277 -1.4664 0.9405
-5.5333 14.2363 -1.4664 0.9405
7.0627 10.1236 -1.4663 0.9515
6.6908 10.3732 -1.4663 0.9515
6.3100 10.6092 -1.4663 0.9515
5.9209 10.8312 -1.4663 0.9515
2.9900 6.5595 -0.8563 0.9714
3.8692 11.7220 -1.4663 0.9515
3.4413 11.8546 -1.4663 0.9515
3.0089 11.9717 -1.4663 0.9515
2.1329 12.1585 -1.4663 0.9515
1.6903 12.2279 -1.4663 0.9515
0.7991 12.3183 -1.4663 0.9515
0.3517 12.3392 -1.4663 0.9515
-0.5441 12.3323 -1.4663 0.9515
-0.9912 12.3045 -1.4663 0.9515
-1.4370 12.2604 -1.4663 0.9515
-1.8808 12.2002 -1.4663 0.9515
-2.3223 12.1240 -1.4663 0.9515
-3.1954 11.9237 -1.4663 0.9515
-3.6259 11.8000 -1.4664 0.9515
-4.0517 11.6606 -1.4664 0.9515
-4.4721 11.5060 -1.4664 0.9515
-4.8866 11.3362 -1.4664 0.9515
4.9638 9.0804 -1.4663 0.9591
4.6311 9.2545 -1.4663 0.9591
3.5981 9.7030 -1.4663 0.9591
1.0442 10.2960 -1.4663 0.9591
-0.8309 10.3155 -1.4663 0.9591
-1.2047 10.2786 -1.4663 0.9591
-1.5768 10.2281 -1.4663 0.9591
-1.9469 10.1642 -1.4663 0.9591
-2.6789 9.9963 -1.4663 0.9591
-3.0398 9.8925 -1.4663 0.9591
-4.0967 9.5037 -1.4664 0.9591
4.2693 7.8099 -1.4663 0.9646
3.9832 7.9597 -1.4663 0.9646
2.9774 6.5319 -1.1826 0.9713
2.7393 6.6376 -1.1829 0.9713
3.0947 8.3454 -1.4663 0.9646
2.4814 8.5479 -1.4663 0.9646
1.8550 8.7053 -1.4663 0.9646
1.5379 8.7669 -1.4663 0.9646
0.5762 8.8822 -1.4663 0.9646
-0.3923 8.8922 -1.4663 0.9646
-0.7147 8.8722 -1.4663 0.9646
-1.0361 8.8404 -1.4663 0.9646
-1.6745 8.7420 -1.4663 0.9646
-2.3040 8.5976 -1.4663 0.9646
-2.6145 8.5083 -1.4663 0.9646
-2.9215 8.4079 -1.4663 0.9646
-3.2246 8.2964 -1.4663 0.9646
4.9100 7.0379 -1.6130 0.9657
3.9941 6.7154 -1.4686 0.9687
3.7419 6.8451 -1.4663 0.9687
3.4911 6.9763 -1.4663 0.9687
2.9687 6.5127 -1.3453 0.9713
1.9016 7.5658 -1.4663 0.9687
1.6258 7.6298 -1.4663 0.9687
1.3479 7.6838 -1.4663 0.9687
1.0682 7.7277 -1.4663 0.9687
0.7872 7.7613 -1.4663 0.9687
0.5050 7.7848 -1.4663 0.9687
-0.0608 7.8010 -1.4663 0.9687
-0.6264 7.7761 -1.4663 0.9687
-0.9081 7.7482 -1.4663 0.9687
-1.4676 7.6620 -1.4663 0.9687
-2.0194 7.5354 -1.4663 0.9687
-2.2914 7.4572 -1.4663 0.9687
-2.5605 7.3691 -1.4663 0.9687
-3.0882 7.1641 -1.4663 0.9687
2.8772 6.3120 -1.4663 0.9720
2.6463 6.4122 -1.4663 0.9720
2.4119 6.5040 -1.4663 0.9720
2.1743 6.5872 -1.4663 0.9720
1.9339 6.6618 -1.4663 0.9720
1.1986 6.8325 -1.4663 0.9720
0.9499 6.8715 -1.4663 0.9720
0.4491 6.9223 -1.4663 0.9720
-0.3057 6.9302 -1.4663 0.9720
-0.8075 6.8898 -1.4663 0.9720
-2.2768 6.5527 -1.4663 0.9720
-2.5131 6.4658 -1.4663 0.9720
-2.7460 6.3703 -1.4663 0.9720
3.9407 5.6486 -1.6187 0.9721
3.7332 5.7879 -1.6187 0.9721
3.5207 5.9195 -1.6187 0.9721
3.2978 6.0327 -1.6158 0.9721
2.7848 6.1092 -1.5779 0.9728
2.4710 5.9874 -1.5223 0.9737
2.1785 5.8747 -1.4726 0.9746
1.5208 6.0508 -1.4663 0.9747
1.3002 6.1020 -1.4663 0.9747
1.0780 6.1452 -1.4663 0.9747
0.6295 6.2072 -1.4663 0.9747
-0.2750 6.2330 -1.4663 0.9747
-0.5010 6.2189 -1.4663 0.9747
-0.7263 6.1967 -1.4663 0.9747
-0.9506 6.1662 -1.4663 0.9747
-1.1737 6.1277 -1.4663 0.9747
-1.6150 6.0265 -1.4663 0.9747
-2.4698 5.7295 -1.4663 0.9747
3.3887 5.2537 -1.6187 0.9745
3.1958 5.3732 -1.6187 0.9745
2.9988 5.4856 -1.6187 0.9745
0.7755 5.6099 -1.4663 0.9769
0.5714 5.6343 -1.4663 0.9769
0.3666 5.6514 -1.4663 0.9769
0.1613 5.6610 -1.4663 0.9769
-0.2496 5.6578 -1.4663 0.9769
-0.6592 5.6248 -1.4663 0.9769
-1.6635 5.4135 -1.4663 0.9769
3.2716 4.6895 -1.6187 0.9765
2.9229 4.9144 -1.6187 0.9765
2.5588 5.1134 -1.6187 0.9765
2.3716 5.2029 -1.6187 0.9765
2.1813 5.2855 -1.6187 0.9765
1.1581 5.4348 -1.5731 0.9772
0.9399 5.3581 -1.5400 0.9776
0.5286 5.2124 -1.4832 0.9785
0.3353 5.1688 -1.4663 0.9787
-0.4159 5.1629 -1.4663 0.9787
-0.7892 5.1192 -1.4663 0.9787
-1.1583 5.0485 -1.4663 0.9787
-1.3408 5.0031 -1.4663 0.9787
-1.8765 4.8278 -1.4663 0.9787
3.0111 4.3162 -1.6187 0.9782
2.6902 4.5232 -1.6187 0.9782
2.3551 4.7063 -1.6187 0.9782
2.1828 4.7887 -1.6187 0.9782
1.8298 4.9344 -1.6187 0.9782
1.2815 5.0988 -1.6170 0.9782
1.0945 5.1364 -1.6153 0.9783
0.9065 5.1675 -1.6137 0.9783
0.7177 5.1921 -1.6122 0.9783
0.3321 5.1186 -1.5777 0.9788
-0.0389 4.9933 -1.5359 0.9793
-0.3930 4.8787 -1.5054 0.9797
-0.5652 4.8224 -1.4934 0.9799
-0.7348 4.7666 -1.4834 0.9800
-0.9024 4.7111 -1.4754 0.9801
-1.0689 4.6587 -1.4701 0.9802
-1.4005 4.5577 -1.4665 0.9802
-1.5660 4.5069 -1.4675 0.9802
-1.7314 4.4546 -1.4700 0.9802
-1.8970 4.4007 -1.4740 0.9801
2.7862 3.9938 -1.6187 0.9797
2.6395 4.0923 -1.6187 0.9797
2.4893 4.1853 -1.6187 0.9797
2.3358 4.2729 -1.6187 0.9797
1.6931 4.5658 -1.6187 0.9797
1.5264 4.6243 -1.6187 0.9797
0.8414 4.7964 -1.6187 0.9797
0.6664 4.8209 -1.6177 0.9797
0.4906 4.8379 -1.6164 0.9797
0.3146 4.8488 -1.6152 0.9797
0.1383 4.8538 -1.6141 0.9797
-0.0378 4.8527 -1.6131 0.9798
-0.2138 4.8456 -1.6123 0.9798
-0.3893 4.8324 -1.6115 0.9798
-0.5627 4.8011 -1.6068 0.9798
-0.7316 4.7456 -1.5961 0.9800
-1.2279 4.5820 -1.5768 0.9802
-1.3928 4.5325 -1.5762 0.9802
-1.5576 4.4827 -1.5775 0.9802
-1.8887 4.3816 -1.5860 0.9801
2.5899 3.7123 -1.6187 0.9810
2.3139 3.8904 -1.6187 0.9810
2.1712 3.9718 -1.6187 0.9810
1.7268 4.1842 -1.6187 0.9810
1.4188 4.2984 -1.6187 0.9810
1.2619 4.3471 -1.6187 0.9810
0.7821 4.4584 -1.6187 0.9810
0.4567 4.5034 -1.6187 0.9810
0.1290 4.5247 -1.6187 0.9810
-0.0353 4.5255 -1.6184 0.9810
-0.3630 4.5069 -1.6169 0.9810
-0.6884 4.4656 -1.6158 0.9810
-0.8498 4.4365 -1.6154 0.9810
-1.1689 4.3618 -1.6149 0.9810
2.4168 3.4642 -1.6187 0.9821
2.2895 3.5496 -1.6187 0.9821
1.0296 4.0966 -1.6187 0.9821
0.7298 4.1605 -1.6187 0.9821
0.4262 4.2024 -1.6187 0.9821
0.2735 4.2151 -1.6187 0.9821
0.1203 4.2223 -1.6187 0.9821
-0.0330 4.2239 -1.6187 0.9821
-0.1862 4.2199 -1.6187 0.9821
-0.3392 4.2104 -1.6187 0.9821
-0.9447 4.1171 -1.6187 0.9821
-1.0934 4.0801 -1.6187 0.9821
-1.5303 3.9371 -1.6187 0.9821
2.2629 3.2437 -1.6187 0.9831
2.1438 3.3237 -1.6187 0.9831
1.6404 3.5988 -1.6187 0.9831
1.3751 3.7083 -1.6187 0.9831
1.2397 3.7558 -1.6187 0.9831
1.1026 3.7983 -1.6187 0.9831
0.6834 3.8956 -1.6187 0.9831
0.3991 3.9349 -1.6187 0.9831
0.2560 3.9468 -1.6187 0.9831
-0.0308 3.9550 -1.6187 0.9831
-0.3176 3.9423 -1.6187 0.9831
-0.4604 3.9282 -1.6187 0.9831
-0.7441 3.8845 -1.6187 0.9831
-1.0238 3.8203 -1.6187 0.9831
-1.2981 3.7360 -1.6187 0.9831
-1.5657 3.6320 -1.6187 0.9831
1.8986 3.1922 -1.6187 0.9839
1.6621 3.3215 -1.6187 0.9839
1.5405 3.3796 -1.6187 0.9839
1.2914 3.4825 -1.6187 0.9839
0.9054 3.6022 -1.6187 0.9839
0.3748 3.6953 -1.6187 0.9839
0.1058 3.7127 -1.6187 0.9839
-0.0290 3.7141 -1.6187 0.9839
-0.1637 3.7106 -1.6187 0.9839
-0.2982 3.7022 -1.6187 0.9839
-0.4324 3.6890 -1.6187 0.9839
-0.8306 3.6202 -1.6187 0.9839
-0.9614 3.5876 -1.6187 0.9839
-1.2191 3.5085 -1.6187 0.9839
-1.3456 3.4619 -1.6187 0.9839
-1.4703 3.4108 -1.6187 0.9839
2.0009 2.8680 -1.6187 0.9847
1.6774 3.0684 -1.6187 0.9847
1.5650 3.1273 -1.6187 0.9847
1.4505 3.1820 -1.6187 0.9847
1.2159 3.2788 -1.6187 0.9847
1.0961 3.3208 -1.6187 0.9847
0.6042 3.4444 -1.6187 0.9847
0.4789 3.4641 -1.6187 0.9847
0.2264 3.4897 -1.6187 0.9847
-0.6579 3.4346 -1.6187 0.9847
-1.0272 3.3428 -1.6187 0.9847
-1.1478 3.3033 -1.6187 0.9847
-1.2669 3.2595 -1.6187 0.9847
-1.3843 3.2114 -1.6187 0.9847
1.8881 2.7064 -1.6187 0.9854
1.7887 2.7731 -1.6187 0.9854
1.5829 2.8955 -1.6187 0.9854
1.4768 2.9511 -1.6187 0.9854
1.1474 3.0941 -1.6187 0.9854
1.0344 3.1337 -1.6187 0.9854
0.9200 3.1691 -1.6187 0.9854
0.3330 3.2831 -1.6187 0.9854
0.2136 3.2931 -1.6187 0.9854
0.0940 3.2986 -1.6187 0.9854
-0.2650 3.2893 -1.6187 0.9854
-0.5028 3.2615 -1.6187 0.9854
-0.6208 3.2411 -1.6187 0.9854
-0.7380 3.2164 -1.6187 0.9854
-0.8542 3.1875 -1.6187 0.9854
-1.0831 3.1172 -1.6187 0.9854
1.3963 2.7903 -1.6187 0.9860
1.2942 2.8392 -1.6187 0.9860
1.1903 2.8843 -1.6187 0.9860
1.0849 2.9256 -1.6187 0.9860
0.7606 3.0261 -1.6187 0.9860
0.6503 3.0517 -1.6187 0.9860
0.5391 3.0733 -1.6187 0.9860
0.4273 3.0909 -1.6187 0.9860
0.3148 3.1043 -1.6187 0.9860
0.2020 3.1137 -1.6187 0.9860
0.0889 3.1190 -1.6187 0.9860
-0.1375 3.1172 -1.6187 0.9860
-0.2505 3.1102 -1.6187 0.9860
-0.4754 3.0838 -1.6187 0.9860
-0.5870 3.0645 -1.6187 0.9860
-0.6978 3.0412 -1.6187 0.9860
-0.8077 3.0139 -1.6187 0.9860
-0.9165 2.9826 -1.6187 0.9860
1.5108 2.5401 -1.6187 0.9866
1.4176 2.5933 -1.6187 0.9866
1.0276 2.7711 -1.6187 0.9866
0.9264 2.8065 -1.6187 0.9866
0.6159 2.8906 -1.6187 0.9866
0.4047 2.9276 -1.6187 0.9866
-0.0230 2.9554 -1.6187 0.9866
-0.1303 2.9526 -1.6187 0.9866
-0.4503 2.9210 -1.6187 0.9866
-0.5560 2.9027 -1.6187 0.9866
-0.6609 2.8806 -1.6187 0.9866
-0.7650 2.8547 -1.6187 0.9866
-0.8681 2.8251 -1.6187 0.9866
-0.9700 2.7917 -1.6187 0.9866
-1.0707 2.7547 -1.6187 0.9866
-1.1699 2.7141 -1.6187 0.9866
1.3448 2.4601 -1.6187 0.9871
1.2547 2.5073 -1.6187 0.9871
1.1629 2.5512 -1.6187 0.9871
1.0696 2.5916 -1.6187 0.9871
0.8788 2.6624 -1.6187 0.9871
0.7816 2.6925 -1.6187 0.9871
0.6834 2.7191 -1.6187 0.9871
0.4844 2.7615 -1.6187 0.9871
0.2829 2.7894 -1.6187 0.9871
0.0799 2.8026 -1.6187 0.9871
-0.1236 2.8010 -1.6187 0.9871
-0.2251 2.7946 -1.6187 0.9871
-0.3264 2.7847 -1.6187 0.9871
-0.5275 2.7536 -1.6187 0.9871
-0.8235 2.6800 -1.6187 0.9871
-0.9202 2.6484 -1.6187 0.9871
-1.1098 2.5747 -1.6187 0.9871
