ply
format ascii 1.0
element vertex 488
property float32 x
property float32 y
property float32 z
property float32 I
end_header
2.9267 6.6247 1.2770 0.9710
-6.7865 40.6796 7.2720 0.8458
2.9262 6.6236 1.1093 0.9711
-7.7197 37.7641 5.9049 0.8556
-8.4765 34.9448 5.5086 0.8646
-9.6012 29.9078 4.8120 0.8806
-9.5061 26.2895 4.2826 0.8930
22.4609 38.7781 5.8356 0.8346
2.9257 6.6225 0.9428 0.9712
-5.8072 44.7755 5.8795 0.8335
-6.6018 39.5718 5.2243 0.8506
-9.5482 29.7427 4.0678 0.8816
-9.5320 26.3612 3.6503 0.8931
2.9253 6.6215 0.7773 0.9713
-5.8072 44.7755 4.8483 0.8339
-8.4765 34.9448 3.8612 0.8653
2.9248 6.6204 0.6127 0.9714
-5.8072 44.7755 3.8221 0.8342
-6.5843 39.4670 3.3872 0.8516
-7.7214 37.7729 3.2637 0.8566
-8.4766 34.9455 3.0440 0.8656
-9.1721 32.5951 2.8664 0.8729
-9.7898 30.4952 2.7113 0.8794
-4.5980 49.4896 3.0821 0.8194
-5.8073 44.7763 2.7998 0.8345
-6.8803 41.2416 2.5927 0.8457
-6.3874 31.2472 1.9777 0.8800
-8.4766 34.9455 2.2298 0.8658
-9.1721 32.5951 2.0997 0.8731
-9.7898 30.4952 1.9861 0.8795
2.9239 6.6183 0.2853 0.9715
-4.5980 49.4892 1.9598 0.8196
-5.8073 44.7762 1.7804 0.8346
-6.9102 41.4204 1.6558 0.8453
-6.3874 31.2472 1.2576 0.8801
-8.4766 34.9455 1.4179 0.8659
-9.1721 32.5951 1.3352 0.8732
18.1526 28.8685 0.5760 0.8725
17.7337 30.6167 0.5977 0.8680
2.9234 6.6172 0.1222 0.9715
-5.7878 44.6262 0.7601 0.8352
-6.9605 28.6954 0.4988 0.8886
-7.5158 26.7089 0.4687 0.8949
-7.9610 24.7984 0.4399 0.9011
-8.4496 23.3677 0.4197 0.9054
18.1526 28.8685 -0.1920 0.8725
2.9230 6.6162 -0.0407 0.9715
-5.8073 44.7762 -0.2542 0.8348
-6.9605 28.6955 -0.1662 0.8886
-7.5158 26.7089 -0.1562 0.8950
2.9225 6.6152 -0.2036 0.9715
-4.2948 46.2257 -1.3072 0.8305
-6.3283 30.9577 -0.8897 0.8812
-7.5158 26.7089 -0.7813 0.8949
-7.9609 24.7984 -0.7334 0.9010
-8.4496 23.3677 -0.6997 0.9054
24.0191 21.0160 -1.6186 0.8800
23.2399 21.8746 -1.6186 0.8800
20.7227 24.2731 -1.6186 0.8800
16.2687 23.8997 -1.4662 0.8907
15.3900 24.4750 -1.4662 0.8907
13.5726 25.5280 -1.4662 0.8907
12.6364 26.0043 -1.4662 0.8907
2.9220 6.6141 -0.3667 0.9715
10.7153 26.8533 -1.4663 0.8907
7.7307 27.8600 -1.4663 0.8907
6.7137 28.1226 -1.4663 0.8907
5.6877 28.3480 -1.4663 0.8907
2.5703 28.7990 -1.4663 0.8907
1.5226 28.8735 -1.4663 0.8907
0.4728 28.9099 -1.4663 0.8906
-6.8161 28.0999 -1.4664 0.8906
-7.5158 26.7089 -1.4071 0.8948
17.1306 13.9233 -1.6186 0.9153
16.6136 14.5363 -1.6186 0.9153
16.0746 15.1303 -1.6186 0.9153
12.9840 15.2085 -1.4662 0.9229
11.2527 16.5308 -1.4662 0.9229
9.3878 17.6570 -1.4663 0.9229
2.9216 6.6131 -0.5301 0.9714
6.7319 18.8306 -1.4663 0.9229
5.3471 19.2698 -1.4663 0.9229
4.6436 19.4514 -1.4663 0.9229
3.2192 19.7373 -1.4663 0.9229
1.7778 19.9191 -1.4663 0.9229
1.0531 19.9706 -1.4663 0.9229
0.3269 19.9958 -1.4663 0.9229
-0.3996 19.9945 -1.4663 0.9229
-1.1255 19.9669 -1.4663 0.9229
-3.2909 19.7262 -1.4664 0.9229
-4.0053 19.5937 -1.4664 0.9229
-4.7144 19.4354 -1.4664 0.9229
-6.8007 18.8074 -1.4664 0.9229
13.0834 10.6338 -1.6186 0.9345
12.2769 11.5557 -1.6186 0.9345
11.8491 11.9940 -1.6186 0.9345
9.0470 12.3047 -1.4663 0.9405
8.5942 12.6253 -1.4663 0.9405
8.1299 12.9292 -1.4663 0.9405
7.6549 13.2160 -1.4663 0.9405
7.1698 13.4853 -1.4663 0.9405
6.6753 13.7369 -1.4663 0.9405
5.6604 14.1854 -1.4663 0.9405
5.1414 14.3816 -1.4663 0.9405
3.5465 14.8557 -1.4663 0.9405
2.4586 15.0741 -1.4663 0.9405
1.9095 15.1535 -1.4663 0.9405
1.3578 15.2129 -1.4663 0.9405
0.2497 15.2714 -1.4663 0.9405
-0.8596 15.2493 -1.4663 0.9405
-1.4130 15.2081 -1.4663 0.9405
-1.9645 15.1467 -1.4663 0.9405
-2.5133 15.0654 -1.4663 0.9405
-3.0589 14.9642 -1.4663 0.9405
-3.6005 14.8433 -1.4664 0.9405
-4.1373 14.7027 -1.4664 0.9405
-4.6686 14.5428 -1.4664 0.9405
-5.1938 14.3637 -1.4664 0.9405
10.8795 8.2047 -1.6186 0.9466
9.9225 9.3396 -1.6186 0.9466
9.1835 9.9974 -1.6125 0.9468
6.5708 10.4496 -1.4663 0.9515
6.1869 10.6814 -1.4663 0.9515
5.7948 10.8992 -1.4663 0.9515
5.3951 11.1025 -1.4663 0.9515
2.8912 6.5442 -0.8498 0.9716
4.1554 11.6236 -1.4663 0.9515
3.7304 11.7668 -1.4663 0.9515
3.3006 11.8946 -1.4663 0.9515
2.8663 12.0067 -1.4663 0.9515
2.4283 12.1029 -1.4663 0.9515
0.6500 12.3271 -1.4663 0.9515
0.2018 12.3426 -1.4663 0.9515
-0.2466 12.3418 -1.4663 0.9515
-0.6948 12.3247 -1.4663 0.9515
-2.4722 12.0943 -1.4663 0.9515
-2.9100 11.9965 -1.4663 0.9515
-3.7733 11.7537 -1.4664 0.9515
-4.1977 11.6089 -1.4664 0.9515
8.5976 7.5226 -1.6187 0.9549
8.0287 8.1269 -1.6187 0.9549
7.7283 8.4133 -1.6187 0.9549
7.3870 8.6526 -1.6120 0.9551
6.1301 8.3375 -1.4663 0.9591
5.5087 8.7606 -1.4663 0.9591
5.1868 8.9549 -1.4663 0.9591
4.8581 9.1374 -1.4663 0.9591
4.5230 9.3079 -1.4663 0.9591
2.7671 9.9719 -1.4663 0.9591
0.9200 10.3078 -1.4663 0.9591
0.1692 10.3475 -1.4663 0.9591
-0.5825 10.3325 -1.4663 0.9591
-2.4396 10.0573 -1.4663 0.9591
-2.8033 9.9621 -1.4663 0.9591
-3.1633 9.8537 -1.4663 0.9591
7.8448 5.9162 -1.6187 0.9610
7.3947 6.4701 -1.6187 0.9610
6.6470 7.2361 -1.6187 0.9610
6.0854 7.6760 -1.6137 0.9611
5.5448 7.5414 -1.5420 0.9628
5.0085 7.3577 -1.4663 0.9646
4.1784 7.8589 -1.4663 0.9646
2.6899 8.4846 -1.4663 0.9646
2.0668 8.6575 -1.4663 0.9646
1.1128 8.8310 -1.4663 0.9646
0.7913 8.8656 -1.4663 0.9646
-0.1778 8.8991 -1.4663 0.9646
-0.5009 8.8868 -1.4663 0.9646
-1.7826 8.7206 -1.4663 0.9646
-2.4110 8.5682 -1.4663 0.9646
-3.0268 8.3706 -1.4663 0.9646
6.6828 5.4316 -1.6187 0.9656
6.4811 5.6708 -1.6187 0.9656
6.2708 5.9024 -1.6187 0.9656
6.0523 6.1263 -1.6187 0.9656
5.8258 6.3421 -1.6187 0.9656
4.8245 7.0875 -1.6115 0.9657
4.3174 6.8661 -1.5245 0.9675
3.9100 6.7504 -1.4663 0.9687
3.4096 7.0165 -1.4663 0.9687
2.6261 7.3458 -1.4663 0.9687
2.3575 7.4363 -1.4663 0.9687
1.8114 7.5879 -1.4663 0.9687
1.5347 7.6487 -1.4663 0.9687
1.2558 7.6994 -1.4663 0.9687
0.6935 7.7703 -1.4663 0.9687
0.1275 7.8002 -1.4663 0.9687
-0.1559 7.7997 -1.4663 0.9687
-1.0034 7.7364 -1.4663 0.9687
-2.1132 7.5096 -1.4663 0.9687
-2.6528 7.3364 -1.4663 0.9687
5.5761 5.2485 -1.6187 0.9692
5.1803 5.6395 -1.6187 0.9692
4.5362 6.1696 -1.6187 0.9692
4.3091 6.3303 -1.6187 0.9692
3.8167 6.5894 -1.6096 0.9693
3.4079 6.4096 -1.5345 0.9708
3.0389 6.2537 -1.4697 0.9720
2.8032 6.3452 -1.4663 0.9720
2.3352 6.5320 -1.4663 0.9720
1.3646 6.8013 -1.4663 0.9720
0.6167 6.9094 -1.4663 0.9720
0.1134 6.9359 -1.4663 0.9720
-0.1386 6.9355 -1.4663 0.9720
-0.3904 6.9259 -1.4663 0.9720
-0.6417 6.9072 -1.4663 0.9720
-1.1415 6.8424 -1.4663 0.9720
-1.3893 6.7964 -1.4663 0.9720
-1.8790 6.6776 -1.4663 0.9720
-2.1204 6.6050 -1.4663 0.9720
5.4989 4.1470 -1.6187 0.9721
5.3446 4.3440 -1.6187 0.9721
5.0152 4.7205 -1.6187 0.9721
4.4719 5.2381 -1.6187 0.9721
3.6662 5.8305 -1.6187 0.9721
3.4507 5.9576 -1.6181 0.9721
2.6812 6.0691 -1.5594 0.9731
2.1002 5.8748 -1.4663 0.9747
1.0043 6.1576 -1.4663 0.9747
0.5546 6.2143 -1.4663 0.9747
0.3285 6.2304 -1.4663 0.9747
0.1020 6.2382 -1.4663 0.9747
-0.1246 6.2378 -1.4663 0.9747
-0.3511 6.2292 -1.4663 0.9747
-1.4707 6.0633 -1.4663 0.9747
-1.6900 6.0058 -1.4663 0.9747
-2.1216 5.8673 -1.4663 0.9747
4.9914 3.7643 -1.6187 0.9745
4.5523 4.2849 -1.6187 0.9745
4.3937 4.4474 -1.6187 0.9745
4.0592 4.7547 -1.6187 0.9745
3.3279 5.2924 -1.6187 0.9745
3.1335 5.4098 -1.6187 0.9745
2.7317 5.6214 -1.6182 0.9745
2.5214 5.7073 -1.6155 0.9745
2.0752 5.8049 -1.5961 0.9748
1.5546 5.6025 -1.5054 0.9763
1.3178 5.5202 -1.4694 0.9768
0.9117 5.5894 -1.4663 0.9769
0.5035 5.6408 -1.4663 0.9769
0.2982 5.6554 -1.4663 0.9769
-0.5239 5.6390 -1.4663 0.9769
-0.7284 5.6162 -1.4663 0.9769
-0.9319 5.5861 -1.4663 0.9769
-1.3350 5.5037 -1.4663 0.9769
-1.7311 5.3923 -1.4663 0.9769
4.4371 3.6064 -1.6187 0.9765
4.0185 4.0677 -1.6187 0.9765
3.8681 4.2109 -1.6187 0.9765
3.5522 4.4806 -1.6187 0.9765
3.3871 4.6067 -1.6187 0.9765
3.2175 4.7267 -1.6187 0.9765
3.0437 4.8405 -1.6187 0.9765
2.8659 4.9478 -1.6187 0.9765
2.6843 5.0487 -1.6187 0.9765
2.4991 5.1429 -1.6187 0.9765
2.3107 5.2303 -1.6187 0.9765
2.1192 5.3107 -1.6187 0.9765
1.9225 5.3775 -1.6167 0.9765
1.7235 5.4363 -1.6145 0.9766
1.5229 5.4880 -1.6123 0.9766
1.0853 5.4092 -1.5618 0.9773
0.8699 5.3334 -1.5298 0.9778
0.4631 5.1890 -1.4748 0.9786
-0.1035 5.1786 -1.4663 0.9787
-0.2915 5.1714 -1.4663 0.9787
-0.4792 5.1574 -1.4663 0.9787
-0.6662 5.1366 -1.4663 0.9787
-1.0373 5.0747 -1.4663 0.9787
-1.2210 5.0337 -1.4663 0.9787
-1.4030 4.9860 -1.4663 0.9787
-1.5832 4.9318 -1.4663 0.9787
-1.7613 4.8710 -1.4663 0.9787
4.0839 3.3193 -1.6187 0.9782
3.6986 3.7438 -1.6187 0.9782
3.1174 4.2400 -1.6187 0.9782
2.8014 4.4551 -1.6187 0.9782
2.6377 4.5540 -1.6187 0.9782
2.1267 4.8139 -1.6187 0.9782
1.7716 4.9556 -1.6187 0.9782
1.4068 5.0697 -1.6183 0.9782
1.2204 5.1118 -1.6165 0.9782
1.0328 5.1474 -1.6148 0.9783
0.6551 5.1988 -1.6117 0.9783
0.2687 5.0960 -1.5696 0.9789
-0.2771 4.9164 -1.5146 0.9796
-0.4515 4.8596 -1.5011 0.9798
-0.6230 4.8034 -1.4898 0.9799
-0.7920 4.7477 -1.4805 0.9801
-1.4576 4.5404 -1.4667 0.9802
-1.6232 4.4890 -1.4682 0.9802
3.7789 3.0714 -1.6187 0.9797
3.6648 3.2066 -1.6187 0.9797
3.4223 3.4642 -1.6187 0.9797
3.1618 3.7035 -1.6187 0.9797
2.8846 3.9233 -1.6187 0.9797
2.4407 4.2138 -1.6187 0.9797
2.2861 4.2997 -1.6187 0.9797
1.9679 4.4543 -1.6187 0.9797
1.6393 4.5855 -1.6187 0.9797
1.4716 4.6420 -1.6187 0.9797
0.9580 4.7745 -1.6187 0.9797
0.6083 4.8272 -1.6173 0.9797
0.2558 4.8511 -1.6148 0.9797
-0.0969 4.8510 -1.6128 0.9798
-0.2729 4.8419 -1.6120 0.9798
-0.4484 4.8266 -1.6113 0.9798
-0.6202 4.7822 -1.6030 0.9799
-0.7886 4.7269 -1.5929 0.9800
-0.9550 4.6717 -1.5850 0.9801
-1.2846 4.5650 -1.5764 0.9802
3.2960 3.1024 -1.6187 0.9810
3.1812 3.2201 -1.6187 0.9810
2.8120 3.5470 -1.6187 0.9810
2.6813 3.6468 -1.6187 0.9810
2.4095 3.8319 -1.6187 0.9810
2.2687 3.9169 -1.6187 0.9810
1.9784 4.0712 -1.6187 0.9810
1.8292 4.1404 -1.6187 0.9810
1.6776 4.2042 -1.6187 0.9810
1.5238 4.2623 -1.6187 0.9810
1.3679 4.3149 -1.6187 0.9810
1.2103 4.3617 -1.6187 0.9810
1.0511 4.4028 -1.6187 0.9810
0.7287 4.4675 -1.6187 0.9810
0.2384 4.5202 -1.6187 0.9810
0.0740 4.5259 -1.6187 0.9810
-0.2546 4.5155 -1.6174 0.9810
-1.2232 4.3468 -1.6148 0.9810
-1.3803 4.2996 -1.6148 0.9810
3.1789 2.7814 -1.6187 0.9821
3.0758 2.8951 -1.6187 0.9821
2.9686 3.0049 -1.6187 0.9821
2.7426 3.2125 -1.6187 0.9821
2.6241 3.3100 -1.6187 0.9821
2.5021 3.4031 -1.6187 0.9821
2.3769 3.4918 -1.6187 0.9821
2.2485 3.5758 -1.6187 0.9821
2.1171 3.6551 -1.6187 0.9821
1.9829 3.7296 -1.6187 0.9821
1.2765 4.0265 -1.6187 0.9821
1.1294 4.0702 -1.6187 0.9821
0.9808 4.1085 -1.6187 0.9821
0.6800 4.1689 -1.6187 0.9821
0.2224 4.2181 -1.6187 0.9821
0.0691 4.2234 -1.6187 0.9821
-0.0844 4.2232 -1.6187 0.9821
-0.2377 4.2173 -1.6187 0.9821
-0.5433 4.1889 -1.6187 0.9821
-0.6951 4.1664 -1.6187 0.9821
-0.8460 4.1384 -1.6187 0.9821
-1.4364 3.9723 -1.6187 0.9821
3.0691 2.4945 -1.6187 0.9831
2.8799 2.7108 -1.6187 0.9831
2.7796 2.8136 -1.6187 0.9831
2.3428 3.1865 -1.6187 0.9831
2.2255 3.2695 -1.6187 0.9831
1.8567 3.4921 -1.6187 0.9831
1.7286 3.5573 -1.6187 0.9831
1.5983 3.6177 -1.6187 0.9831
1.4658 3.6734 -1.6187 0.9831
1.1953 3.7701 -1.6187 0.9831
0.6367 3.9035 -1.6187 0.9831
0.4945 3.9240 -1.6187 0.9831
0.2083 3.9496 -1.6187 0.9831
-0.2226 3.9488 -1.6187 0.9831
-0.3659 3.9381 -1.6187 0.9831
-0.5087 3.9222 -1.6187 0.9831
-0.7921 3.8750 -1.6187 0.9831
-1.0713 3.8072 -1.6187 0.9831
-1.2089 3.7658 -1.6187 0.9831
-1.3449 3.7194 -1.6187 0.9831
2.7952 2.4457 -1.6187 0.9839
2.5126 2.7353 -1.6187 0.9839
2.3074 2.9105 -1.6187 0.9839
2.2001 2.9924 -1.6187 0.9839
1.7436 3.2795 -1.6187 0.9839
1.5010 3.3974 -1.6187 0.9839
1.1224 3.5405 -1.6187 0.9839
0.8625 3.6127 -1.6187 0.9839
0.7306 3.6416 -1.6187 0.9839
0.5979 3.6658 -1.6187 0.9839
0.1956 3.7091 -1.6187 0.9839
-0.2090 3.7083 -1.6187 0.9839
-0.3436 3.6983 -1.6187 0.9839
-1.0061 3.5754 -1.6187 0.9839
-1.1353 3.5365 -1.6187 0.9839
-1.2630 3.4929 -1.6187 0.9839
2.7920 2.1056 -1.6187 0.9847
2.7137 2.2056 -1.6187 0.9847
2.6318 2.3027 -1.6187 0.9847
2.4577 2.4877 -1.6187 0.9847
2.1725 2.7403 -1.6187 0.9847
2.0715 2.8174 -1.6187 0.9847
1.9678 2.8908 -1.6187 0.9847
1.8615 2.9604 -1.6187 0.9847
1.7527 3.0260 -1.6187 0.9847
1.5284 3.1453 -1.6187 0.9847
1.2960 3.2480 -1.6187 0.9847
1.0568 3.3335 -1.6187 0.9847
0.9350 3.3697 -1.6187 0.9847
0.8120 3.4014 -1.6187 0.9847
0.6879 3.4287 -1.6187 0.9847
0.0572 3.4965 -1.6187 0.9847
-0.0699 3.4963 -1.6187 0.9847
-0.1968 3.4915 -1.6187 0.9847
-0.5754 3.4494 -1.6187 0.9847
-0.7004 3.4262 -1.6187 0.9847
-0.8244 3.3985 -1.6187 0.9847
-1.0689 3.3297 -1.6187 0.9847
-1.1892 3.2886 -1.6187 0.9847
2.6347 1.9869 -1.6187 0.9854
2.4029 2.2618 -1.6187 0.9854
2.3192 2.3475 -1.6187 0.9854
2.1426 2.5097 -1.6187 0.9854
2.0500 2.5859 -1.6187 0.9854
1.9548 2.6587 -1.6187 0.9854
1.7566 2.7936 -1.6187 0.9854
1.6540 2.8555 -1.6187 0.9854
1.5492 2.9137 -1.6187 0.9854
1.3335 3.0185 -1.6187 0.9854
1.2230 3.0650 -1.6187 0.9854
0.9973 3.1457 -1.6187 0.9854
0.6492 3.2355 -1.6187 0.9854
0.5312 3.2569 -1.6187 0.9854
-0.0659 3.2993 -1.6187 0.9854
-0.1857 3.2947 -1.6187 0.9854
-0.5430 3.2550 -1.6187 0.9854
-0.6609 3.2331 -1.6187 0.9854
-0.8939 3.1766 -1.6187 0.9854
-1.1221 3.1033 -1.6187 0.9854
2.4912 1.8787 -1.6187 0.9860
2.3482 2.0546 -1.6187 0.9860
2.1929 2.2197 -1.6187 0.9860
2.1108 2.2979 -1.6187 0.9860
1.7558 2.5793 -1.6187 0.9860
1.6609 2.6414 -1.6187 0.9860
1.4648 2.7550 -1.6187 0.9860
1.3637 2.8064 -1.6187 0.9860
1.2609 2.8541 -1.6187 0.9860
1.1564 2.8980 -1.6187 0.9860
0.9429 2.9743 -1.6187 0.9860
0.7245 3.0350 -1.6187 0.9860
0.5023 3.0796 -1.6187 0.9860
0.1643 3.1159 -1.6187 0.9860
0.0510 3.1198 -1.6187 0.9860
-0.2887 3.1069 -1.6187 0.9860
-0.5135 3.0777 -1.6187 0.9860
-0.6249 3.0570 -1.6187 0.9860
-0.7355 3.0323 -1.6187 0.9860
-0.8452 3.0036 -1.6187 0.9860
-0.9537 2.9709 -1.6187 0.9860
2.2934 1.8640 -1.6187 0.9866
2.1521 2.0256 -1.6187 0.9866
2.0771 2.1025 -1.6187 0.9866
1.9993 2.1766 -1.6187 0.9866
1.6631 2.4431 -1.6187 0.9866
1.2917 2.6582 -1.6187 0.9866
0.9949 2.7830 -1.6187 0.9866
0.7902 2.8478 -1.6187 0.9866
0.5814 2.8977 -1.6187 0.9866
0.3695 2.9323 -1.6187 0.9866
0.2627 2.9437 -1.6187 0.9866
0.0483 2.9551 -1.6187 0.9866
-0.0590 2.9549 -1.6187 0.9866
-0.1663 2.9508 -1.6187 0.9866
-0.2734 2.9428 -1.6187 0.9866
-0.4863 2.9152 -1.6187 0.9866
-0.8005 2.8450 -1.6187 0.9866
-0.9034 2.8140 -1.6187 0.9866
-1.0050 2.7794 -1.6187 0.9866
2.1100 1.8462 -1.6187 0.9871
2.0416 1.9216 -1.6187 0.9871
1.8967 2.0648 -1.6187 0.9871
1.8204 2.1323 -1.6187 0.9871
1.5777 2.3177 -1.6187 0.9871
1.4052 2.4261 -1.6187 0.9871
0.9438 2.6400 -1.6187 0.9871
0.7497 2.7016 -1.6187 0.9871
0.2492 2.7926 -1.6187 0.9871
0.1476 2.7998 -1.6187 0.9871
0.0459 2.8033 -1.6187 0.9871
-0.3606 2.7804 -1.6187 0.9871
-0.4614 2.7655 -1.6187 0.9871
-0.5615 2.7469 -1.6187 0.9871
-0.6609 2.7247 -1.6187 0.9871
-0.7595 2.6989 -1.6187 0.9871
-0.8570 2.6695 -1.6187 0.9871
