ply
format ascii 1.0
element vertex 547
property float32 x
property float32 y
property float32 z
property float32 I
end_header
-11.8469 22.7783 4.5272 0.9010
-12.3536 21.7825 4.4155 0.9033
-12.5239 20.3261 4.2098 0.9076
-13.6439 15.1317 3.5926 0.9206
-14.7403 11.3346 3.2787 0.9273
-15.7271 8.8031 3.1780 0.9294
-17.0839 8.7638 3.3856 0.9250
-21.0905 9.8692 4.1058 0.9098
-11.4813 24.1813 4.1008 0.8973
-12.1977 21.5076 3.7878 0.9048
-12.5238 20.3261 3.6574 0.9079
-12.7922 19.1669 3.5302 0.9110
-13.1153 18.1850 3.4348 0.9133
-14.5706 12.9906 2.9905 0.9240
-15.1720 10.8134 2.8542 0.9274
-20.8211 9.7431 3.5216 0.9112
-29.2399 12.4096 4.8661 0.8794
-11.4616 24.1398 3.4798 0.8978
-12.5241 20.3265 3.1090 0.9082
-12.8290 19.2221 3.0094 0.9110
-13.1153 18.1850 2.9197 0.9135
-13.4007 17.2264 2.8421 0.9157
-13.6962 16.3456 2.7770 0.9176
-14.8608 14.2505 2.6812 0.9203
-12.2892 10.1804 2.0781 0.9377
-12.4573 9.5790 2.0463 0.9386
-15.3612 10.1281 2.3960 0.9285
-16.1144 9.8045 2.4563 0.9267
-16.3020 9.1249 2.4328 0.9274
-17.0839 8.7639 2.5003 0.9255
-11.4815 24.1815 2.8745 0.8979
-12.5241 20.3265 2.5637 0.9084
-10.9412 15.1705 2.0085 0.9275
-13.5265 17.3881 2.3656 0.9152
-13.9408 15.4610 2.2355 0.9197
-14.8614 14.2512 2.2110 0.9205
-12.1306 10.8152 1.7451 0.9367
-14.9407 12.3770 2.0834 0.9249
-14.9775 11.5169 2.0288 0.9268
-15.1719 10.8133 2.0006 0.9278
-15.3612 10.1281 1.9758 0.9287
-16.0767 9.7816 2.0208 0.9271
-15.5122 7.9576 1.8721 0.9323
-12.7908 19.1649 1.9505 0.9117
-13.6962 16.3456 1.8052 0.9180
-13.9408 15.4610 1.7623 0.9198
-14.4986 14.9506 1.7630 0.9198
-14.8876 14.2763 1.7461 0.9205
-14.9661 12.3980 1.6452 0.9250
-16.0767 9.7816 1.5930 0.9272
-15.5123 7.9576 1.4759 0.9324
-19.2131 8.9907 1.7957 0.9184
-11.6452 24.5263 1.6836 0.8969
-12.3444 21.7664 1.5517 0.9046
-13.1153 18.1850 1.3903 0.9141
-14.4987 14.9507 1.2914 0.9199
-12.1306 10.8151 1.0078 0.9369
-14.9661 12.3980 1.2051 0.9251
-14.9775 11.5169 1.1716 0.9271
-15.1718 10.8132 1.1553 0.9281
-19.2131 8.9907 1.3154 0.9185
-25.1896 10.6907 1.6969 0.8961
-9.4299 19.8606 0.8669 0.9158
-10.0352 17.6947 0.8021 0.9218
-10.3059 16.7263 0.7747 0.9244
-10.5590 15.8209 0.7500 0.9267
-10.7967 14.9702 0.7278 0.9288
-11.4343 12.6811 0.6733 0.9339
-11.6292 11.9918 0.6587 0.9353
-11.8144 11.3292 0.6454 0.9366
-12.3307 9.4817 0.6133 0.9396
-12.4923 8.9035 0.6049 0.9404
-12.6498 8.3403 0.5974 0.9411
-12.8808 7.2099 0.5821 0.9426
-25.1896 10.6907 1.0790 0.8962
-9.4299 19.8606 0.3714 0.9158
-9.6865 18.6245 0.3546 0.9194
-10.5590 15.8209 0.3213 0.9267
-10.7967 14.9702 0.3118 0.9288
-11.0211 14.1675 0.3032 0.9307
-11.9925 10.6920 0.2714 0.9377
-12.1643 10.0771 0.2668 0.9388
-12.6498 8.3404 0.2559 0.9412
-14.4464 7.4108 0.2743 0.9371
-17.8378 8.3471 0.3327 0.9242
-23.0736 9.7926 0.4234 0.9046
-9.4299 19.8606 -0.1238 0.9158
-9.6865 18.6245 -0.1182 0.9195
-11.1671 13.3273 -0.0979 0.9328
-11.4343 12.6811 -0.0961 0.9340
-12.1643 10.0771 -0.0889 0.9388
-12.7276 7.7439 -0.0839 0.9421
-23.0736 9.7926 -0.1411 0.9046
-9.4299 19.8606 -0.6191 0.9158
-9.6865 18.6245 -0.5911 0.9194
-10.0352 17.6947 -0.5728 0.9218
-10.3059 16.7263 -0.5532 0.9244
-10.5590 15.8209 -0.5356 0.9267
-11.0211 14.1675 -0.5054 0.9307
-11.6292 11.9918 -0.4704 0.9353
-11.8144 11.3292 -0.4609 0.9366
-11.9925 10.6920 -0.4524 0.9377
-12.3307 9.4817 -0.4380 0.9397
-12.4923 8.9035 -0.4320 0.9405
-12.6498 8.3403 -0.4266 0.9412
-14.4464 7.4108 -0.4572 0.9371
-23.0737 9.7926 -0.7058 0.9046
-23.0763 8.8196 -0.6956 0.9059
-9.4299 19.8606 -1.1150 0.9157
-10.3059 16.7263 -0.9964 0.9243
-10.5590 15.8209 -0.9646 0.9266
-11.1671 13.3273 -0.8818 0.9327
-12.3307 9.4817 -0.7888 0.9396
-12.4923 8.9036 -0.7780 0.9404
-14.4464 7.4108 -0.8234 0.9370
-23.0764 8.8196 -1.2529 0.9058
-27.3687 9.3364 -1.4665 0.8906
-27.9741 7.3262 -1.4665 0.8906
-28.2216 6.3060 -1.4665 0.8906
-31.3649 5.8218 -1.6178 0.8801
-3.1191 0.3474 -0.1592 0.9875
-2.9780 0.2226 -0.1514 0.9881
-2.9565 -0.1015 -0.1500 0.9882
-3.0833 -0.3310 -0.1573 0.9877
-9.8661 17.3964 -1.4664 0.9229
-10.5590 15.8209 -1.3946 0.9265
-10.7967 14.9702 -1.3533 0.9286
-11.0211 14.1675 -1.3161 0.9305
-11.1671 13.3273 -1.2749 0.9326
-11.4343 12.6811 -1.2520 0.9338
-11.6292 11.9918 -1.2248 0.9352
-11.8144 11.3292 -1.2002 0.9365
-11.9925 10.6920 -1.1780 0.9376
-12.1643 10.0771 -1.1582 0.9386
-12.3307 9.4817 -1.1405 0.9395
-12.6497 8.3403 -1.1110 0.9410
-12.8808 7.2099 -1.0823 0.9425
-17.8378 8.3471 -1.4440 0.9241
-10.5495 4.0319 -0.8281 0.9557
-19.1510 5.7660 -1.4665 0.9229
-2.4090 0.1801 -0.1771 0.9904
-2.4063 0.0922 -0.1766 0.9904
-2.4019 0.0048 -0.1761 0.9904
-2.4101 -0.2587 -0.1777 0.9903
-6.5512 13.7977 -1.4664 0.9405
-7.0477 13.5508 -1.4664 0.9405
-8.0123 13.0038 -1.4664 0.9405
-8.9346 12.3884 -1.4664 0.9405
-11.4010 10.1646 -1.4664 0.9405
-11.7625 9.7441 -1.4664 0.9405
-12.1084 9.3108 -1.4664 0.9405
-12.6497 8.3403 -1.4546 0.9409
-13.5905 6.9718 -1.4664 0.9405
-14.0605 5.9674 -1.4664 0.9405
-10.5221 4.0215 -1.0814 0.9557
-14.4564 4.9316 -1.4664 0.9405
-2.1561 0.1612 -0.2076 0.9913
-2.1559 -0.1525 -0.2075 0.9914
-2.1569 -0.2315 -0.2083 0.9913
-6.0898 10.7379 -1.4664 0.9515
-6.4756 10.5098 -1.4664 0.9515
-8.9101 8.5442 -1.4664 0.9515
-9.2144 8.2152 -1.4664 0.9515
-9.5065 7.8753 -1.4664 0.9515
-9.7861 7.5250 -1.4664 0.9515
-10.0529 7.1649 -1.4664 0.9515
-10.5462 6.4167 -1.4664 0.9515
-10.9839 5.6346 -1.4664 0.9515
-11.3638 4.8229 -1.4664 0.9515
-11.6838 3.9858 -1.4664 0.9515
-2.0546 0.5381 -0.2523 0.9915
-2.0378 0.4553 -0.2480 0.9916
-2.0207 0.3751 -0.2441 0.9918
-2.0056 0.1499 -0.2389 0.9919
-2.0016 0.0767 -0.2379 0.9920
-2.0052 -0.1418 -0.2388 0.9919
-2.0086 -0.2156 -0.2400 0.9919
-4.7753 9.1815 -1.4664 0.9591
-5.7451 8.6081 -1.4664 0.9591
-6.0538 8.3939 -1.4664 0.9591
-6.6468 7.9326 -1.4664 0.9591
-7.4698 7.1630 -1.4664 0.9591
-7.7249 6.8872 -1.4664 0.9591
-7.9698 6.6022 -1.4664 0.9591
-8.2042 6.3086 -1.4664 0.9591
-9.3738 4.3864 -1.4664 0.9591
-9.5268 4.0433 -1.4664 0.9591
-9.6673 3.6948 -1.4664 0.9591
-1.9625 0.5909 -0.2904 0.9918
-1.9486 0.5103 -0.2854 0.9919
-1.9351 0.4324 -0.2809 0.9920
-1.9197 0.2847 -0.2750 0.9922
-1.9175 0.2136 -0.2734 0.9922
-1.9106 0.0732 -0.2709 0.9923
-1.9099 -0.0656 -0.2708 0.9923
-1.9173 -0.2058 -0.2732 0.9922
-3.8178 8.0407 -1.4663 0.9646
-4.1071 7.8968 -1.4663 0.9646
-4.3910 7.7426 -1.4664 0.9646
-4.6692 7.5781 -1.4664 0.9646
-4.9412 7.4036 -1.4664 0.9646
-5.2067 7.2194 -1.4664 0.9646
-5.4654 7.0256 -1.4664 0.9646
-5.9607 6.6106 -1.4664 0.9646
-6.1967 6.3899 -1.4664 0.9646
-6.4246 6.1608 -1.4664 0.9646
-6.6440 5.9235 -1.4664 0.9646
-7.2485 5.1662 -1.4664 0.9646
-7.6042 4.6267 -1.4664 0.9646
-7.9199 4.0628 -1.4664 0.9646
-8.0622 3.7726 -1.4664 0.9646
-8.1938 3.4775 -1.4664 0.9646
-8.3146 3.1778 -1.4664 0.9646
-1.8751 0.6397 -0.3264 0.9920
-1.8640 0.5612 -0.3207 0.9921
-1.8539 0.4855 -0.3157 0.9923
-1.8446 0.4122 -0.3114 0.9924
-1.8359 0.3408 -0.3076 0.9925
-1.8308 0.1368 -0.3024 0.9926
-1.8258 0.0700 -0.3010 0.9926
-1.8334 -0.1968 -0.3038 0.9926
-3.5997 6.9212 -1.4663 0.9687
-3.8486 6.7860 -1.4663 0.9687
-4.3307 6.4889 -1.4663 0.9687
-4.5634 6.3274 -1.4664 0.9687
-5.0105 5.9797 -1.4664 0.9687
-5.4311 5.6004 -1.4664 0.9687
-5.8231 5.1917 -1.4664 0.9687
-6.0077 4.9769 -1.4664 0.9687
-6.8075 3.8105 -1.4664 0.9687
-7.0661 3.3065 -1.4664 0.9687
-1.7918 0.6848 -0.3605 0.9922
-1.7766 0.5349 -0.3487 0.9925
-1.7694 0.4634 -0.3438 0.9926
-1.7572 0.2606 -0.3339 0.9928
-1.7521 0.1310 -0.3303 0.9929
-1.7478 0.0670 -0.3288 0.9929
-1.7554 -0.1884 -0.3318 0.9928
-3.2008 6.1544 -1.4663 0.9720
-3.4222 6.0341 -1.4663 0.9720
-4.2594 5.4754 -1.4663 0.9720
-4.6454 5.1520 -1.4664 0.9720
-4.8294 4.9799 -1.4664 0.9720
-5.0070 4.8014 -1.4664 0.9720
-5.1780 4.6165 -1.4664 0.9720
-5.3421 4.4255 -1.4664 0.9720
-5.7915 3.8185 -1.4664 0.9720
-5.9263 3.6058 -1.4664 0.9720
-6.8896 3.2240 -1.6079 0.9694
-1.7066 0.6523 -0.3862 0.9926
-1.7024 0.5808 -0.3802 0.9927
-1.6974 0.5110 -0.3747 0.9928
-1.6916 0.4430 -0.3696 0.9929
-1.6794 0.1255 -0.3560 0.9931
-1.6755 0.0642 -0.3544 0.9932
-1.6709 0.0033 -0.3532 0.9932
-1.6750 -0.0575 -0.3543 0.9932
-1.6821 -0.1806 -0.3576 0.9931
-3.0779 5.4271 -1.4663 0.9747
-3.2729 5.3118 -1.4663 0.9747
-3.4635 5.1895 -1.4663 0.9747
-3.8309 4.9246 -1.4663 0.9747
-4.0071 4.7823 -1.4663 0.9747
-4.1781 4.6337 -1.4663 0.9747
-4.3435 4.4790 -1.4663 0.9747
-4.5033 4.3183 -1.4663 0.9747
-4.8047 3.9803 -1.4664 0.9747
-5.3437 3.5232 -1.5043 0.9740
-5.9840 3.3496 -1.6117 0.9722
-6.1136 3.1362 -1.6149 0.9722
-1.6331 0.6931 -0.4169 0.9927
-1.6281 0.5554 -0.4043 0.9930
-1.6243 0.4890 -0.3987 0.9931
-1.6198 0.4242 -0.3935 0.9931
-1.6159 0.3611 -0.3891 0.9932
-1.6171 0.3002 -0.3865 0.9933
-1.6144 0.1798 -0.3818 0.9933
-1.6084 0.0616 -0.3783 0.9934
-1.6041 0.0032 -0.3770 0.9934
-1.6079 -0.0552 -0.3781 0.9934
-1.6115 -0.1140 -0.3797 0.9934
-2.7938 4.9262 -1.4663 0.9769
-3.1439 4.7106 -1.4663 0.9769
-3.4773 4.4701 -1.4663 0.9769
-3.6373 4.3409 -1.4663 0.9769
-3.7925 4.2060 -1.4663 0.9769
-3.9427 4.0656 -1.4663 0.9769
-4.2381 3.7786 -1.4701 0.9768
-5.3304 3.2432 -1.6155 0.9745
-5.4540 3.0528 -1.6183 0.9745
-1.5566 0.4687 -0.4209 0.9933
-1.5531 0.4067 -0.4157 0.9934
-1.5524 0.3469 -0.4119 0.9934
-1.5529 0.2882 -0.4089 0.9935
-1.5524 0.2302 -0.4063 0.9935
-1.5510 0.1727 -0.4041 0.9936
-1.5458 0.0592 -0.4005 0.9936
-1.5419 0.0031 -0.3992 0.9936
-1.5485 -0.1095 -0.4019 0.9936
-1.5508 -0.1665 -0.4038 0.9936
-2.3900 4.5953 -1.4663 0.9787
-2.7171 4.4098 -1.4663 0.9787
-2.8754 4.3083 -1.4663 0.9787
-4.2135 3.7566 -1.5981 0.9768
-5.0877 2.6099 -1.6188 0.9765
-1.5103 0.6410 -0.4645 0.9932
-1.5074 0.5761 -0.4568 0.9933
-1.4994 0.4514 -0.4433 0.9935
-1.4944 0.3914 -0.4373 0.9936
-1.4950 0.2775 -0.4305 0.9937
-1.4945 0.2216 -0.4277 0.9937
-1.4933 0.1663 -0.4253 0.9938
-1.4913 0.1115 -0.4233 0.9938
-1.4846 0.0029 -0.4203 0.9938
-1.4910 -0.1055 -0.4231 0.9938
-1.4931 -0.1603 -0.4251 0.9938
-2.0649 4.3489 -1.4808 0.9801
-2.5808 4.1887 -1.5133 0.9796
-2.7618 4.1381 -1.5302 0.9794
-3.7892 3.6336 -1.6147 0.9783
-4.1721 3.2081 -1.6187 0.9782
-4.2857 3.0545 -1.6187 0.9782
-1.4901 0.9066 -0.5365 0.9927
-1.6082 0.9002 -0.5669 0.9923
-1.4561 0.7470 -0.5034 0.9932
-1.4529 0.5553 -0.4784 0.9935
-1.4502 0.4947 -0.4713 0.9936
-1.4468 0.4356 -0.4647 0.9937
-1.4453 0.3230 -0.4555 0.9938
-1.4459 0.2684 -0.4523 0.9939
-1.4448 0.1609 -0.4471 0.9939
-1.4431 0.1079 -0.4451 0.9940
-1.4328 0.0029 -0.4407 0.9940
-1.4403 -0.0494 -0.4433 0.9940
-1.4428 -0.1021 -0.4449 0.9940
-1.4446 -0.1551 -0.4469 0.9939
-2.0558 4.3299 -1.5933 0.9800
-2.2246 4.2774 -1.6026 0.9799
-2.3912 4.2164 -1.6113 0.9798
-2.5438 4.1286 -1.6120 0.9798
-2.6935 4.0357 -1.6128 0.9798
-2.8399 3.9377 -1.6138 0.9797
-3.1225 3.7265 -1.6161 0.9797
-3.2582 3.6135 -1.6173 0.9797
-3.6349 3.2407 -1.6187 0.9797
-3.7501 3.1067 -1.6187 0.9797
-3.8604 2.9685 -1.6187 0.9797
-4.0656 2.6806 -1.6187 0.9797
-1.6082 0.9002 -0.6126 0.9923
-1.4020 0.7192 -0.5238 0.9934
-1.4027 0.6564 -0.5148 0.9935
-1.3997 0.4775 -0.4916 0.9938
-1.3975 0.4208 -0.4851 0.9939
-1.3967 0.3658 -0.4799 0.9939
-1.3985 0.3125 -0.4763 0.9940
-1.3993 0.2597 -0.4731 0.9940
-1.3994 0.2075 -0.4703 0.9941
-1.3973 0.1044 -0.4658 0.9941
-1.3924 0.0533 -0.4632 0.9941
-1.3839 0.0028 -0.4600 0.9942
-1.3915 -0.0478 -0.4628 0.9941
-1.9378 4.0813 -1.6157 0.9810
-2.0853 4.0094 -1.6161 0.9810
-2.2302 3.9324 -1.6167 0.9810
-2.3724 3.8504 -1.6173 0.9810
-2.6479 3.6714 -1.6187 0.9810
-2.7793 3.5728 -1.6187 0.9810
-3.0312 3.3618 -1.6187 0.9810
-3.1513 3.2495 -1.6187 0.9810
-3.2671 3.1330 -1.6187 0.9810
-3.5884 2.7593 -1.6187 0.9810
-3.7791 2.4917 -1.6187 0.9810
-1.4901 0.9066 -0.6237 0.9926
-1.3485 0.7548 -0.5526 0.9935
-1.3531 0.5171 -0.5180 0.9939
-1.3524 0.4613 -0.5110 0.9939
-1.3519 0.3540 -0.4997 0.9941
-1.3539 0.3025 -0.4961 0.9941
-1.3549 0.1509 -0.4875 0.9942
-1.3455 0.0516 -0.4815 0.9943
-1.3446 -0.0462 -0.4811 0.9943
-1.3519 -0.0956 -0.4847 0.9943
-1.8117 3.8158 -1.6187 0.9821
-1.9490 3.7475 -1.6187 0.9821
-2.2158 3.5962 -1.6187 0.9821
-2.5936 3.3341 -1.6187 0.9821
-2.7129 3.2377 -1.6187 0.9821
-2.8286 3.1371 -1.6187 0.9821
-2.9407 3.0324 -1.6187 0.9821
-3.0488 2.9236 -1.6187 0.9821
-3.1529 2.8110 -1.6187 0.9821
-3.6086 2.1956 -1.6187 0.9821
-1.2996 0.7275 -0.5708 0.9936
-1.3029 0.6684 -0.5612 0.9937
-1.3067 0.5546 -0.5440 0.9939
-1.3075 0.4997 -0.5364 0.9940
-1.3065 0.3933 -0.5229 0.9942
-1.3092 0.3429 -0.5186 0.9942
-1.3128 0.2437 -0.5117 0.9943
-1.3133 0.1948 -0.5088 0.9943
-1.3075 0.0977 -0.5025 0.9944
-1.3009 0.0498 -0.4989 0.9944
-1.3068 -0.0924 -0.5020 0.9944
-1.6964 3.5728 -1.6187 0.9831
-2.0747 3.3673 -1.6187 0.9831
-2.3136 3.2079 -1.6187 0.9831
-2.4285 3.1218 -1.6187 0.9831
-2.5402 3.0316 -1.6187 0.9831
-2.6486 2.9374 -1.6187 0.9831
-2.7534 2.8393 -1.6187 0.9831
-2.8547 2.7375 -1.6187 0.9831
-3.0458 2.5232 -1.6187 0.9831
-3.2208 2.2955 -1.6187 0.9831
-3.3020 2.1771 -1.6187 0.9831
-1.2484 0.7596 -0.5981 0.9937
-1.2534 0.7016 -0.5879 0.9938
-1.2573 0.6450 -0.5783 0.9939
-1.2605 0.5898 -0.5696 0.9940
-1.2628 0.5359 -0.5614 0.9941
-1.2642 0.4832 -0.5539 0.9942
-1.2651 0.3809 -0.5407 0.9943
-1.2684 0.3322 -0.5366 0.9943
-1.2724 0.2362 -0.5297 0.9944
-1.2732 0.1888 -0.5268 0.9945
-1.2699 0.1414 -0.5230 0.9945
-1.2646 0.0945 -0.5190 0.9945
-1.2516 0.0025 -0.5122 0.9946
-1.5931 3.3553 -1.6187 0.9839
-1.8323 3.2308 -1.6187 0.9839
-1.9484 3.1622 -1.6187 0.9839
-2.1727 3.0125 -1.6187 0.9839
-2.3855 2.8469 -1.6187 0.9839
-2.4873 2.7585 -1.6187 0.9839
-2.6808 2.5708 -1.6187 0.9839
-2.7724 2.4717 -1.6187 0.9839
-2.8603 2.3695 -1.6187 0.9839
-2.9444 2.2641 -1.6187 0.9839
-3.1009 2.0445 -1.6187 0.9839
-1.2041 0.7326 -0.6143 0.9939
-1.2144 0.6230 -0.5948 0.9941
-1.2182 0.5700 -0.5862 0.9941
-1.2228 0.4674 -0.5705 0.9943
-1.2258 0.3691 -0.5579 0.9944
-1.2293 0.3220 -0.5538 0.9945
-1.2320 0.2753 -0.5502 0.9945
-1.2337 0.2290 -0.5469 0.9945
-1.2285 0.1368 -0.5387 0.9946
-1.2236 0.0915 -0.5348 0.9947
-1.2180 0.0467 -0.5312 0.9947
-1.2174 -0.0418 -0.5308 0.9947
-1.2231 -0.0865 -0.5344 0.9947
-1.4999 3.1590 -1.6187 0.9847
-1.7251 3.0419 -1.6187 0.9847
-1.8344 2.9773 -1.6187 0.9847
-1.9413 2.9087 -1.6187 0.9847
-2.0456 2.8363 -1.6187 0.9847
-2.1472 2.7602 -1.6187 0.9847
-2.2460 2.6805 -1.6187 0.9847
-2.4345 2.5105 -1.6187 0.9847
-2.5241 2.4204 -1.6187 0.9847
-2.6103 2.3272 -1.6187 0.9847
-2.6930 2.2309 -1.6187 0.9847
-2.7722 2.1317 -1.6187 0.9847
-1.1621 0.7070 -0.6297 0.9940
-1.1737 0.6021 -0.6106 0.9942
-1.1779 0.5512 -0.6020 0.9943
-1.1811 0.5013 -0.5939 0.9944
-1.1834 0.4523 -0.5864 0.9944
-1.1848 0.4042 -0.5795 0.9945
-1.1926 0.1769 -0.5581 0.9947
-1.1793 0.0452 -0.5463 0.9948
-1.1733 0.0024 -0.5431 0.9948
-1.1885 -0.1276 -0.5533 0.9947
-1.4154 2.9810 -1.6187 0.9854
-1.5227 2.9277 -1.6187 0.9854
-1.6279 2.8705 -1.6187 0.9854
-1.8319 2.7448 -1.6187 0.9854
-1.9303 2.6765 -1.6187 0.9854
-2.0262 2.6047 -1.6187 0.9854
-2.2099 2.4508 -1.6187 0.9854
-2.3818 2.2840 -1.6187 0.9854
-2.6160 2.0116 -1.6187 0.9854
-1.1146 0.7349 -0.6549 0.9941
-1.1291 0.6320 -0.6347 0.9943
-1.1430 0.4851 -0.6091 0.9945
-1.1583 0.2588 -0.5822 0.9947
-1.1568 0.2147 -0.5771 0.9948
-1.1544 0.1712 -0.5724 0.9948
-1.1471 0.0857 -0.5643 0.9949
-1.1423 0.0438 -0.5607 0.9949
-1.1367 0.0023 -0.5576 0.9949
-1.1466 -0.0811 -0.5639 0.9949
-1.3383 2.8187 -1.6187 0.9860
-1.4397 2.7682 -1.6187 0.9860
-1.6368 2.6565 -1.6187 0.9860
-1.8252 2.5307 -1.6187 0.9860
-1.9159 2.4628 -1.6187 0.9860
-2.0040 2.3917 -1.6187 0.9860
-2.1722 2.2400 -1.6187 0.9860
-1.0529 0.7504 -0.6707 0.9942
-1.0730 0.7075 -0.6668 0.9942
-1.0846 0.6599 -0.6586 0.9943
-1.0916 0.6110 -0.6490 0.9944
-1.1096 0.4241 -0.6162 0.9947
-1.1128 0.3796 -0.6100 0.9947
-1.1213 0.2937 -0.6013 0.9948
-1.1210 0.2505 -0.5959 0.9948
-1.1198 0.2079 -0.5908 0.9949
-1.1177 0.1657 -0.5862 0.9949
-1.1112 0.0831 -0.5781 0.9950
-1.1068 0.0424 -0.5746 0.9950
-1.1016 0.0022 -0.5715 0.9950
-1.1062 -0.0380 -0.5742 0.9950
-1.1145 -0.1196 -0.5815 0.9950
-1.2676 2.6698 -1.6187 0.9866
-1.6407 2.4583 -1.6187 0.9866
-1.7288 2.3971 -1.6187 0.9866
-1.8982 2.2654 -1.6187 0.9866
-2.0575 2.1217 -1.6187 0.9866
-2.1332 2.0456 -1.6187 0.9866
-2.2060 1.9668 -1.6187 0.9866
-0.9925 0.8222 -0.7059 0.9941
-0.9827 0.7557 -0.6790 0.9944
-1.0036 0.7153 -0.6750 0.9944
-1.0232 0.6746 -0.6712 0.9944
-1.0557 0.5909 -0.6626 0.9945
-1.0620 0.5448 -0.6537 0.9946
-1.0673 0.4994 -0.6454 0.9946
-1.0749 0.4108 -0.6302 0.9948
-1.0851 0.2842 -0.6144 0.9949
-1.0851 0.2425 -0.6090 0.9949
-1.0843 0.2013 -0.6040 0.9950
-1.0800 0.1203 -0.5952 0.9951
-1.0721 -0.0368 -0.5876 0.9951
-1.0797 -0.1159 -0.5948 0.9951
-1.2025 2.5327 -1.6187 0.9871
-1.5564 2.3320 -1.6187 0.9871
-1.9519 2.0127 -1.6187 0.9871
-0.9577 0.6826 -0.6790 0.9946
-0.9941 0.6049 -0.6719 0.9946
-1.0104 0.5655 -0.6685 0.9947
-1.0253 0.5259 -0.6653 0.9947
-1.0379 0.4405 -0.6509 0.9948
-1.0504 0.2751 -0.6269 0.9950
-1.0502 0.1949 -0.6167 0.9951
-1.0352 0.0021 -0.5977 0.9952
-1.0393 -0.0357 -0.6004 0.9952
