ply
format ascii 1.0
element vertex 377
property float32 x
property float32 y
property float32 z
property float32 I
end_header
15.1393 -9.8775 -0.9167 0.9302
15.2031 -9.1638 -0.9002 0.9314
25.9875 -13.2387 -1.4791 0.8898
26.4097 -12.2888 -1.4772 0.8899
26.7968 -11.3255 -1.4754 0.8900
27.1483 -10.3501 -1.4735 0.8901
27.4686 -9.3654 -1.4718 0.8903
27.7494 -8.3699 -1.4699 0.8904
27.9912 -7.3655 -1.4679 0.8905
28.1958 -6.3543 -1.4658 0.8907
28.5827 -4.3309 -1.4661 0.8907
28.8817 -1.2557 -1.4661 0.8907
28.8508 1.8339 -1.4661 0.8907
29.8659 5.1391 -1.5369 0.8857
30.6802 6.4126 -1.5895 0.8820
30.6945 8.7378 -1.6185 0.8800
30.3637 9.8261 -1.6185 0.8800
29.5870 11.9638 -1.6185 0.8800
29.1419 13.0105 -1.6185 0.8800
28.6598 14.0408 -1.6185 0.8800
28.1414 15.0533 -1.6185 0.8800
16.7471 -10.9265 -1.4662 0.9229
15.2661 -9.2018 -1.3070 0.9310
17.8175 -9.0767 -1.4662 0.9229
18.6844 -7.1233 -1.4662 0.9229
18.9264 -6.4529 -1.4662 0.9229
19.4744 -5.8740 -1.4914 0.9217
20.1845 -5.3113 -1.5303 0.9197
21.8253 -3.3070 -1.6185 0.9153
22.0054 -1.7441 -1.6185 0.9153
21.6077 4.5163 -1.6186 0.9153
21.4330 5.2834 -1.6186 0.9153
21.2311 6.0438 -1.6186 0.9153
20.7469 7.5407 -1.6186 0.9153
20.1571 8.9993 -1.6186 0.9153
19.4650 10.4121 -1.6186 0.9153
13.6371 -9.6071 -1.6015 0.9352
14.7403 -8.1833 -1.6186 0.9345
15.0225 -7.6528 -1.6186 0.9345
15.2857 -7.1126 -1.6186 0.9345
15.5294 -6.5634 -1.6186 0.9345
15.7534 -6.0058 -1.6186 0.9345
15.9574 -5.4407 -1.6186 0.9345
16.1412 -4.8686 -1.6186 0.9345
16.4469 -3.7066 -1.6186 0.9345
16.5685 -3.1181 -1.6186 0.9345
16.6691 -2.5257 -1.6186 0.9345
16.7486 -1.9301 -1.6186 0.9345
16.8435 -0.7323 -1.6186 0.9345
16.8589 -0.1316 -1.6186 0.9345
16.8529 0.4692 -1.6186 0.9345
16.8255 1.0695 -1.6186 0.9345
15.3950 6.8732 -1.6186 0.9345
14.8664 7.9522 -1.6186 0.9345
11.1396 -7.8477 -1.6186 0.9466
11.6703 -7.0343 -1.6186 0.9466
12.3543 -5.7487 -1.6186 0.9466
12.5513 -5.3047 -1.6186 0.9466
12.8973 -4.3973 -1.6186 0.9466
13.3912 -2.5202 -1.6186 0.9466
13.5367 -1.5600 -1.6186 0.9466
13.6134 -0.5919 -1.6186 0.9466
13.5594 1.3484 -1.6186 0.9466
13.5028 1.8308 -1.6186 0.9466
13.4290 2.3108 -1.6186 0.9466
12.8067 4.6548 -1.6186 0.9466
12.6327 5.1082 -1.6186 0.9466
12.4427 5.5551 -1.6186 0.9466
12.0154 6.4272 -1.6186 0.9466
9.3391 -6.5792 -1.6186 0.9549
9.5676 -6.2422 -1.6186 0.9549
9.7839 -5.8973 -1.6186 0.9549
10.1791 -5.1855 -1.6186 0.9549
10.3574 -4.8195 -1.6186 0.9549
10.5226 -4.4473 -1.6186 0.9549
11.2267 -2.1128 -1.6186 0.9549
11.3487 -1.3078 -1.6186 0.9549
11.3881 -0.9026 -1.6186 0.9549
11.4130 -0.4962 -1.6186 0.9549
11.4234 -0.0892 -1.6186 0.9549
11.4008 0.7247 -1.6186 0.9549
11.3677 1.1305 -1.6186 0.9549
11.3202 1.5349 -1.6186 0.9549
11.0918 2.7342 -1.6186 0.9549
10.9873 3.1277 -1.6186 0.9549
10.8689 3.5173 -1.6186 0.9549
10.7367 3.9024 -1.6186 0.9549
10.5908 4.2825 -1.6186 0.9549
10.2589 5.0260 -1.6186 0.9549
8.0325 -5.6588 -1.6186 0.9610
8.5905 -4.7692 -1.6186 0.9610
8.7549 -4.4600 -1.6186 0.9610
8.9083 -4.1451 -1.6186 0.9610
9.1809 -3.5001 -1.6186 0.9610
9.5850 -2.1601 -1.6186 0.9610
9.6560 -1.8172 -1.6186 0.9610
9.7146 -1.4720 -1.6186 0.9610
9.8162 -0.4268 -1.6186 0.9610
9.8217 0.2735 -1.6186 0.9610
9.8057 0.6233 -1.6186 0.9610
9.6831 1.6662 -1.6186 0.9610
9.6177 2.0102 -1.6186 0.9610
9.4501 2.6901 -1.6186 0.9610
9.2345 3.3564 -1.6186 0.9610
8.9720 4.0056 -1.6186 0.9610
8.8235 4.3228 -1.6186 0.9610
7.3754 -4.4456 -1.6187 0.9656
7.6733 -3.9090 -1.6186 0.9656
7.8077 -3.6330 -1.6186 0.9656
7.9323 -3.3525 -1.6186 0.9656
8.1509 -2.7790 -1.6186 0.9656
8.4009 -1.8933 -1.6186 0.9656
8.5144 -1.2901 -1.6186 0.9656
8.5550 -0.9859 -1.6186 0.9656
8.6035 -0.3740 -1.6186 0.9656
8.6083 0.2397 -1.6186 0.9656
8.5694 0.8522 -1.6186 0.9656
8.5335 1.1570 -1.6186 0.9656
8.3613 2.0611 -1.6187 0.9656
8.2826 2.3578 -1.6187 0.9656
8.0936 2.9417 -1.6187 0.9656
7.9837 3.2283 -1.6187 0.9656
7.8636 3.5107 -1.6187 0.9656
6.4133 -4.1843 -1.6187 0.9692
6.8232 -3.4759 -1.6187 0.9692
6.9427 -3.2306 -1.6187 0.9692
7.0535 -2.9811 -1.6187 0.9692
7.1552 -2.7279 -1.6187 0.9692
7.2479 -2.4712 -1.6187 0.9692
7.4055 -1.9487 -1.6187 0.9692
7.4702 -1.6835 -1.6187 0.9692
7.5711 -1.1472 -1.6187 0.9692
7.6336 -0.6050 -1.6187 0.9692
7.6573 -0.0598 -1.6187 0.9692
7.6421 0.4858 -1.6187 0.9692
7.5882 1.0288 -1.6187 0.9692
7.4956 1.5667 -1.6187 0.9692
7.3650 2.0966 -1.6187 0.9692
7.2856 2.3577 -1.6187 0.9692
7.0992 2.8706 -1.6187 0.9692
6.8767 3.3690 -1.6187 0.9692
6.7523 3.6119 -1.6187 0.9692
5.8986 -3.5554 -1.6187 0.9721
6.0215 -3.3429 -1.6187 0.9721
6.1368 -3.1263 -1.6187 0.9721
6.2444 -2.9056 -1.6187 0.9721
6.4354 -2.4534 -1.6187 0.9721
6.5188 -2.2225 -1.6187 0.9721
6.7187 -1.5142 -1.6187 0.9721
6.7684 -1.2738 -1.6187 0.9721
6.8419 -0.7885 -1.6187 0.9721
6.8807 -0.2992 -1.6187 0.9721
6.8845 0.1918 -1.6187 0.9721
6.8734 0.4369 -1.6187 0.9721
6.8534 0.6816 -1.6187 0.9721
6.7416 1.4091 -1.6187 0.9721
6.6871 1.6484 -1.6187 0.9721
6.4730 2.3527 -1.6187 0.9721
5.3542 -3.2273 -1.6187 0.9745
5.4658 -3.0345 -1.6187 0.9745
5.8416 -2.2270 -1.6187 0.9745
6.0459 -1.5909 -1.6187 0.9745
6.0987 -1.3744 -1.6187 0.9745
6.1438 -1.1562 -1.6187 0.9745
6.2105 -0.7157 -1.6187 0.9745
6.2457 -0.2715 -1.6187 0.9745
6.2492 0.1740 -1.6187 0.9745
6.2210 0.6186 -1.6187 0.9745
6.1194 1.2791 -1.6187 0.9745
6.0128 1.7117 -1.6187 0.9745
5.9480 1.9248 -1.6187 0.9745
5.6141 2.7504 -1.6187 0.9745
4.6743 -3.2930 -1.6187 0.9765
4.8970 -2.9517 -1.6187 0.9765
5.1841 -2.4122 -1.6187 0.9765
5.2667 -2.2259 -1.6187 0.9765
5.4742 -1.6511 -1.6187 0.9765
5.6192 -1.0575 -1.6187 0.9765
5.6999 -0.4517 -1.6187 0.9765
5.7176 -0.0446 -1.6187 0.9765
5.7156 0.1591 -1.6187 0.9765
5.6660 0.7682 -1.6187 0.9765
5.5968 1.1698 -1.6187 0.9765
5.4993 1.5655 -1.6187 0.9765
5.4400 1.7605 -1.6187 0.9765
5.0418 2.6970 -1.6187 0.9765
4.4075 -2.8756 -1.6187 0.9782
4.6011 -2.5544 -1.6187 0.9782
4.6892 -2.3888 -1.6187 0.9782
4.7714 -2.2202 -1.6187 0.9782
4.8475 -2.0488 -1.6187 0.9782
4.9174 -1.8747 -1.6187 0.9782
4.9811 -1.6983 -1.6187 0.9782
5.0894 -1.3392 -1.6187 0.9782
5.2032 -0.7884 -1.6187 0.9782
5.2280 -0.6025 -1.6187 0.9782
5.2368 0.5208 -1.6187 0.9782
5.2149 0.7071 -1.6187 0.9782
5.1097 1.2596 -1.6187 0.9782
4.8055 2.1454 -1.6187 0.9782
3.9809 -2.8045 -1.6187 0.9797
4.3390 -2.2104 -1.6187 0.9797
4.4854 -1.8957 -1.6187 0.9797
4.6091 -1.5714 -1.6187 0.9797
4.6621 -1.4062 -1.6187 0.9797
4.7093 -1.2392 -1.6187 0.9797
4.7856 -0.9006 -1.6187 0.9797
4.8544 -0.3847 -1.6187 0.9797
4.8677 0.1355 -1.6187 0.9797
4.8598 0.3089 -1.6187 0.9797
4.8457 0.4819 -1.6187 0.9797
4.8254 0.6542 -1.6187 0.9797
4.7991 0.8258 -1.6187 0.9797
4.7666 0.9963 -1.6187 0.9797
4.6330 1.4993 -1.6187 0.9797
4.5145 1.8255 -1.6187 0.9797
4.4466 1.9852 -1.6187 0.9797
3.7004 -2.6069 -1.6187 0.9810
3.7909 -2.4733 -1.6187 0.9810
3.8767 -2.3367 -1.6187 0.9810
3.9574 -2.1970 -1.6187 0.9810
4.1039 -1.9096 -1.6187 0.9810
4.1693 -1.7621 -1.6187 0.9810
4.4157 -0.9951 -1.6187 0.9810
4.4483 -0.8371 -1.6187 0.9810
4.4753 -0.6781 -1.6187 0.9810
4.4967 -0.5182 -1.6187 0.9810
4.5123 -0.3576 -1.6187 0.9810
4.5221 -0.1966 -1.6187 0.9810
4.5263 -0.0353 -1.6187 0.9810
4.5173 0.2871 -1.6187 0.9810
4.5042 0.4479 -1.6187 0.9810
4.4608 0.7676 -1.6187 0.9810
4.3066 1.3937 -1.6187 0.9810
4.1963 1.6969 -1.6187 0.9810
4.0648 1.9914 -1.6187 0.9810
3.9913 2.1350 -1.6187 0.9810
3.6930 -2.0502 -1.6187 0.9821
3.7637 -1.9173 -1.6187 0.9821
3.9468 -1.5047 -1.6187 0.9821
3.9979 -1.3631 -1.6187 0.9821
4.0849 -1.0749 -1.6187 0.9821
4.1762 -0.6328 -1.6187 0.9821
4.2199 -0.1835 -1.6187 0.9821
4.2238 -0.0330 -1.6187 0.9821
4.2032 0.4180 -1.6187 0.9821
4.1856 0.5675 -1.6187 0.9821
4.1627 0.7163 -1.6187 0.9821
4.1346 0.8642 -1.6187 0.9821
4.0625 1.1565 -1.6187 0.9821
4.0187 1.3005 -1.6187 0.9821
3.8570 1.7220 -1.6187 0.9821
3.3124 -2.1611 -1.6187 0.9831
3.6955 -1.4089 -1.6187 0.9831
3.8248 -1.0064 -1.6187 0.9831
3.9104 -0.5925 -1.6187 0.9831
3.9290 -0.4528 -1.6187 0.9831
3.9513 -0.1718 -1.6187 0.9831
3.9549 -0.0309 -1.6187 0.9831
3.9535 0.1101 -1.6187 0.9831
3.9470 0.2509 -1.6187 0.9831
3.9192 0.5314 -1.6187 0.9831
3.8714 0.8092 -1.6187 0.9831
3.8401 0.9466 -1.6187 0.9831
3.8039 1.0829 -1.6187 0.9831
3.7171 1.3510 -1.6187 0.9831
3.4874 1.8655 -1.6187 0.9831
3.1106 -2.0295 -1.6187 0.9839
3.2473 -1.8028 -1.6187 0.9839
3.3095 -1.6859 -1.6187 0.9839
3.3674 -1.5669 -1.6187 0.9839
3.4211 -1.4459 -1.6187 0.9839
3.4705 -1.3231 -1.6187 0.9839
3.5154 -1.1986 -1.6187 0.9839
3.5559 -1.0725 -1.6187 0.9839
3.6722 -0.5564 -1.6187 0.9839
3.7067 0.2356 -1.6187 0.9839
3.6603 0.6299 -1.6187 0.9839
3.6062 0.8890 -1.6187 0.9839
3.5722 1.0169 -1.6187 0.9839
3.4907 1.2688 -1.6187 0.9839
3.4433 1.3923 -1.6187 0.9839
3.3915 1.5141 -1.6187 0.9839
3.3354 1.6341 -1.6187 0.9839
3.0574 -1.6974 -1.6187 0.9847
3.1705 -1.4753 -1.6187 0.9847
3.2211 -1.3614 -1.6187 0.9847
3.2676 -1.2457 -1.6187 0.9847
3.3480 -1.0098 -1.6187 0.9847
3.3818 -0.8899 -1.6187 0.9847
3.4114 -0.7688 -1.6187 0.9847
3.4366 -0.6467 -1.6187 0.9847
3.4575 -0.5239 -1.6187 0.9847
3.4936 -0.1519 -1.6187 0.9847
3.4956 0.0973 -1.6187 0.9847
3.4899 0.2218 -1.6187 0.9847
3.4798 0.3461 -1.6187 0.9847
3.4652 0.4698 -1.6187 0.9847
3.4463 0.5930 -1.6187 0.9847
3.3953 0.8370 -1.6187 0.9847
3.3271 1.0767 -1.6187 0.9847
3.2866 1.1946 -1.6187 0.9847
2.7637 -1.8031 -1.6187 0.9854
2.8262 -1.7035 -1.6187 0.9854
2.9404 -1.4979 -1.6187 0.9854
3.0396 -1.2847 -1.6187 0.9854
3.2627 -0.4944 -1.6187 0.9854
3.2782 -0.3778 -1.6187 0.9854
3.2896 -0.2607 -1.6187 0.9854
3.2968 -0.1433 -1.6187 0.9854
3.2837 0.3266 -1.6187 0.9854
3.2521 0.5596 -1.6187 0.9854
3.2301 0.6751 -1.6187 0.9854
3.1738 0.9035 -1.6187 0.9854
3.1396 1.0160 -1.6187 0.9854
3.1014 1.1273 -1.6187 0.9854
3.0593 1.2371 -1.6187 0.9854
2.9634 1.4518 -1.6187 0.9854
2.6132 -1.7049 -1.6187 0.9860
2.7280 -1.5145 -1.6187 0.9860
2.8289 -1.3163 -1.6187 0.9860
2.9155 -1.1115 -1.6187 0.9860
2.9873 -0.9010 -1.6187 0.9860
3.0175 -0.7940 -1.6187 0.9860
3.0850 -0.4674 -1.6187 0.9860
3.1104 -0.2465 -1.6187 0.9860
3.1172 -0.1355 -1.6187 0.9860
3.1201 -0.0244 -1.6187 0.9860
3.1190 0.0869 -1.6187 0.9860
3.1139 0.1979 -1.6187 0.9860
3.0919 0.4192 -1.6187 0.9860
3.0750 0.5291 -1.6187 0.9860
3.0542 0.6384 -1.6187 0.9860
3.0295 0.7468 -1.6187 0.9860
2.9686 0.9607 -1.6187 0.9860
2.9325 1.0659 -1.6187 0.9860
2.8926 1.1697 -1.6187 0.9860
2.8491 1.2720 -1.6187 0.9860
2.8020 1.3727 -1.6187 0.9860
2.5312 -1.5257 -1.6187 0.9866
2.5839 -1.4345 -1.6187 0.9866
2.6334 -1.3415 -1.6187 0.9866
2.7973 -0.9537 -1.6187 0.9866
2.8295 -0.8534 -1.6187 0.9866
2.8581 -0.7521 -1.6187 0.9866
2.9044 -0.5466 -1.6187 0.9866
2.9221 -0.4427 -1.6187 0.9866
2.9360 -0.3383 -1.6187 0.9866
2.9462 -0.2335 -1.6187 0.9866
2.9553 -0.0231 -1.6187 0.9866
2.9543 0.0823 -1.6187 0.9866
2.9495 0.1875 -1.6187 0.9866
2.9286 0.3971 -1.6187 0.9866
2.9126 0.5012 -1.6187 0.9866
2.8929 0.6047 -1.6187 0.9866
2.8695 0.7074 -1.6187 0.9866
2.7776 1.0096 -1.6187 0.9866
2.7399 1.1079 -1.6187 0.9866
2.6540 1.3002 -1.6187 0.9866
2.6060 1.3940 -1.6187 0.9866
2.2920 -1.6147 -1.6187 0.9871
2.5419 -1.1828 -1.6187 0.9871
2.6842 -0.8096 -1.6187 0.9871
2.7114 -0.7135 -1.6187 0.9871
2.7351 -0.6164 -1.6187 0.9871
2.7720 -0.4200 -1.6187 0.9871
2.7852 -0.3210 -1.6187 0.9871
2.8036 -0.0219 -1.6187 0.9871
2.8026 0.0780 -1.6187 0.9871
2.7980 0.1779 -1.6187 0.9871
2.7631 0.4754 -1.6187 0.9871
2.7222 0.6710 -1.6187 0.9871
2.6965 0.7676 -1.6187 0.9871
2.6675 0.8632 -1.6187 0.9871
2.5601 1.1430 -1.6187 0.9871
2.5178 1.2335 -1.6187 0.9871
2.4722 1.3224 -1.6187 0.9871
