ply
format ascii 1.0
element vertex 612
property float32 x
property float32 y
property float32 z
property float32 I
end_header
-20.3986 -38.5643 7.6926 0.8376
-17.3516 -39.3598 7.5847 0.8397
-15.8642 -39.7705 7.5499 0.8404
-13.5711 -42.6260 7.8878 0.8339
-12.0455 -43.0928 7.8897 0.8338
-10.4966 -43.4748 7.8860 0.8339
-8.8484 -43.3731 7.8054 0.8354
-2.5488 -43.4466 7.6740 0.8380
-1.0075 -43.9178 7.7459 0.8366
-21.9969 -38.2231 6.7560 0.8366
-18.8546 -38.9449 6.6286 0.8394
-8.8484 -43.3732 6.7814 0.8360
-5.5677 -42.6132 6.5836 0.8404
-4.0678 -43.0273 6.6209 0.8395
-1.0098 -44.0173 6.7450 0.8368
-21.9116 -38.0749 5.7206 0.8376
-20.3775 -38.5245 5.6753 0.8388
-18.8120 -38.8567 5.6218 0.8402
-17.3021 -39.2475 5.5854 0.8411
-15.8085 -39.6308 5.5562 0.8419
-14.3380 -40.0368 5.5379 0.8424
-12.8753 -40.4406 5.5267 0.8427
-8.4968 -41.6494 5.5353 0.8424
-7.0278 -42.0539 5.5522 0.8420
-2.0995 -22.2076 2.9048 0.9139
-2.5415 -43.3226 5.6512 0.8394
3.7923 -45.0142 5.8826 0.8334
5.4709 -45.4834 5.9656 0.8313
8.9861 -46.4659 6.1629 0.8262
10.8371 -46.9832 6.2788 0.8232
-21.9471 -38.1367 4.7249 0.8378
-14.4360 -40.3104 4.5978 0.8418
-12.9340 -40.6249 4.5781 0.8424
-2.7990 -21.4221 2.3199 0.9168
-2.0995 -22.2076 2.3953 0.9142
-1.0098 -44.0161 4.7278 0.8377
5.4709 -45.4834 4.9193 0.8317
7.1999 -45.9666 4.9962 0.8293
10.8371 -46.9832 5.1776 0.8237
13.3369 -43.4191 4.8774 0.8330
17.3669 -44.8637 5.1659 0.8240
-24.6219 -23.5573 2.8846 0.8722
-21.8627 -37.9899 3.7105 0.8387
-12.8976 -24.3835 2.3351 0.8952
-18.8309 -38.8959 3.6582 0.8407
-14.3704 -40.1274 3.6081 0.8427
-9.9810 -41.3392 3.6000 0.8431
-5.5606 -42.5585 3.6333 0.8417
-2.5426 -43.3413 3.6753 0.8401
-1.0037 -43.7507 3.7046 0.8389
3.7923 -45.0142 3.8241 0.8342
5.4709 -45.4834 3.8781 0.8320
8.9860 -46.4658 4.0063 0.8270
10.8371 -46.9832 4.0817 0.8240
8.1663 -23.5583 2.1107 0.9048
16.5037 -42.6335 3.8700 0.8323
18.5151 -43.1889 3.9779 0.8281
14.0192 -29.7275 2.7823 0.8764
-21.9969 -38.2231 2.7347 0.8380
-20.4125 -38.5907 2.7072 0.8395
-17.3516 -39.3598 2.6674 0.8417
-15.8642 -39.7704 2.6551 0.8423
-14.3885 -40.1778 2.6464 0.8428
-12.9207 -40.5830 2.6410 0.8431
-11.4569 -40.9871 2.6391 0.8432
-9.9935 -41.3912 2.6404 0.8431
-8.5355 -41.8393 2.6479 0.8427
-7.0598 -42.2456 2.6560 0.8423
-5.5676 -42.6120 2.6648 0.8418
-2.5487 -43.4454 2.6987 0.8399
7.1999 -45.9666 2.8852 0.8299
8.9860 -46.4658 2.9348 0.8272
13.0609 -42.5207 2.7583 0.8367
13.8324 -39.9043 2.6189 0.8443
15.6404 -40.4034 2.6866 0.8406
17.5466 -40.9297 2.7615 0.8365
19.7448 -41.8685 2.8705 0.8307
21.9105 -42.4664 2.9632 0.8257
24.4446 -43.4980 3.0941 0.8188
-18.8546 -38.9448 1.7061 0.8410
-15.8642 -39.7704 1.6883 0.8425
-14.2298 -39.7345 1.6642 0.8445
-11.4569 -40.9871 1.6781 0.8434
-7.0758 -42.3414 1.6927 0.8421
-5.5676 -42.6120 1.6945 0.8420
-2.5487 -43.4454 1.7160 0.8401
12.2285 -45.5359 1.8591 0.8280
14.9209 -38.5449 1.6298 0.8475
16.7395 -39.0470 1.6752 0.8436
18.6649 -39.5785 1.7255 0.8393
-20.4278 -38.6196 0.7380 0.8396
-18.8546 -38.9448 0.7309 0.8411
-17.3516 -39.3598 0.7266 0.8419
-15.8642 -39.7704 0.7233 0.8426
-12.0804 -37.9435 0.6726 0.8527
-7.0598 -42.2456 0.7235 0.8425
-2.0995 -22.2075 0.3768 0.9146
-1.0089 -43.9796 0.7431 0.8386
8.9860 -46.4658 0.7994 0.8275
12.2285 -45.5359 0.7964 0.8281
13.0609 -42.5207 0.7514 0.8370
13.8051 -39.8253 0.7120 0.8448
14.4759 -37.3954 0.6774 0.8518
15.9324 -37.1643 0.6830 0.8506
17.7650 -37.6702 0.7035 0.8465
-21.9968 -38.2231 -0.2483 0.8383
-17.3515 -39.3598 -0.2422 0.8419
-14.3264 -40.0043 -0.2392 0.8437
-12.9633 -40.7170 -0.2406 0.8429
-11.4569 -40.9871 -0.2396 0.8435
-9.9935 -41.3912 -0.2397 0.8434
-8.5548 -41.9341 -0.2410 0.8427
-2.0995 -22.2076 -0.1256 0.9146
-2.5487 -43.4454 -0.2450 0.8402
3.7923 -45.0142 -0.2543 0.8347
12.2285 -45.5359 -0.2655 0.8281
13.8051 -39.8253 -0.2373 0.8448
14.4759 -37.3954 -0.2258 0.8518
18.7149 -36.2726 -0.2298 0.8494
-25.8498 -28.5291 -1.0840 0.8572
-29.3018 -40.2571 -1.4020 0.8193
-8.0995 -14.0741 -0.4572 0.9371
-7.4304 -14.0474 -0.4475 0.9384
-6.2418 -14.1588 -0.4357 0.9400
-15.8642 -39.7704 -1.2057 0.8425
-11.4569 -40.9871 -1.1984 0.8434
-9.9935 -41.3912 -1.1990 0.8433
-8.5267 -41.7961 -1.2011 0.8431
-2.5487 -43.4454 -1.2254 0.8402
-1.0064 -43.8712 -1.2356 0.8390
3.7922 -45.0142 -1.2720 0.8346
5.4709 -45.4834 -1.2900 0.8325
7.1999 -45.9666 -1.3101 0.8301
10.0288 -43.4788 -1.2564 0.8365
8.1006 -30.1648 -0.8795 0.8825
13.8051 -39.8253 -1.1869 0.8448
15.0853 -35.1883 -1.0780 0.8580
16.1451 -34.2353 -1.0658 0.8594
17.9159 -34.7242 -1.1002 0.8553
19.8074 -35.2464 -1.1384 0.8506
-20.1672 -20.7221 -1.4664 0.8906
-19.4154 -21.4277 -1.4664 0.8906
-18.6391 -22.1063 -1.4664 0.8906
-17.8931 -22.8258 -1.4709 0.8903
-17.1247 -23.5273 -1.4758 0.8900
-9.4734 -14.0416 -0.8590 0.9344
-8.7199 -13.9749 -0.8354 0.9362
-7.9931 -13.8893 -0.8127 0.9378
-7.3192 -13.8372 -0.7939 0.9392
-6.0803 -13.7925 -0.7644 0.9414
-10.1909 -28.4566 -1.5329 0.8860
-8.2146 -25.8015 -1.3732 0.8972
-3.3197 -13.7497 -0.7173 0.9449
-2.8858 -14.1456 -0.7322 0.9438
-1.7153 -13.1280 -0.6714 0.9484
-1.2294 -13.0043 -0.6624 0.9490
-0.3252 -14.1769 -0.7192 0.9448
0.3790 -29.7304 -1.5079 0.8877
1.4394 -29.6622 -1.5060 0.8879
5.6353 -29.1394 -1.5052 0.8879
6.6644 -28.8920 -1.5037 0.8880
7.6834 -28.6110 -1.5024 0.8881
8.6914 -28.2957 -1.5012 0.8882
9.6923 -27.9607 -1.5008 0.8882
10.6890 -27.6124 -1.5016 0.8882
11.6560 -27.1891 -1.5002 0.8883
12.6072 -26.7335 -1.4990 0.8884
13.5456 -26.2544 -1.4983 0.8884
14.4768 -25.7608 -1.4986 0.8884
-15.3797 -15.8029 -1.6169 0.9154
-14.6443 -16.1621 -1.5991 0.9162
-12.6981 -16.1987 -1.5092 0.9208
-9.4471 -14.0025 -1.2385 0.9345
-7.9923 -13.8880 -1.1749 0.9378
-7.3177 -13.8344 -1.1475 0.9392
-6.6656 -13.7680 -1.1216 0.9405
-6.0662 -13.7604 -1.1026 0.9415
-5.5565 -13.9298 -1.0996 0.9416
-5.3353 -14.8982 -1.1603 0.9385
-6.0670 -19.0560 -1.4663 0.9229
-3.7993 -13.5921 -1.0348 0.9450
-1.7070 -13.0650 -0.9661 0.9485
-1.2186 -12.8896 -0.9493 0.9494
-0.2901 -12.6469 -0.9275 0.9505
0.9673 -19.9744 -1.4663 0.9229
1.6788 -19.9272 -1.4663 0.9229
6.5495 -18.8943 -1.4662 0.9229
7.2190 -18.6487 -1.4662 0.9229
8.5296 -18.0868 -1.4662 0.9229
9.7967 -17.4328 -1.4662 0.9229
-11.7600 -12.0835 -1.6188 0.9345
-10.8689 -12.8908 -1.6188 0.9345
-8.9259 -14.3049 -1.6188 0.9345
-7.8837 -14.9045 -1.6188 0.9345
-4.9671 -15.6012 -1.5719 0.9363
-3.2653 -13.5244 -1.3357 0.9456
-2.7300 -13.3818 -1.3112 0.9466
-1.2246 -12.9527 -1.2491 0.9491
-0.2912 -12.6938 -1.2190 0.9503
0.1708 -13.4252 -1.2890 0.9475
0.7387 -15.2552 -1.4663 0.9405
1.2822 -15.2191 -1.4663 0.9405
5.0021 -14.4303 -1.4663 0.9405
6.5144 -13.8136 -1.4662 0.9405
7.0027 -13.5725 -1.4662 0.9405
7.4822 -13.3142 -1.4662 0.9405
-9.8467 -9.4209 -1.6188 0.9466
-9.1503 -10.0987 -1.6188 0.9466
-8.7844 -10.4185 -1.6188 0.9466
-7.6216 -11.2969 -1.6188 0.9466
-7.2140 -11.5614 -1.6188 0.9466
-5.9382 -12.2655 -1.6187 0.9466
-5.4971 -12.4694 -1.6187 0.9466
-5.0490 -12.6575 -1.6187 0.9466
-4.5945 -12.8294 -1.6187 0.9466
-4.1341 -12.9850 -1.6187 0.9466
-3.1983 -13.2466 -1.6187 0.9466
-2.7239 -13.3521 -1.6187 0.9466
-2.2461 -13.4408 -1.6187 0.9466
-1.2826 -13.5666 -1.6187 0.9466
0.1734 -13.6259 -1.6187 0.9466
0.6591 -13.6110 -1.6187 0.9466
1.1440 -13.5788 -1.6187 0.9466
1.6274 -13.5294 -1.6187 0.9466
3.0627 -13.2782 -1.6187 0.9466
4.0012 -13.0261 -1.6187 0.9466
4.4631 -12.8751 -1.6187 0.9466
4.9193 -12.7078 -1.6187 0.9466
5.3692 -12.5243 -1.6187 0.9466
-7.0483 -8.9913 -1.6188 0.9549
-6.3896 -9.4707 -1.6187 0.9549
-6.0479 -9.6925 -1.6187 0.9549
-5.6984 -9.9020 -1.6187 0.9549
-5.3418 -10.0988 -1.6187 0.9549
-4.6085 -10.4538 -1.6187 0.9549
-3.8518 -10.7556 -1.6187 0.9549
-1.8830 -11.2681 -1.6187 0.9549
-0.2620 -11.4213 -1.6187 0.9549
0.1454 -11.4234 -1.6187 0.9549
0.5526 -11.4109 -1.6187 0.9549
2.1691 -11.2164 -1.6187 0.9549
2.5677 -11.1319 -1.6187 0.9549
2.9629 -11.0332 -1.6187 0.9549
4.5013 -10.4999 -1.6187 0.9549
4.8728 -10.3327 -1.6187 0.9549
5.2381 -10.1524 -1.6187 0.9549
-7.1000 -6.7929 -1.6188 0.9609
-6.8532 -7.0418 -1.6188 0.9609
-6.5978 -7.2816 -1.6188 0.9609
-5.2017 -8.3363 -1.6187 0.9609
-4.9011 -8.5165 -1.6187 0.9609
-3.9637 -8.9911 -1.6187 0.9609
-3.6406 -9.1267 -1.6187 0.9609
-3.3129 -9.2507 -1.6187 0.9609
-2.9809 -9.3629 -1.6187 0.9609
-2.3061 -9.5515 -1.6187 0.9609
-1.2730 -9.7431 -1.6187 0.9609
-0.9248 -9.7822 -1.6187 0.9609
0.1250 -9.8250 -1.6187 0.9609
0.4752 -9.8143 -1.6187 0.9609
1.1734 -9.7555 -1.6187 0.9610
1.5205 -9.7074 -1.6187 0.9610
2.8851 -9.3926 -1.6187 0.9610
3.2181 -9.2837 -1.6187 0.9610
4.1910 -8.8870 -1.6187 0.9610
4.5052 -8.7319 -1.6187 0.9610
4.8137 -8.5657 -1.6187 0.9610
-6.2228 -5.9537 -1.6188 0.9656
-5.5514 -6.5841 -1.6187 0.9656
-5.3132 -6.7779 -1.6187 0.9656
-5.0681 -6.9629 -1.6187 0.9656
-4.8166 -7.1392 -1.6187 0.9656
-4.2956 -7.4643 -1.6187 0.9656
-4.0267 -7.6127 -1.6187 0.9656
-3.1908 -7.9991 -1.6187 0.9656
-2.9036 -8.1078 -1.6187 0.9656
-2.6127 -8.2061 -1.6187 0.9656
-2.3184 -8.2941 -1.6187 0.9656
-1.7215 -8.4382 -1.6187 0.9656
-1.4195 -8.4942 -1.6187 0.9656
-1.1157 -8.5394 -1.6187 0.9656
-0.8106 -8.5737 -1.6187 0.9656
0.1096 -8.6112 -1.6187 0.9656
0.4165 -8.6018 -1.6187 0.9656
0.7230 -8.5815 -1.6187 0.9656
1.0284 -8.5502 -1.6187 0.9656
1.6352 -8.4552 -1.6187 0.9656
1.9356 -8.3915 -1.6187 0.9656
3.3932 -7.9151 -1.6187 0.9656
-5.1420 -5.6749 -1.6187 0.9692
-4.9364 -5.8546 -1.6187 0.9692
-4.0539 -6.4969 -1.6187 0.9692
-3.8197 -6.6373 -1.6187 0.9692
-2.5819 -7.2095 -1.6187 0.9692
-2.3232 -7.2970 -1.6187 0.9692
-2.0615 -7.3752 -1.6187 0.9692
-1.5307 -7.5033 -1.6187 0.9692
-1.2622 -7.5531 -1.6187 0.9692
-0.7208 -7.6238 -1.6187 0.9692
-0.1756 -7.6558 -1.6187 0.9692
0.3704 -7.6488 -1.6187 0.9692
0.6429 -7.6307 -1.6187 0.9692
0.9145 -7.6030 -1.6187 0.9692
1.4540 -7.5184 -1.6187 0.9692
1.9861 -7.3957 -1.6187 0.9692
2.5081 -7.2353 -1.6187 0.9692
3.2663 -6.9261 -1.6187 0.9692
3.5112 -6.8052 -1.6187 0.9692
-4.9767 -4.7615 -1.6187 0.9721
-4.6247 -5.1040 -1.6187 0.9721
-4.0532 -5.5686 -1.6187 0.9721
-3.6461 -5.8433 -1.6187 0.9721
-3.4354 -5.9696 -1.6187 0.9721
-3.0013 -6.1992 -1.6187 0.9721
-2.0895 -6.5629 -1.6187 0.9721
-1.6165 -6.6951 -1.6187 0.9721
-1.3767 -6.7485 -1.6187 0.9721
-0.4034 -6.8756 -1.6187 0.9721
0.3331 -6.8793 -1.6187 0.9721
0.5782 -6.8631 -1.6187 0.9721
1.5480 -6.7112 -1.6187 0.9721
1.7863 -6.6517 -1.6187 0.9721
2.2558 -6.5075 -1.6187 0.9721
2.4863 -6.4229 -1.6187 0.9721
2.7138 -6.3301 -1.6187 0.9721
3.1580 -6.1207 -1.6187 0.9721
3.3742 -6.0042 -1.6187 0.9721
-3.8570 -4.9203 -1.6187 0.9745
-3.3096 -5.3040 -1.6187 0.9745
-3.1184 -5.4187 -1.6187 0.9745
-2.5219 -5.7206 -1.6187 0.9745
-2.3164 -5.8069 -1.6187 0.9745
-1.8966 -5.9572 -1.6187 0.9745
-1.6830 -6.0210 -1.6187 0.9745
-1.4673 -6.0772 -1.6187 0.9745
-1.2497 -6.1257 -1.6187 0.9745
-1.0305 -6.1663 -1.6187 0.9745
-0.8100 -6.1992 -1.6187 0.9745
-0.5884 -6.2241 -1.6187 0.9745
0.5248 -6.2297 -1.6187 0.9745
0.9674 -6.1765 -1.6187 0.9745
1.4051 -6.0918 -1.6187 0.9745
1.6214 -6.0378 -1.6187 0.9745
2.2569 -5.8301 -1.6187 0.9745
2.6666 -5.6545 -1.6187 0.9745
2.8665 -5.5558 -1.6187 0.9745
3.0628 -5.4501 -1.6187 0.9745
-4.1316 -3.9529 -1.6187 0.9765
-3.9880 -4.0977 -1.6187 0.9765
-3.8394 -4.2373 -1.6187 0.9765
-3.5277 -4.5002 -1.6187 0.9765
-3.3650 -4.6231 -1.6187 0.9765
-3.1980 -4.7401 -1.6187 0.9765
-3.0270 -4.8511 -1.6187 0.9765
-2.8521 -4.9559 -1.6187 0.9765
-2.6735 -5.0545 -1.6187 0.9765
-2.4916 -5.1466 -1.6187 0.9765
-1.7347 -5.4485 -1.6187 0.9765
-1.5393 -5.5069 -1.6187 0.9765
-1.1430 -5.6025 -1.6187 0.9765
-0.9425 -5.6397 -1.6187 0.9765
-0.5382 -5.6926 -1.6187 0.9765
-0.3349 -5.7081 -1.6187 0.9765
-0.1311 -5.7164 -1.6187 0.9765
0.2766 -5.7112 -1.6187 0.9765
0.4800 -5.6977 -1.6187 0.9765
0.6829 -5.6770 -1.6187 0.9765
1.4830 -5.5222 -1.6187 0.9765
2.2530 -5.2553 -1.6187 0.9765
2.4389 -5.1716 -1.6187 0.9765
2.6217 -5.0814 -1.6187 0.9765
2.8012 -4.9847 -1.6187 0.9765
-3.5337 -3.9000 -1.6187 0.9782
-2.9434 -4.3627 -1.6187 0.9782
-2.7860 -4.4649 -1.6187 0.9782
-2.6250 -4.5614 -1.6187 0.9782
-2.4607 -4.6521 -1.6187 0.9782
-2.2933 -4.7369 -1.6187 0.9782
-2.1229 -4.8156 -1.6187 0.9782
-1.5966 -5.0147 -1.6187 0.9782
-1.4168 -5.0685 -1.6187 0.9782
-0.8674 -5.1908 -1.6187 0.9782
-0.6818 -5.2184 -1.6187 0.9782
-0.4953 -5.2394 -1.6187 0.9782
-0.3082 -5.2537 -1.6187 0.9782
0.6285 -5.2251 -1.6187 0.9782
0.8144 -5.1993 -1.6187 0.9782
0.9992 -5.1670 -1.6187 0.9782
1.3649 -5.0826 -1.6187 0.9782
1.5453 -5.0307 -1.6187 0.9782
2.0736 -4.8369 -1.6187 0.9782
2.2447 -4.7599 -1.6187 0.9782
2.4130 -4.6769 -1.6187 0.9782
-3.5187 -3.3665 -1.6187 0.9797
-3.3964 -3.4898 -1.6187 0.9797
-3.2698 -3.6087 -1.6187 0.9797
-3.0043 -3.8325 -1.6187 0.9797
-2.8658 -3.9372 -1.6187 0.9797
-2.5779 -4.1314 -1.6187 0.9797
-2.4290 -4.2207 -1.6187 0.9797
-2.2769 -4.3046 -1.6187 0.9797
-2.1220 -4.3831 -1.6187 0.9797
-1.8043 -4.5231 -1.6187 0.9797
-1.6418 -4.5846 -1.6187 0.9797
-1.4773 -4.6402 -1.6187 0.9797
-1.3110 -4.6899 -1.6187 0.9797
-1.1429 -4.7337 -1.6187 0.9797
-0.9734 -4.7714 -1.6187 0.9797
-0.8027 -4.8031 -1.6187 0.9797
0.4088 -4.8525 -1.6187 0.9797
0.5816 -4.8348 -1.6187 0.9797
0.7536 -4.8110 -1.6187 0.9797
0.9246 -4.7810 -1.6187 0.9797
1.2630 -4.7030 -1.6187 0.9797
1.4299 -4.6550 -1.6187 0.9797
1.9187 -4.4757 -1.6187 0.9797
2.0771 -4.4044 -1.6187 0.9797
2.3857 -4.2452 -1.6187 0.9797
-3.2707 -3.1293 -1.6187 0.9810
-2.6638 -3.6597 -1.6187 0.9810
-2.5316 -3.7524 -1.6187 0.9810
-2.2578 -3.9233 -1.6187 0.9810
-2.1165 -4.0012 -1.6187 0.9810
-1.8259 -4.1419 -1.6187 0.9810
-1.6771 -4.2044 -1.6187 0.9810
-1.3732 -4.3132 -1.6187 0.9810
-1.2186 -4.3594 -1.6187 0.9810
-0.7461 -4.4646 -1.6187 0.9810
-0.2651 -4.5187 -1.6187 0.9810
-0.1038 -4.5253 -1.6187 0.9810
0.0576 -4.5261 -1.6187 0.9810
0.2189 -4.5212 -1.6187 0.9810
0.7005 -4.4720 -1.6187 0.9810
1.1740 -4.3716 -1.6187 0.9810
1.6341 -4.2212 -1.6187 0.9810
2.0754 -4.0226 -1.6187 0.9810
2.2176 -3.9460 -1.6187 0.9810
-3.0521 -2.9201 -1.6187 0.9821
-2.9460 -3.0271 -1.6187 0.9821
-2.8362 -3.1302 -1.6187 0.9821
-2.7228 -3.2293 -1.6187 0.9821
-2.6060 -3.3244 -1.6187 0.9821
-1.9750 -3.7338 -1.6187 0.9821
-1.8406 -3.8019 -1.6187 0.9821
-1.7039 -3.8651 -1.6187 0.9821
-1.5650 -3.9234 -1.6187 0.9821
-1.2814 -4.0249 -1.6187 0.9821
-1.1371 -4.0681 -1.6187 0.9821
-0.8443 -4.1388 -1.6187 0.9821
-0.5472 -4.1884 -1.6187 0.9821
-0.2474 -4.2167 -1.6187 0.9821
0.2043 -4.2190 -1.6187 0.9821
0.3546 -4.2091 -1.6187 0.9821
0.6536 -4.1731 -1.6187 0.9821
0.9494 -4.1159 -1.6187 0.9821
1.0955 -4.0794 -1.6187 0.9821
1.2403 -4.0378 -1.6187 0.9821
1.3834 -3.9910 -1.6187 0.9821
1.5248 -3.9391 -1.6187 0.9821
1.6643 -3.8822 -1.6187 0.9821
1.9368 -3.7537 -1.6187 0.9821
-2.8578 -2.7342 -1.6187 0.9831
-2.7585 -2.8344 -1.6187 0.9831
-2.6557 -2.9309 -1.6187 0.9831
-2.3275 -3.1977 -1.6187 0.9831
-2.2120 -3.2787 -1.6187 0.9831
-2.0937 -3.3555 -1.6187 0.9831
-1.8493 -3.4961 -1.6187 0.9831
-1.3335 -3.7235 -1.6187 0.9831
-1.1999 -3.7687 -1.6187 0.9831
-0.9282 -3.8446 -1.6187 0.9831
-0.7906 -3.8753 -1.6187 0.9831
-0.6519 -3.9010 -1.6187 0.9831
-0.3723 -3.9375 -1.6187 0.9831
-0.2316 -3.9483 -1.6187 0.9831
-0.0907 -3.9540 -1.6187 0.9831
0.1913 -3.9504 -1.6187 0.9831
0.3320 -3.9411 -1.6187 0.9831
0.6120 -3.9074 -1.6187 0.9831
0.8889 -3.8538 -1.6187 0.9831
1.0258 -3.8197 -1.6187 0.9831
1.1613 -3.7807 -1.6187 0.9831
1.4278 -3.6883 -1.6187 0.9831
1.5584 -3.6351 -1.6187 0.9831
1.6870 -3.5772 -1.6187 0.9831
1.8134 -3.5148 -1.6187 0.9831
-2.6837 -2.5677 -1.6187 0.9839
-2.5905 -2.6617 -1.6187 0.9839
-2.4939 -2.7524 -1.6187 0.9839
-2.2914 -2.9231 -1.6187 0.9839
-2.1858 -3.0030 -1.6187 0.9839
-2.0773 -3.0790 -1.6187 0.9839
-1.9662 -3.1511 -1.6187 0.9839
-1.7366 -3.2832 -1.6187 0.9839
-1.4983 -3.3986 -1.6187 0.9839
-1.3761 -3.4499 -1.6187 0.9839
-1.2523 -3.4967 -1.6187 0.9839
-0.9999 -3.5771 -1.6187 0.9839
-0.7424 -3.6392 -1.6187 0.9839
-0.6122 -3.6634 -1.6187 0.9839
-0.4812 -3.6829 -1.6187 0.9839
-0.2175 -3.7078 -1.6187 0.9839
-0.0852 -3.7132 -1.6187 0.9839
0.3118 -3.7011 -1.6187 0.9839
0.4436 -3.6876 -1.6187 0.9839
0.8348 -3.6191 -1.6187 0.9839
0.9633 -3.5871 -1.6187 0.9839
1.0906 -3.5504 -1.6187 0.9839
1.2165 -3.5093 -1.6187 0.9839
1.4635 -3.4137 -1.6187 0.9839
1.5842 -3.3593 -1.6187 0.9839
-2.1575 -2.7522 -1.6187 0.9847
-1.8512 -2.9668 -1.6187 0.9847
-1.7443 -3.0309 -1.6187 0.9847
-1.6351 -3.0912 -1.6187 0.9847
-1.5238 -3.1475 -1.6187 0.9847
-1.2957 -3.2481 -1.6187 0.9847
-0.9414 -3.3679 -1.6187 0.9847
-0.5764 -3.4492 -1.6187 0.9847
-0.2048 -3.4910 -1.6187 0.9847
0.2936 -3.4846 -1.6187 0.9847
0.9070 -3.3773 -1.6187 0.9847
1.4916 -3.1629 -1.6187 0.9847
1.7132 -3.0486 -1.6187 0.9847
-2.1272 -2.5229 -1.6187 0.9854
-2.0359 -2.5971 -1.6187 0.9854
-1.9420 -2.6681 -1.6187 0.9854
-1.8456 -2.7356 -1.6187 0.9854
-1.7469 -2.7997 -1.6187 0.9854
-1.6460 -2.8602 -1.6187 0.9854
-1.5430 -2.9170 -1.6187 0.9854
-1.3312 -3.0196 -1.6187 0.9854
-1.2226 -3.0651 -1.6187 0.9854
-1.0011 -3.1445 -1.6187 0.9854
-0.8884 -3.1781 -1.6187 0.9854
-0.4275 -3.2721 -1.6187 0.9854
-0.3106 -3.2853 -1.6187 0.9854
0.1596 -3.2961 -1.6187 0.9854
0.5107 -3.2602 -1.6187 0.9854
0.6266 -3.2399 -1.6187 0.9854
0.7417 -3.2155 -1.6187 0.9854
0.8559 -3.1870 -1.6187 0.9854
0.9690 -3.1545 -1.6187 0.9854
1.3003 -3.0330 -1.6187 0.9854
1.4076 -2.9847 -1.6187 0.9854
-2.2546 -2.1571 -1.6187 0.9860
-2.0951 -2.3122 -1.6187 0.9860
-2.0113 -2.3855 -1.6187 0.9860
-1.9250 -2.4557 -1.6187 0.9860
-1.7451 -2.5866 -1.6187 0.9860
-1.6518 -2.6472 -1.6187 0.9860
-1.5563 -2.7044 -1.6187 0.9860
-1.3597 -2.8084 -1.6187 0.9860
-1.2587 -2.8551 -1.6187 0.9860
-1.0520 -2.9376 -1.6187 0.9860
-0.8400 -3.0050 -1.6187 0.9860
-0.6237 -3.0573 -1.6187 0.9860
-0.5143 -3.0775 -1.6187 0.9860
-0.4042 -3.0939 -1.6187 0.9860
-0.1827 -3.1149 -1.6187 0.9860
0.0397 -3.1200 -1.6187 0.9860
0.3726 -3.0979 -1.6187 0.9860
0.5925 -3.0634 -1.6187 0.9860
0.7013 -3.0404 -1.6187 0.9860
0.8092 -3.0134 -1.6187 0.9860
1.0220 -2.9481 -1.6187 0.9860
1.2294 -2.8678 -1.6187 0.9860
1.3309 -2.8221 -1.6187 0.9860
1.4307 -2.7729 -1.6187 0.9860
1.5286 -2.7201 -1.6187 0.9860
-2.1355 -2.0432 -1.6187 0.9866
-1.9051 -2.2595 -1.6187 0.9866
-1.8233 -2.3260 -1.6187 0.9866
-1.6529 -2.4500 -1.6187 0.9866
-1.5645 -2.5074 -1.6187 0.9866
-1.2878 -2.6601 -1.6187 0.9866
-0.9964 -2.7824 -1.6187 0.9866
-0.8966 -2.8162 -1.6187 0.9866
-0.7956 -2.8463 -1.6187 0.9866
-0.2782 -2.9423 -1.6187 0.9866
0.0376 -2.9552 -1.6187 0.9866
0.1430 -2.9520 -1.6187 0.9866
0.4573 -2.9198 -1.6187 0.9866
0.5612 -2.9017 -1.6187 0.9866
0.6643 -2.8798 -1.6187 0.9866
0.7665 -2.8543 -1.6187 0.9866
1.2606 -2.6731 -1.6187 0.9866
-0.9185 -0.8788 -0.7339 0.9941
-1.8825 -2.0777 -1.6187 0.9871
-1.8073 -2.1435 -1.6187 0.9871
-1.7297 -2.2065 -1.6187 0.9871
-1.5681 -2.3242 -1.6187 0.9871
-1.3985 -2.4300 -1.6187 0.9871
-1.3109 -2.4783 -1.6187 0.9871
-1.2217 -2.5235 -1.6187 0.9871
-1.0388 -2.6042 -1.6187 0.9871
-0.9453 -2.6395 -1.6187 0.9871
-0.6580 -2.7254 -1.6187 0.9871
-0.5604 -2.7471 -1.6187 0.9871
-0.3632 -2.7801 -1.6187 0.9871
-0.2639 -2.7912 -1.6187 0.9871
-0.1642 -2.7989 -1.6187 0.9871
-0.0643 -2.8029 -1.6187 0.9871
0.0357 -2.8034 -1.6187 0.9871
0.1356 -2.8004 -1.6187 0.9871
0.3348 -2.7836 -1.6187 0.9871
0.4339 -2.7699 -1.6187 0.9871
0.5323 -2.7527 -1.6187 0.9871
0.7272 -2.7077 -1.6187 0.9871
0.8232 -2.6801 -1.6187 0.9871
0.9183 -2.6490 -1.6187 0.9871
1.3736 -2.4442 -1.6187 0.9871
