ply
format ascii 1.0
element vertex 375
property float32 x
property float32 y
property float32 z
property float32 I
end_header
2.8494 6.6387 1.2738 0.9711
2.8490 6.6377 1.1066 0.9712
21.8736 38.9348 5.8155 0.8352
2.8483 6.6360 0.7755 0.9714
39.5809 24.9425 0.7900 0.8293
40.3268 27.4577 0.8241 0.8227
2.8470 6.6330 0.1219 0.9715
17.6871 29.0218 -0.1914 0.8729
18.1477 32.3026 -1.0433 0.8622
27.0008 17.0149 -1.6185 0.8800
25.0410 19.7869 -1.6185 0.8800
24.3235 20.6626 -1.6186 0.8800
23.5755 21.5124 -1.6186 0.8800
22.7978 22.3351 -1.6186 0.8800
21.9914 23.1297 -1.6186 0.8800
21.1573 23.8952 -1.6186 0.8800
20.2966 24.6307 -1.6186 0.8800
19.4104 25.3351 -1.6186 0.8800
15.0459 24.6880 -1.4662 0.8907
7.5318 27.9145 -1.4663 0.8907
6.5371 28.1641 -1.4663 0.8907
4.5242 28.5570 -1.4663 0.8907
2.4885 28.8062 -1.4663 0.8907
1.4652 28.8765 -1.4663 0.8907
0.4402 28.9104 -1.4663 0.8906
19.0817 11.0992 -1.6186 0.9153
18.6761 11.7690 -1.6186 0.9153
18.2470 12.4240 -1.6186 0.9153
17.7949 13.0634 -1.6186 0.9153
16.8242 14.2920 -1.6186 0.9153
16.3067 14.8798 -1.6186 0.9153
15.2110 15.9984 -1.6186 0.9153
13.2563 14.9718 -1.4662 0.9229
12.1617 15.8739 -1.4662 0.9229
11.5911 16.2953 -1.4662 0.9229
10.4068 17.0761 -1.4663 0.9229
2.8457 6.6300 -0.5290 0.9715
6.5650 18.8895 -1.4663 0.9229
3.1292 19.7519 -1.4663 0.9229
2.4267 19.8505 -1.4663 0.9229
1.7212 19.9241 -1.4663 0.9229
1.0134 19.9727 -1.4663 0.9229
0.3043 19.9962 -1.4663 0.9229
-0.4049 19.9944 -1.4663 0.9229
-1.1138 19.9676 -1.4663 0.9229
14.5736 8.4770 -1.6186 0.9345
14.2638 8.9886 -1.6186 0.9345
13.9361 9.4888 -1.6186 0.9345
13.2284 10.4529 -1.6186 0.9345
12.4542 11.3643 -1.6186 0.9345
11.5812 12.1807 -1.6136 0.9347
7.4807 13.3154 -1.4663 0.9405
6.5179 13.8123 -1.4663 0.9405
5.5224 14.2397 -1.4663 0.9405
5.0139 14.4266 -1.4663 0.9405
3.9787 14.7458 -1.4663 0.9405
3.4532 14.8777 -1.4663 0.9405
2.3899 15.0851 -1.4663 0.9405
0.2325 15.2717 -1.4663 0.9405
-0.8507 15.2498 -1.4663 0.9405
11.5284 7.2648 -1.6186 0.9466
11.2635 7.6691 -1.6186 0.9466
10.9844 8.0638 -1.6186 0.9466
10.3852 8.8221 -1.6186 0.9466
10.0658 9.1849 -1.6186 0.9466
9.7337 9.5362 -1.6186 0.9466
8.4435 9.5362 -1.5130 0.9500
7.1549 10.0587 -1.4663 0.9515
6.0460 10.7618 -1.4663 0.9515
5.6605 10.9695 -1.4663 0.9515
2.8008 6.5255 -0.8435 0.9718
4.4634 11.5088 -1.4663 0.9515
3.6363 11.7963 -1.4663 0.9515
2.7910 12.0244 -1.4663 0.9515
2.3627 12.1159 -1.4663 0.9515
1.9316 12.1921 -1.4663 0.9515
1.0624 12.2984 -1.4663 0.9515
9.6650 6.0905 -1.6186 0.9549
9.4429 6.4295 -1.6186 0.9549
8.7066 7.3962 -1.6187 0.9549
8.4388 7.7003 -1.6187 0.9549
7.8717 8.2792 -1.6187 0.9549
7.5574 8.5354 -1.6153 0.9550
6.2937 8.2147 -1.4663 0.9591
5.9984 8.4328 -1.4663 0.9591
5.6955 8.6402 -1.4663 0.9591
3.7419 9.6485 -1.4663 0.9591
1.2558 10.2723 -1.4663 0.9591
0.5244 10.3355 -1.4663 0.9591
-0.5764 10.3328 -1.4663 0.9591
8.4933 4.9402 -1.6187 0.9610
8.3127 5.2384 -1.6187 0.9610
8.1217 5.5299 -1.6187 0.9610
7.9205 5.8145 -1.6187 0.9610
7.7093 6.0917 -1.6187 0.9610
7.2581 6.6229 -1.6187 0.9610
7.0186 6.8762 -1.6187 0.9610
6.7703 7.1208 -1.6187 0.9610
5.9482 7.7638 -1.6112 0.9611
5.2545 7.3870 -1.4934 0.9639
4.3595 7.7599 -1.4663 0.9646
3.7985 8.0494 -1.4663 0.9646
3.2183 8.2985 -1.4663 0.9646
2.9220 8.4074 -1.4663 0.9646
2.6220 8.5058 -1.4663 0.9646
2.3187 8.5934 -1.4663 0.9646
1.3928 8.7912 -1.4663 0.9646
0.7661 8.8678 -1.4663 0.9646
0.4511 8.8894 -1.4663 0.9646
0.1355 8.8998 -1.4663 0.9646
-0.1802 8.8990 -1.4663 0.9646
6.9420 5.0962 -1.6187 0.9656
6.5633 5.5754 -1.6187 0.9656
6.3614 5.8047 -1.6187 0.9656
6.1515 6.0267 -1.6187 0.9656
5.9339 6.2411 -1.6187 0.9656
5.7088 6.4476 -1.6187 0.9656
5.4766 6.6460 -1.6187 0.9656
5.2374 6.8361 -1.6187 0.9656
4.9776 6.9978 -1.6141 0.9657
4.1294 6.7758 -1.4915 0.9682
2.2980 7.4550 -1.4663 0.9687
2.0322 7.5318 -1.4663 0.9687
1.7638 7.5991 -1.4663 0.9687
1.4932 7.6569 -1.4663 0.9687
0.9466 7.7435 -1.4663 0.9687
0.3954 7.7912 -1.4663 0.9687
-0.1580 7.7996 -1.4663 0.9687
5.8361 4.9577 -1.6187 0.9692
5.0764 5.7333 -1.6187 0.9692
4.8698 5.9097 -1.6187 0.9692
4.6572 6.0787 -1.6187 0.9692
4.2106 6.3876 -1.6172 0.9692
3.2787 6.3538 -1.5113 0.9712
2.7360 6.3744 -1.4663 0.9720
2.5082 6.4675 -1.4663 0.9720
1.8071 6.6973 -1.4663 0.9720
1.3277 6.8086 -1.4663 0.9720
1.0854 6.8514 -1.4663 0.9720
0.5970 6.9111 -1.4663 0.9720
-0.1404 6.9355 -1.4663 0.9720
-0.3864 6.9261 -1.4663 0.9720
5.9534 3.4629 -1.6187 0.9721
5.8268 3.6719 -1.6187 0.9721
5.5519 4.0757 -1.6187 0.9721
4.9197 4.8199 -1.6187 0.9721
4.7457 4.9914 -1.6187 0.9721
4.5657 5.1565 -1.6187 0.9721
4.3799 5.3152 -1.6187 0.9721
3.9922 5.6123 -1.6187 0.9721
3.5843 5.8812 -1.6187 0.9721
2.9075 6.1614 -1.6012 0.9724
2.5897 6.0336 -1.5431 0.9734
2.2956 5.9192 -1.4921 0.9743
1.6253 6.0236 -1.4663 0.9747
0.9762 6.1622 -1.4663 0.9747
0.7571 6.1929 -1.4663 0.9747
0.3162 6.2310 -1.4663 0.9747
0.0950 6.2383 -1.4663 0.9747
-0.1263 6.2378 -1.4663 0.9747
-0.3475 6.2294 -1.4663 0.9747
5.1676 3.5185 -1.6187 0.9745
4.7646 4.0475 -1.6187 0.9745
4.4657 4.3751 -1.6187 0.9745
4.1444 4.6807 -1.6187 0.9745
3.8021 4.9627 -1.6187 0.9745
3.6238 5.0944 -1.6187 0.9745
3.0621 5.4505 -1.6187 0.9745
2.8669 5.5557 -1.6187 0.9745
2.6658 5.6492 -1.6174 0.9745
2.0085 5.7790 -1.5841 0.9750
1.7506 5.6788 -1.5386 0.9757
1.5066 5.5837 -1.4974 0.9764
1.2804 5.5166 -1.4663 0.9769
1.0840 5.5585 -1.4663 0.9769
0.4874 5.6422 -1.4663 0.9769
-0.3154 5.6545 -1.4663 0.9769
4.9425 2.8749 -1.6187 0.9765
4.4863 3.5450 -1.6187 0.9765
3.9399 4.1438 -1.6187 0.9765
2.9757 4.8826 -1.6187 0.9765
2.8006 4.9851 -1.6187 0.9765
2.4402 5.1711 -1.6187 0.9765
2.2553 5.2544 -1.6187 0.9765
1.8742 5.3925 -1.6161 0.9765
1.4833 5.4974 -1.6119 0.9766
1.0526 5.3977 -1.5568 0.9774
0.6422 5.2527 -1.4981 0.9782
0.4479 5.1843 -1.4731 0.9786
4.5491 2.6460 -1.6187 0.9782
4.2423 3.1143 -1.6187 0.9782
4.1292 3.2628 -1.6187 0.9782
3.7592 3.6829 -1.6187 0.9782
3.3468 4.0614 -1.6187 0.9782
2.8965 4.3939 -1.6187 0.9782
2.5777 4.5882 -1.6187 0.9782
2.4133 4.6767 -1.6187 0.9782
2.0757 4.8361 -1.6187 0.9782
1.9029 4.9067 -1.6187 0.9782
1.7277 4.9711 -1.6187 0.9782
1.5503 5.0292 -1.6187 0.9782
1.3703 5.0785 -1.6179 0.9782
1.1880 5.1184 -1.6162 0.9783
1.0047 5.1521 -1.6145 0.9783
0.6358 5.2007 -1.6115 0.9783
0.4457 5.1590 -1.5927 0.9786
0.2584 5.0924 -1.5683 0.9789
0.0766 5.0304 -1.5474 0.9792
-0.2743 4.9173 -1.5148 0.9796
4.0252 2.7407 -1.6187 0.9797
3.8208 3.0191 -1.6187 0.9797
3.7113 3.1527 -1.6187 0.9797
3.5971 3.2824 -1.6187 0.9797
3.4785 3.4079 -1.6187 0.9797
2.0782 4.4040 -1.6187 0.9797
1.4345 4.6536 -1.6187 0.9797
1.1010 4.7436 -1.6187 0.9797
0.7619 4.8090 -1.6185 0.9797
0.5903 4.8290 -1.6171 0.9797
0.4184 4.8431 -1.6159 0.9797
0.0739 4.8541 -1.6137 0.9797
-0.0982 4.8510 -1.6128 0.9798
3.8295 2.4132 -1.6187 0.9810
3.5515 2.8063 -1.6187 0.9810
3.4497 2.9305 -1.6187 0.9810
3.2333 3.1677 -1.6187 0.9810
2.8786 3.4932 -1.6187 0.9810
2.7529 3.5931 -1.6187 0.9810
2.4912 3.7792 -1.6187 0.9810
2.3556 3.8652 -1.6187 0.9810
1.9317 4.0936 -1.6187 0.9810
1.6367 4.2202 -1.6187 0.9810
1.4860 4.2756 -1.6187 0.9810
1.3334 4.3256 -1.6187 0.9810
1.1792 4.3702 -1.6187 0.9810
1.0234 4.4093 -1.6187 0.9810
0.8664 4.4428 -1.6187 0.9810
0.7083 4.4708 -1.6187 0.9810
-0.0916 4.5239 -1.6181 0.9810
-0.2519 4.5157 -1.6174 0.9810
3.4915 2.3773 -1.6187 0.9821
3.3142 2.6188 -1.6187 0.9821
2.9105 3.0612 -1.6187 0.9821
2.6862 3.2598 -1.6187 0.9821
1.6660 3.8815 -1.6187 0.9821
1.3867 3.9899 -1.6187 0.9821
1.2443 4.0366 -1.6187 0.9821
0.6609 4.1720 -1.6187 0.9821
0.5126 4.1928 -1.6187 0.9821
0.3635 4.2083 -1.6187 0.9821
0.2141 4.2186 -1.6187 0.9821
-0.0855 4.2232 -1.6187 0.9821
3.4187 1.9886 -1.6187 0.9831
3.3461 2.1086 -1.6187 0.9831
3.1882 2.3405 -1.6187 0.9831
3.1032 2.4521 -1.6187 0.9831
2.8251 2.7678 -1.6187 0.9831
2.7252 2.8663 -1.6187 0.9831
2.6218 2.9611 -1.6187 0.9831
2.2925 3.2229 -1.6187 0.9831
2.0583 3.3773 -1.6187 0.9831
1.9372 3.4481 -1.6187 0.9831
1.8137 3.5147 -1.6187 0.9831
1.6879 3.5768 -1.6187 0.9831
1.5599 3.6344 -1.6187 0.9831
1.4301 3.6875 -1.6187 0.9831
1.2984 3.7359 -1.6187 0.9831
1.1651 3.7796 -1.6187 0.9831
1.0303 3.8185 -1.6187 0.9831
0.8942 3.8526 -1.6187 0.9831
0.6189 3.9064 -1.6187 0.9831
0.4799 3.9258 -1.6187 0.9831
0.3404 3.9404 -1.6187 0.9831
0.2004 3.9500 -1.6187 0.9831
-0.0801 3.9543 -1.6187 0.9831
3.2105 1.8675 -1.6187 0.9839
3.1423 1.9802 -1.6187 0.9839
2.9940 2.1979 -1.6187 0.9839
2.5592 2.6917 -1.6187 0.9839
2.4622 2.7808 -1.6187 0.9839
2.3620 2.8664 -1.6187 0.9839
2.1529 3.0266 -1.6187 0.9839
1.9329 3.1716 -1.6187 0.9839
1.7032 3.3006 -1.6187 0.9839
1.5851 3.3590 -1.6187 0.9839
0.9676 3.5860 -1.6187 0.9839
0.7109 3.6455 -1.6187 0.9839
0.5812 3.6685 -1.6187 0.9839
0.4507 3.6867 -1.6187 0.9839
0.3197 3.7004 -1.6187 0.9839
0.1882 3.7094 -1.6187 0.9839
-0.0752 3.7134 -1.6187 0.9839
2.9585 1.8644 -1.6187 0.9847
2.8906 1.9681 -1.6187 0.9847
2.8189 2.0694 -1.6187 0.9847
2.6651 2.2640 -1.6187 0.9847
2.4980 2.4473 -1.6187 0.9847
2.3182 2.6182 -1.6187 0.9847
1.9246 2.9197 -1.6187 0.9847
1.7128 3.0488 -1.6187 0.9847
1.3793 3.2135 -1.6187 0.9847
1.1480 3.3032 -1.6187 0.9847
0.7907 3.4065 -1.6187 0.9847
0.3010 3.4840 -1.6187 0.9847
0.0533 3.4966 -1.6187 0.9847
-0.0708 3.4963 -1.6187 0.9847
-0.1948 3.4916 -1.6187 0.9847
2.7918 1.7593 -1.6187 0.9854
2.7277 1.8572 -1.6187 0.9854
2.3572 2.3094 -1.6187 0.9854
2.0986 2.5467 -1.6187 0.9854
2.0069 2.6195 -1.6187 0.9854
1.9128 2.6891 -1.6187 0.9854
1.8162 2.7552 -1.6187 0.9854
1.7173 2.8179 -1.6187 0.9854
1.1932 3.0767 -1.6187 0.9854
1.0833 3.1171 -1.6187 0.9854
0.8597 3.1860 -1.6187 0.9854
0.7461 3.2145 -1.6187 0.9854
0.2840 3.2877 -1.6187 0.9854
0.1672 3.2957 -1.6187 0.9854
0.0503 3.2996 -1.6187 0.9854
-0.0668 3.2993 -1.6187 0.9854
-0.1838 3.2949 -1.6187 0.9854
2.4482 1.9345 -1.6187 0.9860
2.3780 2.0201 -1.6187 0.9860
2.2288 2.1836 -1.6187 0.9860
2.1500 2.2613 -1.6187 0.9860
1.9843 2.4080 -1.6187 0.9860
1.6238 2.6644 -1.6187 0.9860
1.5283 2.7203 -1.6187 0.9860
1.4308 2.7728 -1.6187 0.9860
1.3316 2.8218 -1.6187 0.9860
1.2307 2.8673 -1.6187 0.9860
1.1282 2.9091 -1.6187 0.9860
0.9192 2.9818 -1.6187 0.9860
0.7055 3.0394 -1.6187 0.9860
0.3786 3.0972 -1.6187 0.9860
0.0475 3.1199 -1.6187 0.9860
-0.1738 3.1154 -1.6187 0.9860
2.5547 1.4860 -1.6187 0.9866
2.5004 1.5756 -1.6187 0.9866
2.3824 1.7489 -1.6187 0.9866
2.3189 1.8323 -1.6187 0.9866
2.1111 2.0683 -1.6187 0.9866
2.0364 2.1418 -1.6187 0.9866
1.8795 2.2808 -1.6187 0.9866
1.7974 2.3461 -1.6187 0.9866
1.7131 2.4083 -1.6187 0.9866
1.4476 2.5767 -1.6187 0.9866
1.1657 2.7158 -1.6187 0.9866
1.0686 2.7555 -1.6187 0.9866
0.7699 2.8534 -1.6187 0.9866
0.1498 2.9517 -1.6187 0.9866
0.0450 2.9551 -1.6187 0.9866
-0.0598 2.9549 -1.6187 0.9866
-0.1646 2.9509 -1.6187 0.9866
2.4235 1.4097 -1.6187 0.9871
2.3720 1.4947 -1.6187 0.9871
2.3175 1.5779 -1.6187 0.9871
2.2601 1.6591 -1.6187 0.9871
2.1368 1.8152 -1.6187 0.9871
1.7830 2.1637 -1.6187 0.9871
1.7051 2.2256 -1.6187 0.9871
1.6251 2.2846 -1.6187 0.9871
1.5431 2.3408 -1.6187 0.9871
1.4591 2.3941 -1.6187 0.9871
1.1965 2.5355 -1.6187 0.9871
0.8259 2.6793 -1.6187 0.9871
0.7304 2.7069 -1.6187 0.9871
0.6339 2.7311 -1.6187 0.9871
0.3402 2.7830 -1.6187 0.9871
0.0427 2.8034 -1.6187 0.9871
-0.0568 2.8031 -1.6187 0.9871
-0.1562 2.7994 -1.6187 0.9871
