ply
format ascii 1.0
element vertex 338
property float32 x
property float32 y
property float32 z
property float32 I
end_header
21.8377 -35.8069 -1.1810 0.8455
26.1717 -36.6715 -1.2686 0.8350
17.0034 -19.0710 -0.7194 0.9028
15.1320 -10.1306 -0.5128 0.9297
15.3718 -25.2049 -1.4972 0.8885
17.1391 -24.0150 -1.4963 0.8885
17.9766 -23.3573 -1.4947 0.8887
12.4739 -12.1064 -0.8816 0.9327
21.8030 -19.6833 -1.4897 0.8890
22.4734 -18.8619 -1.4879 0.8891
13.8719 -10.8139 -0.8920 0.9320
15.1853 -10.1663 -0.9268 0.9294
15.1710 -9.3819 -0.9046 0.9311
25.3746 -14.4528 -1.4809 0.8896
26.2945 -12.5577 -1.4778 0.8898
27.3954 -9.6061 -1.4723 0.8902
27.6860 -8.5992 -1.4702 0.8904
27.9419 -7.5844 -1.4683 0.8905
28.3730 -5.5406 -1.4661 0.8907
24.0149 -2.9115 -1.2268 0.9077
28.8750 -1.4001 -1.4661 0.8907
11.6164 -16.2767 -1.4662 0.9229
12.1962 -15.8468 -1.4662 0.9229
12.7602 -15.3963 -1.4662 0.9229
10.4188 -11.6857 -1.1479 0.9391
12.7051 -12.3308 -1.2982 0.9315
14.8428 -13.3997 -1.4662 0.9229
14.0221 -10.1391 -1.2687 0.9330
16.6163 -11.1244 -1.4662 0.9229
15.1817 -9.3886 -1.3088 0.9309
17.3755 -9.8967 -1.4662 0.9229
17.7213 -9.2631 -1.4662 0.9229
18.0441 -8.6175 -1.4662 0.9229
18.6187 -7.2933 -1.4662 0.9229
20.7680 -4.8397 -1.5636 0.9180
21.9140 -2.6568 -1.6185 0.9153
7.9521 -13.0389 -1.4662 0.9405
9.3148 -12.1029 -1.4662 0.9405
10.6480 -11.1082 -1.4773 0.9400
11.7322 -10.5916 -1.5174 0.9385
12.8535 -10.0200 -1.5647 0.9366
13.9546 -9.3423 -1.6122 0.9347
14.9414 -7.8100 -1.6186 0.9345
15.4658 -6.7118 -1.6186 0.9345
15.6980 -6.1492 -1.6186 0.9345
15.9097 -5.5787 -1.6186 0.9345
16.5468 -3.2312 -1.6186 0.9345
16.6527 -2.6319 -1.6186 0.9345
16.7368 -2.0292 -1.6186 0.9345
16.7992 -1.4238 -1.6186 0.9345
16.8396 -0.8165 -1.6186 0.9345
7.0951 -11.6337 -1.6186 0.9466
7.5104 -11.3700 -1.6186 0.9466
7.9158 -11.0915 -1.6186 0.9466
9.0683 -10.1709 -1.6186 0.9466
9.7783 -9.4902 -1.6186 0.9466
10.4374 -8.7601 -1.6186 0.9466
10.7468 -8.3777 -1.6186 0.9466
11.8404 -6.7440 -1.6186 0.9466
12.2960 -5.8723 -1.6186 0.9466
12.5000 -5.4247 -1.6186 0.9466
12.6876 -4.9700 -1.6186 0.9466
13.2707 -3.0925 -1.6186 0.9466
13.4592 -2.1272 -1.6186 0.9466
13.5272 -1.6400 -1.6186 0.9466
13.6103 -0.6599 -1.6186 0.9466
5.9482 -9.7532 -1.6187 0.9549
6.2964 -9.5322 -1.6187 0.9549
6.6363 -9.2987 -1.6187 0.9549
6.9676 -9.0531 -1.6186 0.9549
7.2898 -8.7958 -1.6186 0.9549
7.9053 -8.2469 -1.6186 0.9549
8.1978 -7.9562 -1.6186 0.9549
8.4796 -7.6552 -1.6186 0.9549
8.7503 -7.3441 -1.6186 0.9549
9.0097 -7.0235 -1.6186 0.9549
9.4929 -6.3553 -1.6186 0.9549
9.9265 -5.6539 -1.6186 0.9549
10.3085 -4.9231 -1.6186 0.9549
10.7803 -3.7800 -1.6186 0.9549
11.0248 -2.9925 -1.6186 0.9549
11.1257 -2.5927 -1.6186 0.9549
11.2120 -2.1894 -1.6186 0.9549
11.2837 -1.7833 -1.6186 0.9549
5.1160 -8.3886 -1.6187 0.9610
5.4154 -8.1985 -1.6187 0.9610
5.7078 -7.9977 -1.6187 0.9610
5.9927 -7.7865 -1.6187 0.9610
6.2698 -7.5651 -1.6187 0.9610
7.0508 -6.8431 -1.6187 0.9610
7.5260 -6.3166 -1.6186 0.9610
7.9621 -5.7572 -1.6186 0.9610
8.1647 -5.4661 -1.6186 0.9610
8.3567 -5.1679 -1.6186 0.9610
8.8663 -4.2343 -1.6186 0.9610
9.2720 -3.2512 -1.6186 0.9610
9.6433 -1.8831 -1.6186 0.9610
9.7050 -1.5338 -1.6186 0.9610
9.7540 -1.1825 -1.6186 0.9610
9.7904 -0.8298 -1.6186 0.9610
9.8139 -0.4758 -1.6186 0.9610
4.4840 -7.3523 -1.6187 0.9656
5.2524 -6.8245 -1.6187 0.9656
5.4953 -6.6305 -1.6187 0.9656
5.9592 -6.2168 -1.6187 0.9656
6.5963 -5.5363 -1.6187 0.9656
7.1560 -4.7908 -1.6187 0.9656
7.4829 -4.2621 -1.6187 0.9656
7.7709 -3.7112 -1.6186 0.9656
8.1265 -2.8495 -1.6186 0.9656
8.3109 -2.2559 -1.6186 0.9656
8.3869 -1.9544 -1.6186 0.9656
8.5060 -1.3443 -1.6186 0.9656
8.5490 -1.0365 -1.6186 0.9656
8.5808 -0.7272 -1.6186 0.9656
3.9872 -6.5377 -1.6187 0.9692
4.2205 -6.3896 -1.6187 0.9692
4.6705 -6.0684 -1.6187 0.9692
5.2990 -5.5280 -1.6187 0.9692
5.4951 -5.3332 -1.6187 0.9692
5.8655 -4.9229 -1.6187 0.9692
6.0393 -4.7080 -1.6187 0.9692
6.2053 -4.4869 -1.6187 0.9692
6.6539 -3.7899 -1.6187 0.9692
6.7864 -3.5473 -1.6187 0.9692
7.0246 -3.0485 -1.6187 0.9692
7.1300 -2.7930 -1.6187 0.9692
7.2262 -2.5338 -1.6187 0.9692
7.3902 -2.0059 -1.6187 0.9692
7.4577 -1.7379 -1.6187 0.9692
7.5156 -1.4676 -1.6187 0.9692
3.5861 -5.8800 -1.6187 0.9721
4.7659 -4.9719 -1.6187 0.9721
5.1122 -4.6152 -1.6187 0.9721
5.2754 -4.4277 -1.6187 0.9721
5.5811 -4.0356 -1.6187 0.9721
5.8577 -3.6225 -1.6187 0.9721
6.1037 -3.1904 -1.6187 0.9721
6.5773 -2.0429 -1.6187 0.9721
6.6467 -1.8042 -1.6187 0.9721
6.7075 -1.5631 -1.6187 0.9721
6.8372 -0.8289 -1.6187 0.9721
6.8627 -0.5816 -1.6187 0.9721
6.8791 -0.3335 -1.6187 0.9721
3.2551 -5.3374 -1.6187 0.9745
3.4456 -5.2164 -1.6187 0.9745
3.6317 -5.0887 -1.6187 0.9745
4.6404 -4.1893 -1.6187 0.9745
4.7886 -4.0191 -1.6187 0.9745
4.9305 -3.8436 -1.6187 0.9745
5.1949 -3.4779 -1.6187 0.9745
5.4323 -3.0941 -1.6187 0.9745
5.8995 -2.0686 -1.6187 0.9745
5.9703 -1.8543 -1.6187 0.9745
6.1358 -1.1982 -1.6187 0.9745
3.1514 -4.7710 -1.6187 0.9765
3.4874 -4.5312 -1.6187 0.9765
4.1031 -3.9822 -1.6187 0.9765
4.5095 -3.5154 -1.6187 0.9765
4.6334 -3.3503 -1.6187 0.9765
4.7513 -3.1809 -1.6187 0.9765
4.9684 -2.8299 -1.6187 0.9765
5.0673 -2.6487 -1.6187 0.9765
5.1596 -2.4641 -1.6187 0.9765
5.2452 -2.2763 -1.6187 0.9765
5.3239 -2.0855 -1.6187 0.9765
5.3957 -1.8920 -1.6187 0.9765
5.5181 -1.4978 -1.6187 0.9765
5.6118 -1.0958 -1.6187 0.9765
5.6974 -0.4829 -1.6187 0.9765
5.7111 -0.2769 -1.6187 0.9765
2.7402 -4.4930 -1.6187 0.9782
3.0571 -4.2836 -1.6187 0.9782
3.3582 -4.0519 -1.6187 0.9782
3.5023 -3.9281 -1.6187 0.9782
3.6417 -3.7991 -1.6187 0.9782
3.7765 -3.6652 -1.6187 0.9782
3.9063 -3.5265 -1.6187 0.9782
4.1505 -3.2355 -1.6187 0.9782
4.2646 -3.0836 -1.6187 0.9782
4.5729 -2.6046 -1.6187 0.9782
4.9662 -1.7414 -1.6187 0.9782
5.0258 -1.5610 -1.6187 0.9782
5.1981 -0.8215 -1.6187 0.9782
5.2244 -0.6334 -1.6187 0.9782
5.2438 -0.4444 -1.6187 0.9782
2.5355 -4.1574 -1.6187 0.9797
2.6839 -4.0632 -1.6187 0.9797
3.1074 -3.7493 -1.6187 0.9797
3.2407 -3.6347 -1.6187 0.9797
3.3698 -3.5154 -1.6187 0.9797
3.6146 -3.2631 -1.6187 0.9797
3.8405 -2.9939 -1.6187 0.9797
4.3156 -2.2558 -1.6187 0.9797
4.5341 -1.7761 -1.6187 0.9797
4.5953 -1.6113 -1.6187 0.9797
4.7425 -1.1052 -1.6187 0.9797
4.7793 -0.9333 -1.6187 0.9797
4.8099 -0.7602 -1.6187 0.9797
4.8342 -0.5861 -1.6187 0.9797
4.8522 -0.4112 -1.6187 0.9797
3.0123 -3.3786 -1.6187 0.9810
3.1323 -3.2676 -1.6187 0.9810
3.4671 -2.9099 -1.6187 0.9810
3.5699 -2.7829 -1.6187 0.9810
3.6680 -2.6522 -1.6187 0.9810
3.7613 -2.5181 -1.6187 0.9810
3.9332 -2.2402 -1.6187 0.9810
4.0115 -2.0968 -1.6187 0.9810
4.2146 -1.6510 -1.6187 0.9810
4.4425 -0.8675 -1.6187 0.9810
4.4709 -0.7066 -1.6187 0.9810
4.4935 -0.5448 -1.6187 0.9810
4.5102 -0.3822 -1.6187 0.9810
4.5211 -0.2192 -1.6187 0.9810
2.6954 -3.2522 -1.6187 0.9821
2.8110 -3.1528 -1.6187 0.9821
3.0311 -2.9418 -1.6187 0.9821
3.1353 -2.8305 -1.6187 0.9821
3.2354 -2.7155 -1.6187 0.9821
3.3313 -2.5969 -1.6187 0.9821
3.4229 -2.4750 -1.6187 0.9821
3.5100 -2.3498 -1.6187 0.9821
3.9329 -1.5406 -1.6187 0.9821
4.0764 -1.1065 -1.6187 0.9821
4.1137 -0.9586 -1.6187 0.9821
4.1456 -0.8095 -1.6187 0.9821
4.2088 -0.3567 -1.6187 0.9821
4.2190 -0.2046 -1.6187 0.9821
2.5237 -3.0451 -1.6187 0.9831
2.6320 -2.9521 -1.6187 0.9831
2.7369 -2.8551 -1.6187 0.9831
2.8381 -2.7545 -1.6187 0.9831
2.9357 -2.6503 -1.6187 0.9831
3.0294 -2.5426 -1.6187 0.9831
3.2050 -2.3174 -1.6187 0.9831
3.5051 -1.8321 -1.6187 0.9831
3.6825 -1.4425 -1.6187 0.9831
3.7770 -1.1731 -1.6187 0.9831
3.8518 -0.8976 -1.6187 0.9831
3.8817 -0.7580 -1.6187 0.9831
1.9339 -3.1710 -1.6187 0.9839
2.0471 -3.0991 -1.6187 0.9839
2.1576 -3.0232 -1.6187 0.9839
2.4717 -2.7723 -1.6187 0.9839
2.5702 -2.6812 -1.6187 0.9839
2.6653 -2.5867 -1.6187 0.9839
2.7569 -2.4889 -1.6187 0.9839
2.8449 -2.3877 -1.6187 0.9839
2.9293 -2.2835 -1.6187 0.9839
3.0098 -2.1763 -1.6187 0.9839
3.0863 -2.0662 -1.6187 0.9839
3.1589 -1.9535 -1.6187 0.9839
3.2274 -1.8382 -1.6187 0.9839
3.4071 -1.4786 -1.6187 0.9839
3.5049 -1.2290 -1.6187 0.9839
3.5845 -0.9729 -1.6187 0.9839
3.6172 -0.8429 -1.6187 0.9839
3.6871 -0.4470 -1.6187 0.9839
3.7009 -0.3137 -1.6187 0.9839
3.7098 -0.1799 -1.6187 0.9839
1.8208 -2.9855 -1.6187 0.9847
2.0314 -2.8464 -1.6187 0.9847
2.1328 -2.7712 -1.6187 0.9847
2.2315 -2.6925 -1.6187 0.9847
2.4199 -2.5245 -1.6187 0.9847
2.5094 -2.4355 -1.6187 0.9847
2.6786 -2.2481 -1.6187 0.9847
2.7579 -2.1500 -1.6187 0.9847
2.8337 -2.0490 -1.6187 0.9847
2.9059 -1.9454 -1.6187 0.9847
2.9742 -1.8393 -1.6187 0.9847
3.0386 -1.7307 -1.6187 0.9847
3.2560 -1.2754 -1.6187 0.9847
3.3000 -1.1571 -1.6187 0.9847
3.3748 -0.9160 -1.6187 0.9847
3.4057 -0.7936 -1.6187 0.9847
3.4321 -0.6702 -1.6187 0.9847
3.4845 -0.2953 -1.6187 0.9847
1.8188 -2.7535 -1.6187 0.9854
1.9170 -2.6860 -1.6187 0.9854
2.0127 -2.6151 -1.6187 0.9854
2.1057 -2.5408 -1.6187 0.9854
2.1961 -2.4631 -1.6187 0.9854
2.2835 -2.3822 -1.6187 0.9854
2.4494 -2.2113 -1.6187 0.9854
2.6026 -2.0288 -1.6187 0.9854
2.6741 -1.9336 -1.6187 0.9854
2.8674 -1.6332 -1.6187 0.9854
2.9245 -1.5287 -1.6187 0.9854
3.0272 -1.3137 -1.6187 0.9854
3.0726 -1.2036 -1.6187 0.9854
3.1140 -1.0919 -1.6187 0.9854
3.2759 -0.3972 -1.6187 0.9854
3.2960 -0.1598 -1.6187 0.9854
1.7197 -2.6035 -1.6187 0.9860
1.8126 -2.5397 -1.6187 0.9860
2.3160 -2.0908 -1.6187 0.9860
2.3900 -2.0059 -1.6187 0.9860
2.6538 -1.6411 -1.6187 0.9860
2.7112 -1.5442 -1.6187 0.9860
2.8156 -1.3446 -1.6187 0.9860
2.9052 -1.1380 -1.6187 0.9860
3.0388 -0.7081 -1.6187 0.9860
3.0624 -0.5980 -1.6187 0.9860
3.0975 -0.3755 -1.6187 0.9860
1.5388 -2.5232 -1.6187 0.9866
1.6289 -2.4660 -1.6187 0.9866
1.7168 -2.4056 -1.6187 0.9866
1.8025 -2.3421 -1.6187 0.9866
1.9668 -2.2059 -1.6187 0.9866
2.0451 -2.1335 -1.6187 0.9866
2.3949 -1.7317 -1.6187 0.9866
2.4559 -1.6441 -1.6187 0.9866
2.5136 -1.5544 -1.6187 0.9866
2.7111 -1.1766 -1.6187 0.9866
2.7889 -0.9779 -1.6187 0.9866
2.9006 -0.5664 -1.6187 0.9866
2.9339 -0.3557 -1.6187 0.9866
2.9449 -0.2496 -1.6187 0.9866
1.7100 -2.2218 -1.6187 0.9871
1.7891 -2.1587 -1.6187 0.9871
1.8658 -2.0927 -1.6187 0.9871
1.9401 -2.0240 -1.6187 0.9871
2.0119 -1.9526 -1.6187 0.9871
2.0811 -1.8787 -1.6187 0.9871
2.2720 -1.6428 -1.6187 0.9871
2.3845 -1.4746 -1.6187 0.9871
2.4362 -1.3876 -1.6187 0.9871
2.5299 -1.2082 -1.6187 0.9871
2.5719 -1.1162 -1.6187 0.9871
2.6105 -1.0226 -1.6187 0.9871
2.7058 -0.7344 -1.6187 0.9871
2.7305 -0.6363 -1.6187 0.9871
2.7517 -0.5373 -1.6187 0.9871
2.7693 -0.4377 -1.6187 0.9871
2.7833 -0.3374 -1.6187 0.9871
2.8003 -0.1358 -1.6187 0.9871
