ply
format ascii 1.0
element vertex 356
property float32 x
property float32 y
property float32 z
property float32 I
end_header
-39.2411 -18.2701 7.6325 0.8388
-35.7739 -18.2681 7.0828 0.8495
-34.3128 -20.7986 7.0750 0.8496
-37.8230 -28.9997 8.4039 0.8240
-19.8164 -16.3722 4.5325 0.9009
-37.8060 -19.3058 6.5031 0.8422
-37.0068 -20.6288 6.4905 0.8424
-34.2421 -22.4991 6.2767 0.8472
-37.6992 -17.5522 5.4152 0.8456
-34.5451 -20.9394 5.2604 0.8496
-34.4059 -22.6068 5.3610 0.8470
-19.8118 -16.3685 2.7594 0.9018
-19.8106 -16.3675 2.1753 0.9020
-25.4637 -22.6465 2.1131 0.8723
-19.8058 -16.3635 1.0130 0.9023
-19.8033 -16.3614 0.4339 0.9023
-45.5333 -15.4210 -0.2707 0.8251
-42.6911 -16.2129 -0.2571 0.8330
-40.1197 -16.9313 -0.2452 0.8401
-33.6224 -18.7422 -0.2167 0.8573
-31.7572 -20.8664 -0.2139 0.8590
-32.2014 -22.8782 -0.2224 0.8538
-34.3336 -30.5350 -0.2587 0.8321
-39.1652 -11.6940 -1.1508 0.8491
-35.5397 -18.1485 -1.1237 0.8524
-31.7846 -20.8844 -1.0709 0.8588
-33.6142 -25.7727 -1.1927 0.8441
-2.9350 0.0030 -0.1488 0.9883
-2.9572 -0.1047 -0.1501 0.9882
-3.0944 -0.3361 -0.1579 0.9876
-31.4014 -5.7454 -1.6189 0.8800
-31.1715 -6.8843 -1.6189 0.8800
-30.5882 -9.1331 -1.6189 0.8800
-29.8428 -11.3334 -1.6189 0.8800
-29.4105 -12.4118 -1.6189 0.8800
-28.9394 -13.4737 -1.6189 0.8800
-27.9457 -14.2706 -1.5913 0.8819
-26.3357 -14.6803 -1.5291 0.8862
-23.5726 -16.7477 -1.4665 0.8906
-22.9475 -17.5943 -1.4665 0.8906
-19.6641 -16.2464 -1.2936 0.9029
-21.6069 -19.2164 -1.4665 0.8906
-19.3495 5.0602 -1.4665 0.9229
-2.5256 0.5632 -0.1897 0.9897
-2.4737 0.4578 -0.1845 0.9900
-2.4331 0.3593 -0.1803 0.9902
-2.4101 0.2667 -0.1778 0.9903
-2.4018 0.0024 -0.1761 0.9904
-2.4089 -0.1732 -0.1771 0.9904
-2.4101 -0.2617 -0.1778 0.9903
-2.4311 -0.3539 -0.1801 0.9902
-2.4709 -0.4521 -0.1842 0.9900
-2.5227 -0.5571 -0.1894 0.9897
-20.6403 -7.8386 -1.6189 0.9153
-20.3414 -8.5845 -1.6189 0.9153
-20.0155 -9.3189 -1.6188 0.9153
-18.8807 -11.4445 -1.6188 0.9153
-18.4517 -12.1239 -1.6188 0.9153
-17.5210 -13.4337 -1.6188 0.9153
-17.0205 -14.0623 -1.6188 0.9153
-16.4975 -14.6723 -1.6188 0.9153
-2.2371 0.5850 -0.2220 0.9908
-2.2106 0.4929 -0.2174 0.9909
-2.1560 0.1594 -0.2076 0.9914
-2.1539 0.0806 -0.2069 0.9914
-2.1505 0.0022 -0.2065 0.9914
-2.1562 -0.3139 -0.2092 0.9913
-16.1571 -4.8242 -1.6188 0.9345
-15.9708 -5.4089 -1.6188 0.9345
-15.7634 -5.9865 -1.6188 0.9345
-15.0171 -7.6685 -1.6188 0.9345
-14.7281 -8.2099 -1.6188 0.9345
-13.7456 -9.7659 -1.6188 0.9345
-13.3811 -10.2596 -1.6188 0.9345
-12.9989 -10.7397 -1.6188 0.9345
-12.5995 -11.2055 -1.6188 0.9345
-2.0545 0.5373 -0.2522 0.9915
-2.0376 0.4543 -0.2480 0.9916
-2.0205 0.3739 -0.2441 0.9918
-2.0117 0.2971 -0.2416 0.9918
-2.0015 0.0749 -0.2379 0.9920
-2.0012 -0.0708 -0.2379 0.9920
-2.0053 -0.1442 -0.2388 0.9919
-2.0087 -0.2182 -0.2400 0.9919
-2.0115 -0.2929 -0.2415 0.9918
-2.0197 -0.3696 -0.2439 0.9918
-2.0366 -0.4498 -0.2478 0.9916
-2.0535 -0.5326 -0.2520 0.9915
-2.0703 -0.6182 -0.2566 0.9913
-12.9077 -4.3715 -1.6188 0.9466
-12.5556 -5.2987 -1.6188 0.9466
-11.9033 -6.6353 -1.6188 0.9466
-1.9196 0.2835 -0.2749 0.9922
-1.9104 0.0715 -0.2709 0.9923
-1.9042 0.0019 -0.2698 0.9923
-1.9174 -0.2082 -0.2733 0.9922
-1.9227 -0.3518 -0.2769 0.9921
-1.9343 -0.4272 -0.2807 0.9920
-1.9476 -0.5051 -0.2851 0.9919
-1.9753 -0.6690 -0.2955 0.9916
-10.6806 -4.0562 -1.6188 0.9549
-10.1750 -5.1959 -1.6188 0.9549
-9.7701 -5.9221 -1.6188 0.9549
-9.5481 -6.2737 -1.6188 0.9549
-9.3135 -6.6170 -1.6188 0.9549
-8.5369 -7.5925 -1.6188 0.9549
-1.8351 0.2710 -0.3056 0.9925
-1.8201 0.0018 -0.2998 0.9926
-1.8254 -0.0646 -0.3009 0.9926
-1.8335 -0.1991 -0.3038 0.9926
-1.8359 -0.3359 -0.3075 0.9925
-1.8533 -0.4807 -0.3154 0.9923
-1.8745 -0.6348 -0.3260 0.9920
-9.1861 -3.4886 -1.6188 0.9609
-8.9081 -4.1475 -1.6188 0.9609
-8.5828 -4.7843 -1.6188 0.9609
-8.0104 -5.6911 -1.6188 0.9609
-7.7979 -5.9788 -1.6188 0.9609
-7.5752 -6.2586 -1.6188 0.9609
-1.7615 0.3928 -0.3392 0.9927
-1.7572 0.2595 -0.3339 0.9928
-1.7520 0.1295 -0.3302 0.9929
-1.7571 -0.2558 -0.3338 0.9928
-1.7761 -0.5303 -0.3484 0.9925
-1.7828 -0.6038 -0.3538 0.9924
-7.9346 -3.3485 -1.6188 0.9656
-7.5224 -4.1932 -1.6188 0.9656
-7.3649 -4.4642 -1.6188 0.9656
-6.8345 -5.2402 -1.6188 0.9656
-6.4353 -5.7233 -1.6188 0.9656
-1.6916 0.4424 -0.3696 0.9929
-1.6848 0.3118 -0.3622 0.9930
-1.6824 0.1862 -0.3578 0.9931
-1.6793 0.1242 -0.3559 0.9931
-1.6754 0.0627 -0.3544 0.9932
-1.6707 0.0017 -0.3532 0.9932
-1.6752 -0.0593 -0.3543 0.9932
-1.6822 -0.1827 -0.3577 0.9931
-1.6846 -0.2452 -0.3598 0.9931
-1.6912 -0.4386 -0.3693 0.9929
-1.6971 -0.5067 -0.3744 0.9928
-1.7064 -0.6481 -0.3858 0.9926
-1.7116 -0.7223 -0.3927 0.9924
-6.4001 -4.2053 -1.6188 0.9692
-6.2428 -4.4354 -1.6188 0.9692
-6.0773 -4.6596 -1.6188 0.9692
-5.9037 -4.8776 -1.6187 0.9692
-5.7223 -5.0892 -1.6187 0.9692
-1.6160 0.3603 -0.3891 0.9932
-1.6144 0.1786 -0.3817 0.9933
-1.6117 0.1192 -0.3798 0.9934
-1.6040 0.0016 -0.3770 0.9934
-1.6116 -0.1159 -0.3797 0.9934
-1.6142 -0.1753 -0.3816 0.9934
-1.6170 -0.2959 -0.3864 0.9933
-1.6279 -0.5513 -0.4039 0.9930
-6.2441 -2.9071 -1.6188 0.9721
-1.5510 0.1716 -0.4040 0.9936
-1.5457 0.0579 -0.4005 0.9936
-1.5455 -0.0547 -0.4004 0.9936
-1.5486 -0.1113 -0.4020 0.9936
-1.5509 -0.1684 -0.4039 0.9936
-1.5528 -0.2841 -0.4087 0.9935
-1.5525 -0.3429 -0.4117 0.9935
-1.5528 -0.4027 -0.4153 0.9934
-1.5604 -0.5285 -0.4266 0.9932
-1.5693 -0.6623 -0.4410 0.9930
-5.5680 -2.8433 -1.6187 0.9745
-5.4608 -3.0441 -1.6187 0.9745
-5.2250 -3.4331 -1.6187 0.9745
-4.8197 -3.9821 -1.6187 0.9745
-1.4950 0.2767 -0.4304 0.9937
-1.4945 0.2207 -0.4277 0.9937
-1.4932 0.1652 -0.4253 0.9938
-1.4912 0.1103 -0.4233 0.9938
-1.4884 0.0557 -0.4217 0.9938
-1.4843 0.0015 -0.4202 0.9938
-1.4883 -0.0527 -0.4216 0.9938
-1.4911 -0.1072 -0.4232 0.9938
-1.4932 -0.1621 -0.4252 0.9938
-1.4941 -0.3875 -0.4370 0.9936
-1.5035 -0.5092 -0.4494 0.9934
-1.5072 -0.5724 -0.4564 0.9933
-1.5102 -0.6373 -0.4640 0.9932
-1.5124 -0.7041 -0.4723 0.9931
-5.0925 -2.6005 -1.6187 0.9765
-1.6616 -1.0071 -0.5500 0.9920
-4.5377 -3.4792 -1.6187 0.9765
-4.2727 -3.8000 -1.6187 0.9765
-1.4454 0.3223 -0.4555 0.9938
-1.4459 0.2676 -0.4523 0.9939
-1.4430 0.1067 -0.4451 0.9940
-1.4405 0.0539 -0.4434 0.9940
-1.4326 0.0015 -0.4406 0.9940
-1.4404 -0.0510 -0.4433 0.9940
-1.4447 -0.1569 -0.4470 0.9939
-1.4457 -0.2105 -0.4494 0.9939
-1.4460 -0.2646 -0.4521 0.9939
-1.4466 -0.4319 -0.4644 0.9937
-1.4500 -0.4911 -0.4709 0.9936
-1.4528 -0.5517 -0.4780 0.9935
-1.4547 -0.6139 -0.4857 0.9934
-1.4559 -0.6778 -0.4939 0.9933
-4.2903 -3.0481 -1.6187 0.9782
-3.9326 -3.4975 -1.6187 0.9782
-1.3985 0.3118 -0.4763 0.9940
-1.3993 0.2590 -0.4731 0.9940
-1.3994 0.2066 -0.4702 0.9941
-1.3987 0.1548 -0.4678 0.9941
-1.3922 0.0521 -0.4631 0.9941
-1.3837 0.0014 -0.4599 0.9942
-1.3918 -0.0493 -0.4629 0.9941
-1.3971 -0.1005 -0.4656 0.9941
-1.3987 -0.1519 -0.4677 0.9941
-1.3994 -0.2560 -0.4729 0.9940
-1.3985 -0.3089 -0.4761 0.9940
-1.3969 -0.3623 -0.4797 0.9939
-1.3974 -0.4172 -0.4848 0.9939
-1.4025 -0.5919 -0.5060 0.9936
-1.4027 -0.6531 -0.5143 0.9935
-1.4020 -0.7160 -0.5233 0.9934
-1.4952 -0.9063 -0.5812 0.9927
-3.9698 -2.8205 -1.6187 0.9797
-3.7542 -3.1017 -1.6187 0.9797
-3.6388 -3.2363 -1.6187 0.9797
-1.3519 0.3535 -0.4997 0.9941
-1.3554 0.2001 -0.4899 0.9942
-1.3549 0.1499 -0.4875 0.9942
-1.3525 0.1000 -0.4850 0.9943
-1.3453 0.0504 -0.4814 0.9943
-1.3373 0.0013 -0.4782 0.9943
-1.3449 -0.0476 -0.4812 0.9943
-1.3549 -0.1471 -0.4874 0.9942
-1.3551 -0.2479 -0.4926 0.9942
-1.3507 -0.4033 -0.5041 0.9940
-1.3523 -0.4580 -0.5106 0.9940
-1.3530 -0.5138 -0.5176 0.9939
-1.3532 -0.5711 -0.5252 0.9938
-1.3511 -0.6900 -0.5425 0.9936
-1.4952 -0.9063 -0.6253 0.9926
-3.3824 -3.0082 -1.6187 0.9810
-1.3092 0.3424 -0.5186 0.9942
-1.3114 0.2924 -0.5149 0.9943
-1.3128 0.2429 -0.5116 0.9943
-1.3134 0.1939 -0.5088 0.9943
-1.3131 0.1453 -0.5063 0.9944
-1.3074 0.0967 -0.5024 0.9944
-1.3007 0.0487 -0.4988 0.9944
-1.2933 0.0013 -0.4956 0.9945
-1.3003 -0.0460 -0.4986 0.9944
-1.3128 -0.2402 -0.5115 0.9943
-1.3115 -0.2896 -0.5147 0.9943
-1.3064 -0.3901 -0.5225 0.9942
-1.3075 -0.4966 -0.5360 0.9940
-1.3068 -0.5515 -0.5435 0.9939
-1.2998 -0.7246 -0.5703 0.9936
-3.5302 -2.3196 -1.6187 0.9821
-3.4434 -2.4465 -1.6187 0.9821
-3.1563 -2.8071 -1.6187 0.9821
-1.2684 0.3317 -0.5366 0.9943
-1.2724 0.2355 -0.5296 0.9944
-1.2644 0.0935 -0.5189 0.9945
-1.2583 0.0471 -0.5154 0.9946
-1.2514 0.0013 -0.5122 0.9946
-1.2579 -0.0445 -0.5152 0.9946
-1.2641 -0.0909 -0.5187 0.9945
-1.2695 -0.1379 -0.5226 0.9945
-1.2732 -0.1854 -0.5266 0.9945
-1.2725 -0.2328 -0.5294 0.9944
-1.2646 -0.4283 -0.5465 0.9942
-1.2629 -0.5330 -0.5610 0.9941
-3.3054 -2.1719 -1.6187 0.9831
-3.2242 -2.2907 -1.6187 0.9831
-3.1387 -2.4065 -1.6187 0.9831
-2.9554 -2.6284 -1.6187 0.9831
-1.2320 0.2747 -0.5501 0.9945
-1.2325 0.1820 -0.5430 0.9946
-1.2284 0.1359 -0.5386 0.9946
-1.2235 0.0905 -0.5347 0.9947
-1.2175 -0.0431 -0.5309 0.9947
-1.2282 -0.1334 -0.5384 0.9946
-1.2338 -0.2258 -0.5467 0.9945
-1.2321 -0.2721 -0.5499 0.9945
-1.2295 -0.3189 -0.5536 0.9945
-1.2261 -0.3661 -0.5577 0.9944
-1.2099 -0.6744 -0.6037 0.9940
-1.2043 -0.7300 -0.6138 0.9939
-3.1041 -2.0396 -1.6187 0.9839
-1.1920 0.3117 -0.5703 0.9946
-1.1948 0.2664 -0.5666 0.9946
-1.1732 0.0012 -0.5430 0.9948
-1.1887 -0.1291 -0.5534 0.9947
-1.1924 -0.1736 -0.5577 0.9947
-1.1952 -0.2187 -0.5624 0.9947
-1.1922 -0.3092 -0.5701 0.9946
-1.1886 -0.3549 -0.5742 0.9945
-1.1849 -0.4013 -0.5791 0.9945
-1.1836 -0.4495 -0.5860 0.9944
-1.1813 -0.4985 -0.5935 0.9944
-1.1739 -0.5995 -0.6101 0.9942
-1.1687 -0.6515 -0.6193 0.9941
-1.1552 -0.7590 -0.6398 0.9939
-2.8508 -2.0254 -1.6187 0.9847
-2.7752 -2.1278 -1.6187 0.9847
-1.1567 0.2141 -0.5770 0.9948
-1.1543 0.1704 -0.5724 0.9948
-1.1470 0.0848 -0.5642 0.9949
-1.1366 0.0011 -0.5575 0.9949
-1.1542 -0.1680 -0.5721 0.9948
-1.1566 -0.2116 -0.5768 0.9948
-1.1563 -0.2999 -0.5859 0.9947
-1.1525 -0.3441 -0.5900 0.9947
-1.1479 -0.3888 -0.5945 0.9946
-1.1228 -0.6805 -0.6440 0.9942
-1.1150 -0.7326 -0.6544 0.9941
-1.1194 -0.7953 -0.6736 0.9939
-1.1213 0.2932 -0.6013 0.9948
-1.1197 0.2072 -0.5908 0.9949
-1.1177 0.1650 -0.5861 0.9949
-1.1111 0.0822 -0.5780 0.9950
-1.1067 0.0414 -0.5745 0.9950
-1.1064 -0.0392 -0.5743 0.9950
-1.1196 -0.2049 -0.5905 0.9949
-1.1179 -0.3338 -0.6052 0.9948
-1.1131 -0.3770 -0.6097 0.9947
-1.1028 -0.5134 -0.6311 0.9945
-1.0979 -0.5606 -0.6395 0.9945
-1.0919 -0.6087 -0.6485 0.9944
-1.0849 -0.6576 -0.6582 0.9943
-1.0537 -0.7487 -0.6706 0.9942
-2.3316 -2.0736 -1.6187 0.9860
-1.0851 0.2838 -0.6143 0.9949
-1.0851 0.2420 -0.6089 0.9949
-1.0766 0.0796 -0.5913 0.9951
-1.0723 -0.0380 -0.5876 0.9951
-1.0824 -0.1576 -0.5991 0.9950
-1.0851 -0.2396 -0.6086 0.9949
-1.0797 -0.3657 -0.6243 0.9948
-1.0718 -0.4523 -0.6371 0.9947
-1.0623 -0.5425 -0.6533 0.9946
-1.0421 -0.6316 -0.6674 0.9945
-1.0240 -0.6728 -0.6711 0.9944
-1.0045 -0.7137 -0.6749 0.9944
-2.2084 -1.9641 -1.6187 0.9866
-1.0507 0.2343 -0.6215 0.9950
-1.0487 0.1548 -0.6120 0.9951
-1.0465 0.1158 -0.6079 0.9951
-1.0394 -0.0368 -0.6005 0.9952
-1.0463 -0.1136 -0.6077 0.9952
-1.0501 -0.1921 -0.6163 0.9951
-1.0473 -0.3547 -0.6384 0.9949
-1.0381 -0.4381 -0.6505 0.9948
-1.0260 -0.5239 -0.6651 0.9947
-1.0111 -0.5636 -0.6683 0.9947
-0.9774 -0.6422 -0.6752 0.9946
-0.9585 -0.6810 -0.6789 0.9946
