ply
format ascii 1.0
element vertex 437
property float32 x
property float32 y
property float32 z
property float32 I
end_header
-6.0669 43.8359 7.8031 0.8355
-8.6252 34.2163 6.2220 0.8665
-8.7107 29.9087 5.4928 0.8812
-9.7665 26.2377 4.9365 0.8925
-10.4393 25.1948 4.8088 0.8951
-11.7198 23.3170 4.6015 0.8994
-12.1729 22.1654 4.4590 0.9024
-12.4050 20.7566 4.2638 0.9065
-12.7190 19.6201 4.1229 0.9094
-13.0132 18.5548 3.9962 0.9121
-12.3050 16.2507 3.5942 0.9205
-12.6094 15.4483 3.5162 0.9222
-4.8812 48.1358 7.4120 0.8222
-5.6060 40.5055 6.2644 0.8475
-7.9064 37.0101 5.7977 0.8580
-8.6504 34.3161 5.4215 0.8666
-8.7056 29.8913 4.7694 0.8816
-9.6515 25.9287 4.2384 0.8941
-10.3724 25.0333 4.1511 0.8961
-11.3223 24.7348 4.1673 0.8958
-11.7198 23.3171 3.9979 0.8998
-12.0686 21.9755 3.8408 0.9035
-12.6688 19.5426 3.5679 0.9101
-13.0087 18.5483 3.4707 0.9124
-12.9198 17.0626 3.2787 0.9170
-13.5333 16.5802 3.2787 0.9170
-14.0947 14.9039 3.1425 0.9203
-5.6240 40.6357 5.3421 0.8475
-7.9064 37.0101 4.9282 0.8584
-9.6112 25.8204 3.5877 0.8948
-10.3372 24.9484 3.5166 0.8968
-11.2938 24.6725 3.5335 0.8963
-11.7200 23.3175 3.3984 0.9001
-12.0687 21.9758 3.2649 0.9038
-12.4053 20.7569 3.1489 0.9071
-12.7191 19.6202 3.0448 0.9100
-13.0132 18.5548 2.9512 0.9126
-13.3437 17.6225 2.8785 0.9147
-13.5675 16.6221 2.7941 0.9171
-13.8563 15.7657 2.7333 0.9188
-6.9014 39.2634 4.2808 0.8518
-8.7538 30.0567 3.3616 0.8817
-9.8586 29.7621 3.3667 0.8815
-10.4550 28.0874 3.2182 0.8864
-10.8967 26.2988 3.0568 0.8918
-12.0688 21.9758 2.6922 0.9041
-12.4053 20.7569 2.5966 0.9073
-13.3437 17.6225 2.3736 0.9149
-13.7566 16.8538 2.3361 0.9162
-3.2103 49.6351 4.2105 0.8190
-6.9224 39.3825 3.3849 0.8517
-9.3478 32.0963 2.8299 0.8744
-9.9317 29.9827 2.6737 0.8809
-8.6545 23.2504 2.1001 0.9052
-12.0328 21.9104 2.1161 0.9045
-13.0132 18.5548 1.9185 0.9130
-13.3437 17.6225 1.8712 0.9151
-13.7566 16.8538 1.8417 0.9164
-11.7096 12.3819 1.4427 0.9339
-5.8464 33.2610 2.0941 0.8734
-7.9065 37.0105 2.3468 0.8593
-9.9317 29.9827 1.9586 0.8811
-11.3262 24.7433 1.6875 0.8967
-12.1200 24.1132 1.6735 0.8975
-12.0328 21.9104 1.5501 0.9047
-12.4053 20.7569 1.4995 0.9076
-12.8719 19.8559 1.4674 0.9095
-13.3437 17.6225 1.3707 0.9152
-13.7799 16.8823 1.3513 0.9164
-13.8563 15.7657 1.3016 0.9193
-11.7096 12.3819 1.0568 0.9340
-4.9222 48.5406 1.9238 0.8226
-6.1216 44.2311 1.7607 0.8363
-7.9065 37.0105 1.4923 0.8594
-8.7286 34.6264 1.4081 0.8668
-7.7222 26.5148 1.0889 0.8953
-9.9317 29.9827 1.2454 0.8812
-10.8108 29.0432 1.2220 0.8833
-9.5703 19.0405 0.8403 0.9182
-10.2073 17.0792 0.7846 0.9234
-10.4677 16.1473 0.7588 0.9259
-10.9420 14.4506 0.7147 0.9300
-11.2989 12.8558 0.6749 0.9338
-4.9320 35.6357 0.6077 0.8660
-6.4514 30.1993 0.5216 0.8838
-7.1041 28.1820 0.4909 0.8902
-8.0769 24.3834 0.4339 0.9023
-8.5562 22.9864 0.4143 0.9065
-8.9462 21.5912 0.3948 0.9107
-10.2073 17.0792 0.3361 0.9235
-10.7119 15.2736 0.3151 0.9281
-10.9420 14.4506 0.3062 0.9301
-11.1596 13.6721 0.2981 0.9318
-11.2989 12.8558 0.2891 0.9338
-4.7652 46.9931 -0.2659 0.8278
-6.4514 30.1993 -0.1739 0.8838
-7.1041 28.1820 -0.1636 0.8902
-7.6446 26.2482 -0.1539 0.8964
-9.9281 18.0779 -0.1161 0.9208
-10.2073 17.0792 -0.1120 0.9235
-10.4677 16.1473 -0.1083 0.9259
-10.7119 15.2736 -0.1050 0.9281
-10.9420 14.4506 -0.1021 0.9301
-11.5634 12.2273 -0.0948 0.9349
-2.9514 45.6323 -1.2876 0.8328
-4.6988 46.3372 -1.3115 0.8300
-4.9320 35.6356 -1.0130 0.8659
-6.4514 30.1993 -0.8695 0.8838
-7.6445 26.2481 -0.7698 0.8964
-8.0769 24.3834 -0.7232 0.9023
-8.5562 22.9864 -0.6906 0.9065
-9.3015 20.3200 -0.6293 0.9145
-9.5703 19.0405 -0.6000 0.9183
-10.2073 17.0792 -0.5603 0.9235
-10.9420 14.4506 -0.5104 0.9300
-11.1596 13.6721 -0.4969 0.9318
-11.5634 12.2273 -0.4739 0.9349
7.5343 27.9138 -1.4663 0.8907
4.4415 28.5700 -1.4663 0.8907
0.2414 28.9128 -1.4663 0.8906
-0.8130 28.9026 -1.4663 0.8906
-6.0407 28.2766 -1.4664 0.8906
-7.0680 28.0379 -1.4664 0.8906
-7.6445 26.2481 -1.3865 0.8963
-8.5562 22.9864 -1.2439 0.9064
-8.9462 21.5912 -1.1853 0.9106
-9.9281 18.0779 -1.0460 0.9207
-10.2073 17.0792 -1.0091 0.9234
-11.1595 13.6720 -0.8950 0.9318
-11.2988 12.8558 -0.8680 0.9337
-11.5634 12.2273 -0.8535 0.9348
4.5039 19.4843 -1.4663 0.9229
1.6238 19.9323 -1.4663 0.9229
0.8960 19.9783 -1.4663 0.9229
-3.4621 19.6969 -1.4664 0.9229
-4.8884 19.3923 -1.4664 0.9229
-5.5922 19.2013 -1.4664 0.9229
-7.6554 18.4761 -1.4664 0.9229
-9.6271 17.5298 -1.4664 0.9229
-10.9420 14.4506 -1.3290 0.9299
-11.2989 12.8558 -1.2549 0.9337
2.8949 14.9964 -1.4663 0.9405
1.2402 15.2229 -1.4663 0.9405
0.6843 15.2581 -1.4663 0.9405
-1.5409 15.1956 -1.4663 0.9405
-3.7334 14.8104 -1.4664 0.9405
-4.2709 14.6645 -1.4664 0.9405
-5.3282 14.3144 -1.4664 0.9405
-6.3572 13.8881 -1.4664 0.9405
-8.7704 12.5052 -1.4664 0.9405
-9.2205 12.1771 -1.4664 0.9405
-9.6583 11.8329 -1.4664 0.9405
-10.4950 11.0976 -1.4664 0.9405
2.3397 12.1204 -1.4663 0.9515
1.4502 12.2587 -1.4663 0.9515
1.0023 12.3034 -1.4663 0.9515
0.5531 12.3318 -1.4663 0.9515
0.1031 12.3438 -1.4663 0.9515
-0.3471 12.3394 -1.4663 0.9515
-1.2454 12.2813 -1.4663 0.9515
-1.6923 12.2278 -1.4663 0.9515
-2.1371 12.1580 -1.4663 0.9515
-3.0174 11.9700 -1.4663 0.9515
-3.4518 11.8521 -1.4663 0.9515
-5.1380 11.2245 -1.4664 0.9515
-5.5438 11.0297 -1.4664 0.9515
-6.7151 10.3585 -1.4664 0.9515
-7.0883 10.1068 -1.4664 0.9515
-8.1495 9.2725 -1.4664 0.9515
-8.4821 8.9692 -1.4664 0.9515
2.6968 9.9912 -1.4663 0.9591
2.3307 10.0829 -1.4663 0.9591
1.9615 10.1612 -1.4663 0.9591
1.5897 10.2260 -1.4663 0.9591
1.2158 10.2771 -1.4663 0.9591
-0.2910 10.3448 -1.4663 0.9591
-1.0441 10.2961 -1.4663 0.9591
-1.4188 10.2512 -1.4663 0.9591
-2.5296 10.0351 -1.4663 0.9591
-3.6102 9.6989 -1.4663 0.9591
-3.9615 9.5609 -1.4664 0.9591
-4.9818 9.0712 -1.4664 0.9591
-5.3092 8.8835 -1.4664 0.9591
-5.6295 8.6841 -1.4664 0.9591
-5.9425 8.4730 -1.4664 0.9591
-6.5441 8.0175 -1.4664 0.9591
-7.1110 7.5193 -1.4664 0.9591
1.3673 8.7952 -1.4663 0.9646
1.0457 8.8392 -1.4663 0.9646
0.0743 8.9005 -1.4663 0.9646
-0.5745 8.8823 -1.4663 0.9646
-1.2203 8.8169 -1.4663 0.9646
-2.1757 8.6310 -1.4663 0.9646
-2.7989 8.4495 -1.4663 0.9646
-3.9974 7.9529 -1.4663 0.9646
-4.2847 7.8019 -1.4664 0.9646
-5.1110 7.2875 -1.4664 0.9646
1.1984 7.7086 -1.4663 0.9687
0.0651 7.8009 -1.4663 0.9687
-0.2193 7.7981 -1.4663 0.9687
-0.7870 7.7614 -1.4663 0.9687
-1.6298 7.6291 -1.4663 0.9687
-2.1814 7.4901 -1.4663 0.9687
-3.7553 6.8380 -1.4663 0.9687
-4.9331 6.0437 -1.4664 0.9687
-5.3604 5.6682 -1.4664 0.9687
1.0656 6.8545 -1.4663 0.9720
0.5632 6.9140 -1.4663 0.9720
-0.1950 6.9341 -1.4663 0.9720
-0.4477 6.9224 -1.4663 0.9720
-0.9510 6.8714 -1.4663 0.9720
-1.2009 6.8322 -1.4663 0.9720
-1.9397 6.6602 -1.4663 0.9720
-2.1813 6.5851 -1.4663 0.9720
-2.6554 6.4087 -1.4663 0.9720
-2.8873 6.3076 -1.4663 0.9720
-3.3393 6.0804 -1.4663 0.9720
-3.9832 5.6795 -1.4663 0.9720
-4.3865 5.3741 -1.4663 0.9720
-4.7665 5.0401 -1.4664 0.9720
1.4051 6.0787 -1.4663 0.9747
0.9584 6.1650 -1.4663 0.9747
0.2796 6.2328 -1.4663 0.9747
0.0521 6.2388 -1.4663 0.9747
-0.8553 6.1802 -1.4663 0.9747
-1.3034 6.1014 -1.4663 0.9747
-1.7446 5.9902 -1.4663 0.9747
-2.1765 5.8472 -1.4663 0.9747
-2.5968 5.6730 -1.4663 0.9747
-3.3939 5.2353 -1.4663 0.9747
-3.9452 4.8335 -1.4663 0.9747
-4.1188 4.6864 -1.4663 0.9747
-4.2870 4.5331 -1.4663 0.9747
1.5072 5.5840 -1.4975 0.9764
1.0734 5.5606 -1.4663 0.9769
0.2537 5.6576 -1.4663 0.9769
0.0473 5.6631 -1.4663 0.9769
-0.3655 5.6514 -1.4663 0.9769
-0.5713 5.6344 -1.4663 0.9769
-0.9804 5.5778 -1.4663 0.9769
-1.1831 5.5383 -1.4663 0.9769
-1.7808 5.3760 -1.4663 0.9769
-2.1678 5.2320 -1.4663 0.9769
-2.5433 5.0601 -1.4663 0.9769
-2.7262 4.9640 -1.4663 0.9769
-2.9053 4.8613 -1.4663 0.9769
-3.7387 4.2539 -1.4663 0.9769
-3.8913 4.1148 -1.4663 0.9769
1.4838 5.4973 -1.6119 0.9766
0.8267 5.3181 -1.5236 0.9779
0.6205 5.2450 -1.4952 0.9783
0.4218 5.1771 -1.4705 0.9786
0.0432 5.1795 -1.4663 0.9787
-0.1456 5.1776 -1.4663 0.9787
-0.5225 5.1532 -1.4663 0.9787
-0.8967 5.1014 -1.4663 0.9787
-1.2661 5.0225 -1.4663 0.9787
-1.4484 4.9731 -1.4663 0.9787
-1.6287 4.9169 -1.4663 0.9787
-1.8069 4.8543 -1.4663 0.9787
-2.1559 4.7097 -1.4663 0.9787
-2.3262 4.6280 -1.4663 0.9787
-2.4933 4.5401 -1.4663 0.9787
-2.6572 4.4462 -1.4663 0.9787
-2.8176 4.3463 -1.4663 0.9787
-3.1268 4.1295 -1.4663 0.9787
-3.2803 4.0189 -1.4686 0.9787
0.9949 5.1537 -1.6144 0.9783
0.8055 5.1815 -1.6129 0.9783
0.6155 5.2026 -1.6114 0.9783
0.4195 5.1497 -1.5892 0.9786
0.2279 5.0815 -1.5645 0.9789
0.0419 5.0193 -1.5439 0.9792
-0.1395 4.9609 -1.5265 0.9794
-0.4915 4.8466 -1.4983 0.9798
-0.8322 4.7344 -1.4785 0.9801
-1.4997 4.5275 -1.4670 0.9802
-1.9999 4.3690 -1.4779 0.9801
-2.1696 4.3165 -1.4859 0.9800
-2.3412 4.2630 -1.4959 0.9799
-2.6947 4.1569 -1.5237 0.9795
-3.0680 4.0517 -1.5632 0.9790
-3.4582 3.9347 -1.6112 0.9783
-3.6025 3.8094 -1.6127 0.9783
0.9230 4.7814 -1.6187 0.9797
0.5715 4.8308 -1.6170 0.9797
0.3947 4.8446 -1.6157 0.9797
0.2176 4.8522 -1.6145 0.9797
0.0405 4.8539 -1.6135 0.9797
-0.1364 4.8495 -1.6126 0.9798
-0.4890 4.8222 -1.6111 0.9798
-0.6601 4.7692 -1.6004 0.9799
-0.8285 4.7137 -1.5909 0.9800
-1.1604 4.6032 -1.5780 0.9802
-1.3259 4.5526 -1.5762 0.9802
-1.4915 4.5028 -1.5767 0.9802
-1.6573 4.4524 -1.5792 0.9802
-2.3308 4.2441 -1.6095 0.9798
-2.4873 4.1619 -1.6117 0.9798
-2.6388 4.0705 -1.6125 0.9798
-2.9320 3.8722 -1.6145 0.9797
-3.0734 3.7654 -1.6156 0.9797
-3.2111 3.6536 -1.6169 0.9797
1.1796 4.3701 -1.6187 0.9810
0.8579 4.4445 -1.6187 0.9810
0.6954 4.4728 -1.6187 0.9810
0.0378 4.5264 -1.6187 0.9810
-0.2919 4.5128 -1.6172 0.9810
-0.4561 4.4974 -1.6165 0.9810
-0.6195 4.4762 -1.6160 0.9810
-0.7821 4.4494 -1.6155 0.9810
-0.9436 4.4170 -1.6152 0.9810
-1.1038 4.3789 -1.6149 0.9810
-1.2627 4.3355 -1.6148 0.9810
-1.4200 4.2867 -1.6149 0.9810
-1.5754 4.2324 -1.6150 0.9810
-1.7289 4.1727 -1.6152 0.9810
-1.8803 4.1077 -1.6155 0.9810
-2.1759 3.9620 -1.6164 0.9810
-2.4608 3.7960 -1.6178 0.9810
-2.5990 3.7058 -1.6186 0.9810
-2.7325 3.6088 -1.6187 0.9810
-2.8623 3.5067 -1.6187 0.9810
-2.9883 3.4000 -1.6187 0.9810
1.1007 4.0780 -1.6187 0.9821
0.4963 4.1948 -1.6187 0.9821
0.0353 4.2239 -1.6187 0.9821
-0.2726 4.2152 -1.6187 0.9821
-0.5791 4.1841 -1.6187 0.9821
-0.7312 4.1602 -1.6187 0.9821
-1.1812 4.0555 -1.6187 0.9821
-1.3282 4.0098 -1.6187 0.9821
-1.7581 3.8408 -1.6187 0.9821
-1.8970 3.7741 -1.6187 0.9821
-2.1670 3.6259 -1.6187 0.9821
-2.6710 3.2724 -1.6187 0.9821
-2.9024 3.0690 -1.6187 0.9821
0.8907 3.8535 -1.6187 0.9831
0.7496 3.8834 -1.6187 0.9831
0.6075 3.9081 -1.6187 0.9831
0.4647 3.9277 -1.6187 0.9831
-0.1112 3.9535 -1.6187 0.9831
-0.5422 3.9178 -1.6187 0.9831
-0.6847 3.8954 -1.6187 0.9831
-0.8263 3.8678 -1.6187 0.9831
-1.1059 3.7973 -1.6187 0.9831
-1.5140 3.6539 -1.6187 0.9831
-1.7762 3.5339 -1.6187 0.9831
-2.0290 3.3950 -1.6187 0.9831
-2.1515 3.3188 -1.6187 0.9831
-2.2710 3.2381 -1.6187 0.9831
-2.3876 3.1532 -1.6187 0.9831
-2.5009 3.0640 -1.6187 0.9831
-2.7176 2.8737 -1.6187 0.9831
0.7040 3.6469 -1.6187 0.9839
0.4364 3.6885 -1.6187 0.9839
0.3016 3.7020 -1.6187 0.9839
0.0310 3.7141 -1.6187 0.9839
-0.1045 3.7128 -1.6187 0.9839
-0.2397 3.7065 -1.6187 0.9839
-0.6430 3.6581 -1.6187 0.9839
-1.0386 3.5661 -1.6187 0.9839
-1.2957 3.4809 -1.6187 0.9839
-1.6680 3.3186 -1.6187 0.9839
-1.7879 3.2556 -1.6187 0.9839
-1.9054 3.1883 -1.6187 0.9839
-2.2422 2.9611 -1.6187 0.9839
-2.3487 2.8774 -1.6187 0.9839
-2.5521 2.6986 -1.6187 0.9839
0.7876 3.4072 -1.6187 0.9847
0.6628 3.4336 -1.6187 0.9847
0.4108 3.4728 -1.6187 0.9847
0.2839 3.4855 -1.6187 0.9847
0.0292 3.4969 -1.6187 0.9847
-0.2257 3.4897 -1.6187 0.9847
-0.3528 3.4792 -1.6187 0.9847
-0.7306 3.4199 -1.6187 0.9847
-1.0996 3.3196 -1.6187 0.9847
-1.7940 3.0018 -1.6187 0.9847
-1.9023 2.9344 -1.6187 0.9847
-2.0080 2.8631 -1.6187 0.9847
0.8599 3.1859 -1.6187 0.9854
0.6255 3.2402 -1.6187 0.9854
0.3877 3.2771 -1.6187 0.9854
0.1478 3.2967 -1.6187 0.9854
-0.0928 3.2987 -1.6187 0.9854
-0.2130 3.2931 -1.6187 0.9854
-0.4524 3.2688 -1.6187 0.9854
-0.5713 3.2502 -1.6187 0.9854
-0.6894 3.2272 -1.6187 0.9854
-0.8066 3.1999 -1.6187 0.9854
-1.0377 3.1326 -1.6187 0.9854
-1.1512 3.0927 -1.6187 0.9854
-1.2632 3.0487 -1.6187 0.9854
-1.4820 2.9485 -1.6187 0.9854
-1.5885 2.8925 -1.6187 0.9854
-1.7951 2.7691 -1.6187 0.9854
-1.8949 2.7018 -1.6187 0.9854
-1.9921 2.6309 -1.6187 0.9854
0.8131 3.0124 -1.6187 0.9860
0.4793 3.0832 -1.6187 0.9860
0.3666 3.0986 -1.6187 0.9860
0.2534 3.1099 -1.6187 0.9860
0.0261 3.1201 -1.6187 0.9860
-0.0877 3.1190 -1.6187 0.9860
-0.2014 3.1137 -1.6187 0.9860
-0.4278 3.0908 -1.6187 0.9860
-0.5402 3.0731 -1.6187 0.9860
-1.0885 2.9242 -1.6187 0.9860
-1.6973 2.6182 -1.6187 0.9860
-2.1439 2.2670 -1.6187 0.9860
0.7702 2.8533 -1.6187 0.9866
0.6656 2.8795 -1.6187 0.9866
0.2400 2.9457 -1.6187 0.9866
-0.1907 2.9493 -1.6187 0.9866
-0.4052 2.9276 -1.6187 0.9866
-0.6174 2.8903 -1.6187 0.9866
-0.9293 2.8056 -1.6187 0.9866
-1.0310 2.7698 -1.6187 0.9866
-1.1313 2.7304 -1.6187 0.9866
-1.6971 2.4197 -1.6187 0.9866
-2.0307 2.1473 -1.6187 0.9866
0.3294 2.7843 -1.6187 0.9871
0.2277 2.7944 -1.6187 0.9871
0.0234 2.8036 -1.6187 0.9871
-0.2829 2.7894 -1.6187 0.9871
-0.3844 2.7772 -1.6187 0.9871
-0.5857 2.7418 -1.6187 0.9871
-0.7840 2.6919 -1.6187 0.9871
-0.8816 2.6615 -1.6187 0.9871
-0.9781 2.6276 -1.6187 0.9871
-1.3496 2.4575 -1.6187 0.9871
-1.4383 2.4067 -1.6187 0.9871
-1.5251 2.3526 -1.6187 0.9871
-1.6099 2.2954 -1.6187 0.9871
-1.6925 2.2352 -1.6187 0.9871
-1.7729 2.1720 -1.6187 0.9871
